# .PCD v0.7 - Point Cloud Data file format
VERSION 0.7
FIELDS x y z
SIZE 4 4 4
TYPE F F F
COUNT 1 1 1
WIDTH 853
HEIGHT 1
VIEWPOINT 0 0 0 1 0 0 0
POINTS 853
DATA ascii
34.04166030883789 4.8685808181762695 2.2256479263305664
34.05288314819336 4.657235145568848 2.22198224067688
34.056861877441406 4.445157051086426 2.2185628414154053
34.06744384765625 4.234191417694092 2.214813470840454
34.08565139770508 4.024316310882568 2.210690975189209
33.55545425415039 3.753162145614624 2.2294530868530273
33.529972076416016 3.5422170162200928 2.2271037101745605
33.58768081665039 3.340132474899292 2.221210479736328
33.634220123291016 3.1365432739257812 2.215721607208252
33.662601470947266 2.9310338497161865 2.210937023162842
33.6688117980957 2.7236008644104004 2.2070305347442627
33.66776657104492 2.515753984451294 2.2033779621124268
33.66942596435547 2.3082947731018066 2.199556350708008
33.67778778076172 2.101407051086426 2.195394277572632
12.129695892333984 0.6814059019088745 3.113964319229126
33.65876007080078 1.6859883069992065 2.188434362411499
33.686248779296875 1.4802790880203247 2.183281898498535
12.681102752685547 0.47855958342552185 3.08587384223938
19.299219131469727 0.6104352474212646 2.7978851795196533
33.73320007324219 0.8608180284500122 2.1689963340759277
33.740657806396484 0.6539357900619507 2.16447114944458
33.75483703613281 0.4470997750759125 2.1595942974090576
33.764747619628906 0.2400917112827301 2.154844284057617
33.76739501953125 0.032971758395433426 2.150353193283081
12.876304626464844 -0.06718047708272934 3.0660719871520996
12.72873306274414 -0.14451147615909576 3.0708789825439453
33.8006706237793 -0.5890775918960571 2.135406494140625
33.80222702026367 -0.7965452671051025 2.1307260990142822
11.529424667358398 -0.34328293800354004 3.119142770767212
12.500443458557129 -0.44885510206222534 3.0740981101989746
11.781736373901367 -0.4955035150051117 3.10457444190979
12.759284019470215 -0.6149435043334961 3.0588817596435547
13.378649711608887 -0.7270206212997437 3.0290586948394775
12.84138011932373 -0.7769094109535217 3.051431894302368
12.837299346923828 -0.8557319045066833 3.0497052669525146
33.8823127746582 -2.4654126167297363 2.0880215167999268
13.094574928283691 -1.0343698263168335 3.034039258956909
13.109808921813965 -1.116537094116211 3.031317710876465
12.313750267028809 -1.1249428987503052 3.065941095352173
12.36819076538086 -1.2064626216888428 3.061476469039917
12.746010780334473 -1.322264313697815 3.041970729827881
12.768367767333984 -1.4038063287734985 3.038864850997925
13.411361694335938 -1.5577640533447266 3.0067358016967773
13.437171936035156 -1.6443663835525513 3.003300666809082
13.565462112426758 -1.74458646774292 2.995009660720825
13.863292694091797 -1.869386911392212 2.9786431789398193
11.841601371765137 -1.6709855794906616 3.072063684463501
13.863860130310059 -2.042959213256836 2.973823070526123
33.99326705932617 -5.220653533935547 2.0104596614837646
33.99787139892578 -5.435064315795898 2.0041885375976562
34.008026123046875 -5.650874614715576 1.997579574584961
34.00794982910156 -5.865487098693848 1.9913885593414307
34.01142883300781 -6.0811920166015625 1.9849525690078735
34.02336883544922 -6.298978328704834 1.9780327081680298
34.046661376953125 -6.519582748413086 1.9704793691635132
33.99797439575195 -6.726755142211914 1.9663721323013306
33.89714050292969 -6.923184394836426 1.9647753238677979
33.859683990478516 -7.1322174072265625 1.960010290145874
33.851192474365234 -7.34761905670166 1.9537461996078491
33.85791015625 -7.56688928604126 1.9466522932052612
33.82621383666992 -7.778014659881592 1.941398024559021
33.850547790527344 -8.002593040466309 1.9332643747329712
33.836509704589844 -8.218805313110352 1.9269753694534302
34.014923095703125 -8.483482360839844 1.9108693599700928
34.065555572509766 -8.718466758728027 1.9011017084121704
34.08559799194336 -8.946784973144531 1.8927934169769287
34.098331451416016 -9.174121856689453 1.884766936302185
34.0787353515625 -9.393461227416992 1.8783141374588013
34.08368682861328 -9.62022876739502 1.8705153465270996
34.09385299682617 -9.849352836608887 1.862357258796692
34.09386444091797 -10.076415061950684 1.8546364307403564
34.10097122192383 -10.306450843811035 1.8464545011520386
34.107486724853516 -10.537247657775879 1.8382108211517334
34.13912582397461 -10.77692985534668 1.8285456895828247
34.13962936401367 -11.007896423339844 1.8204251527786255
34.12245559692383 -11.233966827392578 1.8131548166275024
34.153961181640625 -11.47710132598877 1.8031898736953735
34.16486740112305 -11.714566230773926 1.7942218780517578
34.17414474487305 -11.952597618103027 1.7852402925491333
34.12910461425781 -12.172396659851074 1.7791070938110352
34.107994079589844 -12.4013090133667 1.7715905904769897
34.29137420654297 -12.706754684448242 1.7527693510055542
34.310638427734375 -12.95389461517334 1.7427936792373657
34.31977462768555 -13.19852352142334 1.733264684677124
34.32904815673828 -13.444479942321777 1.7236170768737793
34.34308624267578 -13.69363784790039 1.7135918140411377
34.33499526977539 -13.935209274291992 1.7046924829483032
34.34461212158203 -14.18520450592041 1.6946884393692017
34.368099212646484 -14.442416191101074 1.6837812662124634
34.35022735595703 -14.683574676513672 1.6751042604446411
29.631555557250977 -12.88231372833252 1.9356285333633423
29.55358123779297 -13.0646390914917 1.931559681892395
34.42412567138672 -15.470755577087402 1.6410605907440186
34.41461181640625 -15.721039772033691 1.631432294845581
34.435916900634766 -15.986923217773438 1.619884729385376
34.43809509277344 -16.245567321777344 1.6093260049819946
34.44469451904297 -16.507858276367188 1.5983786582946777
34.46282958984375 -16.77739906311035 1.5866142511367798
34.470890045166016 -17.043798446655273 1.5753101110458374
34.42164611816406 -17.28314971923828 1.5673089027404785
34.343177795410156 -17.50847625732422 1.560968279838562
34.280975341796875 -17.74267578125 1.5535564422607422
34.27465057373047 -18.006954193115234 1.5426406860351562
34.219661712646484 -18.246923446655273 1.5345730781555176
34.39398956298828 -18.611873626708984 1.5122601985931396
34.18349075317383 -18.770111083984375 1.5135471820831299
34.52015686035156 -19.23164176940918 1.480715274810791
34.46210479736328 -19.477415084838867 1.4722498655319214
34.49848556518555 -19.7783203125 1.4577174186706543
34.52556228637695 -20.076391220092773 1.443595051765442
34.52188491821289 -20.35879898071289 1.431257724761963
34.52031707763672 -20.64447784423828 1.4186270236968994
34.58057403564453 -20.969730377197266 1.4018454551696777
34.50968933105469 -21.217533111572266 1.3933645486831665
34.51332473754883 -21.512788772583008 1.3799047470092773
34.4622917175293 -21.775821685791016 1.3698607683181763
34.5077018737793 -22.102039337158203 1.3533108234405518
34.585567474365234 -22.452465057373047 1.33439040184021
34.54698181152344 -22.730039596557617 1.3230136632919312
34.528709411621094 -23.022939682006836 1.3101166486740112
34.65788269042969 -23.417644500732422 1.2870678901672363
34.718414306640625 -23.770235061645508 1.2683953046798706
34.7652473449707 -24.117046356201172 1.250414490699768
34.76010513305664 -24.430879592895508 1.2357797622680664
34.79877471923828 -24.778562545776367 1.2179056406021118
34.79722213745117 -25.10076904296875 1.2025996446609497
34.809146881103516 -25.435665130615234 1.1861381530761719
34.81264114379883 -25.76749610900879 1.1700471639633179
34.83892822265625 -26.11948585510254 1.1521098613739014
34.848670959472656 -26.462499618530273 1.1351112127304077
34.8697624206543 -26.817567825317383 1.1170576810836792
34.8744010925293 -27.16345977783203 1.0999451875686646
34.89020919799805 -27.521543502807617 1.081775426864624
34.91618728637695 -27.891429901123047 1.0625989437103271
34.786014556884766 -28.138980865478516 1.0547246932983398
34.781551361083984 -28.49036407470703 1.0373480319976807
34.92238235473633 -28.96575164794922 1.0088012218475342
34.900413513183594 -29.311031341552734 0.9921650290489197
34.90746307373047 -29.684289932250977 0.9730735421180725
34.93317413330078 -30.077625274658203 0.9522675275802612
34.924503326416016 -30.445493698120117 0.9338122010231018
34.8939094543457 -30.79786491394043 0.9167879819869995
34.95112228393555 -31.232154846191406 0.8926218152046204
34.992454528808594 -31.657583236694336 0.8693464994430542
34.9636116027832 -32.02400588989258 0.8513026237487793
35.01210403442383 -32.46592712402344 0.8267825841903687
35.033912658691406 -32.888458251953125 0.8040404915809631
34.99467086791992 -33.258148193359375 0.7859125733375549
32.36905288696289 30.833881378173828 2.0520098209381104
32.40819549560547 30.494348526000977 2.0552866458892822
32.3389892578125 30.057518005371094 2.0636894702911377
32.47397994995117 29.813974380493164 2.0620501041412354
32.53170394897461 29.50142478942871 2.064039945602417
32.45282745361328 29.06926918029785 2.072479009628296
32.43724822998047 28.698795318603516 2.0777268409729004
32.57411575317383 28.465742111206055 2.0755488872528076
32.57090759277344 28.112590789794922 2.079958200454712
32.592735290527344 27.784543991088867 2.0830483436584473
32.60565948486328 27.4521427154541 2.086442708969116
32.617271423339844 27.121906280517578 2.0897793769836426
32.62684631347656 26.793201446533203 2.09309458732605
32.635169982910156 26.46666145324707 2.0963525772094727
32.64851760864258 26.14727783203125 2.0992603302001953
32.681922912597656 25.84670639038086 2.1011159420013428
32.671913146972656 25.51473045349121 2.1048967838287354
32.709712982177734 25.22290802001953 2.106332302093506
32.72132110595703 24.913419723510742 2.108887195587158
32.73915100097656 24.611351013183594 2.1110479831695557
32.70957565307617 24.27664566040039 2.1153054237365723
32.51914978027344 23.827463150024414 2.1269052028656006
32.4434814453125 23.467641830444336 2.1330649852752686
32.482547760009766 23.1938533782959 2.1338162422180176
32.53908920288086 22.93428611755371 2.13366961479187
32.56741714477539 22.65664291381836 2.134732723236084
32.48236083984375 22.303146362304688 2.140913486480713
32.5985221862793 22.09002113342285 2.13775634765625
32.67093276977539 21.847978591918945 2.1365256309509277
32.44469451904297 21.409931182861328 2.148876428604126
32.458839416503906 21.13471221923828 2.1501245498657227
32.516231536865234 20.889297485351562 2.1493120193481445
32.571834564208984 20.643970489501953 2.1484992504119873
32.54262924194336 20.346830368041992 2.1514668464660645
32.506752014160156 20.048206329345703 2.154649496078491
32.57174301147461 19.81363296508789 2.1531600952148438
32.6136589050293 19.566162109375 2.1526403427124023
32.59528732299805 19.28432273864746 2.154775857925415
32.39862823486328 18.900720596313477 2.1649088859558105
32.67921447753906 18.796794891357422 2.1533331871032715
32.662471771240234 18.521549224853516 2.1551530361175537
32.72208786010742 18.291101455688477 2.1534388065338135
32.81073760986328 18.077499389648438 2.1503376960754395
32.957706451416016 17.89592170715332 2.1445279121398926
33.00941848754883 17.66277313232422 2.1429500579833984
33.02592086791992 17.411954879760742 2.1428864002227783
33.04236602783203 17.162519454956055 2.1427502632141113
33.05077362060547 16.91035270690918 2.142902135848999
33.050193786621094 16.65513038635254 2.1433849334716797
33.07100296020508 16.4121036529541 2.142829656600952
33.07661056518555 16.162866592407227 2.1428873538970947
33.09481430053711 15.921110153198242 2.142305612564087
33.10588455200195 15.677173614501953 2.141972780227661
33.126983642578125 15.439188957214355 2.1411187648773193
33.12370681762695 15.191121101379395 2.141291379928589
33.15506362915039 14.960114479064941 2.1398348808288574
33.161094665527344 14.71875286102295 2.139448404312134
33.16449737548828 14.4774808883667 2.1391117572784424
33.175376892089844 14.240665435791016 2.1383702754974365
33.18459701538086 14.004260063171387 2.1376359462738037
33.18571090698242 13.765596389770508 2.1371994018554688
33.20827865600586 13.536876678466797 2.135727643966675
33.211666107177734 13.301339149475098 2.135054588317871
33.09162902832031 13.01834774017334 2.1398863792419434
33.1306037902832 12.799629211425781 2.137477159500122
33.595977783203125 12.743232727050781 2.1157405376434326
33.66770935058594 12.534818649291992 2.111708641052246
33.722190856933594 12.320175170898438 2.1083872318267822
33.72358322143555 12.086790084838867 2.107401132583618
33.72621154785156 11.854846000671387 2.1062939167022705
33.74615478515625 11.62983512878418 2.104337692260742
33.75135803222656 11.400548934936523 2.1029844284057617
33.77778625488281 11.179170608520508 2.10060453414917
33.769500732421875 10.947113037109375 2.099736213684082
33.79202651977539 10.725854873657227 2.0974037647247314
33.78639221191406 10.496431350708008 2.0962889194488525
33.79642105102539 10.272709846496582 2.094398260116577
33.801151275634766 10.048120498657227 2.092686176300049
33.80919647216797 9.825255393981934 2.0907602310180664
33.822505950927734 9.604578971862793 2.0885303020477295
33.83534622192383 9.384374618530273 2.0862598419189453
33.858333587646484 9.167508125305176 2.0834617614746094
33.84322738647461 8.941012382507324 2.082345724105835
33.864349365234375 8.724769592285156 2.079507350921631
33.88506317138672 8.508846282958984 2.0766241550445557
33.906341552734375 8.293471336364746 2.0736520290374756
33.88738250732422 8.068897247314453 2.0724692344665527
33.9068489074707 7.854111671447754 2.0694565773010254
33.91326141357422 7.636754989624023 2.0669825077056885
33.925113677978516 7.421109676361084 2.0641961097717285
33.93755340576172 7.206020355224609 2.0613203048706055
33.93982696533203 6.989243507385254 2.0588538646698
33.95639419555664 6.775836944580078 2.055661916732788
33.958866119384766 6.560025691986084 2.0530636310577393
33.95604705810547 6.3437042236328125 2.0506508350372314
33.98232650756836 6.133164405822754 2.0468196868896484
34.006309509277344 5.922369003295898 2.0430314540863037
34.022098541259766 5.71035099029541 2.039562940597534
34.00204849243164 5.492783546447754 2.0377118587493896
34.016143798828125 5.281194686889648 2.0341994762420654
34.02003479003906 5.068314075469971 2.031104803085327
34.03841781616211 4.857841491699219 2.027264356613159
34.049556732177734 4.6465229988098145 2.0237033367156982
34.050472259521484 4.43408727645874 2.0205624103546143
34.057987213134766 4.222798824310303 2.0170483589172363
34.076107025146484 4.012985706329346 2.0129668712615967
33.54097366333008 3.741504192352295 2.0351810455322266
33.51739501953125 3.5308732986450195 2.033015012741089
33.5799674987793 3.3293497562408447 2.026671886444092
33.62740707397461 3.125894546508789 2.0209805965423584
33.652706146240234 2.920166492462158 2.016282320022583
33.66679382324219 2.713441848754883 2.0120582580566406
33.67164611816406 2.506059169769287 2.0082151889801025
33.67620849609375 2.298786163330078 2.0043230056762695
11.992790222167969 0.7434487342834473 3.0518531799316406
12.026972770690918 0.6715452671051025 3.048840284347534
33.660316467285156 1.67612624168396 1.9937117099761963
12.528104782104492 0.5455380082130432 3.021594285964966
12.198771476745605 0.45619362592697144 3.036231279373169
19.271276473999023 0.603522777557373 2.687757968902588
33.72441101074219 0.8506637215614319 1.9745104312896729
33.73178482055664 0.643836498260498 1.9699690341949463
33.744873046875 0.43704062700271606 1.9650790691375732
33.739715576171875 0.22999034821987152 1.9610265493392944
33.761253356933594 0.023039307445287704 1.9555845260620117
33.765541076660156 -0.18408238887786865 1.9509304761886597
12.811081886291504 -0.14971019327640533 2.993269920349121
12.741938591003418 -0.22709253430366516 2.9949989318847656
33.796722412109375 -0.8063520789146423 1.9356505870819092
11.788665771484375 -0.35497143864631653 3.039490222930908
11.765233993530273 -0.4265214502811432 3.039008140563965
12.21334457397461 -0.5177252292633057 3.0146236419677734
12.95203971862793 -0.6285314559936523 2.9753239154815674
12.70353889465332 -0.6946483850479126 2.986076831817627
12.855467796325684 -0.7820560336112976 2.976417064666748
12.864297866821289 -0.8618301749229431 2.9740190505981445
11.809858322143555 -0.8641619086265564 3.026244878768921
33.868011474609375 -2.683342695236206 1.8871697187423706
12.633072853088379 -1.0802295207977295 2.9799766540527344
12.27804946899414 -1.1258426904678345 2.9963762760162354
33.89472198486328 -3.3141605854034424 1.8695613145828247
12.76279067993164 -1.3283028602600098 2.9670753479003906
33.919551849365234 -3.737269163131714 1.8570810556411743
13.343515396118164 -1.5543595552444458 2.932302713394165
13.35842227935791 -1.639217495918274 2.929244041442871
33.93745040893555 -4.372784614562988 1.8388015031814575
12.349472045898438 -1.6696107387542725 2.9781301021575928
13.73806095123291 -1.9430046081542969 2.9020328521728516
33.976009368896484 -5.015042781829834 1.8187237977981567
33.97595977783203 -5.228217601776123 1.8125600814819336
33.981468200683594 -5.442686080932617 1.8060193061828613
34.000396728515625 -5.659879207611084 1.7986743450164795
33.991371154785156 -5.872921943664551 1.7927565574645996
33.98985290527344 -6.087651252746582 1.7863550186157227
34.008583068847656 -6.306589126586914 1.7787680625915527
34.037662506103516 -6.528243064880371 1.77052640914917
33.99576187133789 -6.7367143630981445 1.766089916229248
33.9173583984375 -6.937716960906982 1.763598084449768
33.87392044067383 -7.145637035369873 1.7591198682785034
33.87116622924805 -7.362403869628906 1.752315878868103
33.934261322021484 -7.594449520111084 1.7417575120925903
33.93447494506836 -7.813436508178711 1.7346049547195435
33.922584533691406 -8.030182838439941 1.7280442714691162
33.999542236328125 -8.26901912689209 1.7163914442062378
34.02446365356445 -8.4965238571167 1.707560658454895
34.03142547607422 -8.720434188842773 1.699649453163147
34.091957092285156 -8.959212303161621 1.6885875463485718
34.100704193115234 -9.18556022644043 1.6803725957870483
34.09062957763672 -9.407573699951172 1.673141360282898
34.103126525878906 -9.636597633361816 1.6645171642303467
34.101627349853516 -9.862523078918457 1.656603455543518
34.09672164916992 -10.088226318359375 1.6487910747528076
34.0951042175293 -10.315688133239746 1.6406913995742798
34.1348991394043 -10.556782722473145 1.6300628185272217
34.133975982666016 -10.786421775817871 1.6217139959335327
34.14101791381836 -11.019513130187988 1.6127926111221313
34.1142463684082 -11.242474555969238 1.6057746410369873
34.148468017578125 -11.486528396606445 1.595024585723877
34.17436981201172 -11.729155540466309 1.5846508741378784
34.15522766113281 -11.95736026763916 1.5768691301345825
34.12045669555664 -12.180740356445312 1.569933295249939
34.10768508911133 -12.412677764892578 1.5615708827972412
34.25436019897461 -12.704623222351074 1.5433777570724487
34.298789978027344 -12.961076736450195 1.5312561988830566
34.3115348815918 -13.207079887390137 1.520946979522705
34.337425231933594 -13.459555625915527 1.5097017288208008
34.330902099609375 -13.700636863708496 1.5003366470336914
34.336578369140625 -13.947778701782227 1.4900964498519897
34.323909759521484 -14.188643455505371 1.480881690979004
34.345458984375 -14.444968223571777 1.4693958759307861
34.350460052490234 -14.695810317993164 1.4588202238082886
29.622732162475586 -12.889130592346191 1.7491353750228882
29.54560661315918 -13.071805000305176 1.7449978590011597
34.41660690307617 -15.47976016998291 1.4230279922485352
34.39607238769531 -15.72502613067627 1.4135562181472778
34.4100341796875 -15.987444877624512 1.4017268419265747
34.4301872253418 -16.25446319580078 1.3893495798110962
34.439353942871094 -16.51801300048828 1.3775415420532227
34.434906005859375 -16.77660369873047 1.3664823770523071
34.45094680786133 -17.046823501586914 1.3539299964904785
34.45603942871094 -17.313396453857422 1.34195077419281
34.36756134033203 -17.533946990966797 1.3360744714736938
34.322879791259766 -17.777477264404297 1.3271692991256714
34.36397171020508 -18.067106246948242 1.3123515844345093
34.37285232543945 -18.341928482055664 1.2995386123657227
34.4112434387207 -18.634647369384766 1.2845489978790283
30.80971336364746 -16.9299259185791 1.5191396474838257
30.80527114868164 -17.174484252929688 1.5080739259719849
34.55509948730469 -19.54377555847168 1.2364643812179565
34.50871276855469 -19.79808235168457 1.226613998413086
34.534698486328125 -20.095722198486328 1.2115553617477417
34.5428466796875 -20.385297775268555 1.1975616216659546
34.55473327636719 -20.67931365966797 1.1831215620040894
34.57539367675781 -20.980972290039062 1.1678682565689087
34.526485443115234 -21.242341995239258 1.1574060916900635
34.51969909667969 -21.5313720703125 1.1437606811523438
34.50981903076172 -21.820581436157227 1.1301593780517578
34.535499572753906 -22.134714126586914 1.1137813329696655
34.61302185058594 -22.485319137573242 1.0933830738067627
34.55747604370117 -22.752092361450195 1.0825423002243042
34.5356559753418 -23.0428466796875 1.069045066833496
34.65791320800781 -23.43313217163086 1.0446009635925293
34.695152282714844 -23.769935607910156 1.0262267589569092
34.72791290283203 -24.1069393157959 1.0079456567764282
34.727622985839844 -24.423994064331055 0.9919296503067017
34.79789733886719 -24.794069290161133 0.970292866230011
34.784000396728516 -25.107513427734375 0.9548457860946655
34.801395416259766 -25.44645881652832 0.9367567896842957
34.80470275878906 -25.778242111206055 0.9195160865783691
34.81241989135742 -26.116413116455078 0.9016859531402588
34.833980560302734 -26.46832275390625 0.8825114369392395
34.847774505615234 -26.817827224731445 0.863684356212616
34.834964752197266 -27.150087356567383 0.8467175364494324
34.88596725463867 -27.53575325012207 0.8243680596351624
34.87896728515625 -27.879444122314453 0.8064010739326477
34.76742935180664 -28.141836166381836 0.7967011332511902
34.75664138793945 -28.4880428314209 0.7785746455192566
34.889583587646484 -28.9569034576416 0.7482953667640686
34.865257263183594 -29.300052642822266 0.7306736707687378
34.90034484863281 -29.697021484375 0.7078083157539368
34.93413543701172 -30.097471237182617 0.6847135424613953
34.92745590209961 -30.467308044433594 0.6647139191627502
34.8681755065918 -30.794591903686523 0.6489129066467285
34.97059631347656 -31.269290924072266 0.6189284920692444
34.97748947143555 -31.664024353027344 0.5967865586280823
34.933753967285156 -32.01686477661133 0.5787299275398254
34.97185516357422 -32.44908905029297 0.5531823635101318
35.01759719848633 -32.8939094543457 0.5265614986419678
34.96588897705078 -33.251800537109375 0.5082340240478516
32.35536575317383 30.8702449798584 1.7706645727157593
32.3846549987793 30.52112579345703 1.775811791419983
32.328975677490234 30.0965633392334 1.7856543064117432
32.46936798095703 29.8577938079834 1.7841370105743408
32.51190185546875 29.53110122680664 1.7880618572235107
32.46836471557617 29.130287170410156 1.7967076301574707
32.40992736816406 28.7211856842041 1.8060163259506226
32.56497573852539 28.50407600402832 1.8031471967697144
32.568172454833984 28.15611457824707 1.8086862564086914
32.58656692504883 27.82476043701172 1.8132247924804688
32.58609390258789 27.480716705322266 1.8186705112457275
32.609500885009766 27.160112380981445 1.82264244556427
32.617862701416016 26.830101013183594 1.8273106813430786
32.648223876953125 26.52117156982422 1.8306243419647217
32.654991149902344 26.19599723815918 1.8351070880889893
32.673099517822266 25.882911682128906 1.8388314247131348
32.6901741027832 25.571826934814453 1.8424826860427856
32.71178436279297 25.267000198364258 1.8457578420639038
32.72056579589844 24.954999923706055 1.8496081829071045
32.72196960449219 24.64023780822754 1.853732943534851
32.73918914794922 24.340112686157227 1.8568737506866455
32.62993240356445 23.949670791625977 1.86674165725708
32.52279281616211 23.56559181213379 1.8763470649719238
32.559261322021484 23.28893280029297 1.878065824508667
32.666194915771484 23.06399917602539 1.8758834600448608
32.653568267822266 22.75637435913086 1.8800277709960938
32.66556930541992 22.468461990356445 1.8827342987060547
32.47772216796875 22.047157287597656 1.8960206508636475
32.567317962646484 21.8174991607666 1.8943448066711426
32.64198684692383 21.578754425048828 1.8933720588684082
32.72080993652344 21.343734741210938 1.8920825719833374
32.59888458251953 20.980430603027344 1.9013667106628418
32.5201301574707 20.64887809753418 1.9082345962524414
32.488494873046875 20.350374221801758 1.9124906063079834
32.69324493408203 20.200590133666992 1.904136061668396
32.765995025634766 19.968994140625 1.902682900428772
32.59996795654297 19.59471321105957 1.9137364625930786
32.52770233154297 19.280786514282227 1.9197280406951904
32.70465850830078 19.115676879882812 1.9124997854232788
32.800315856933594 18.90273666381836 1.9094703197479248
32.832923889160156 18.654300689697266 1.9096673727035522
32.799224853515625 18.370058059692383 1.913250207901001
32.881343841552734 18.1521053314209 1.9106687307357788
32.98834991455078 17.948158264160156 1.906700849533081
33.01045608520508 17.69873809814453 1.9070916175842285
33.02985763549805 17.44925880432129 1.907535195350647
33.04301834106445 17.19789695739746 1.9082165956497192
33.062339782714844 16.951135635375977 1.9084888696670532
33.06650924682617 16.698030471801758 1.9094642400741577
33.079551696777344 16.450849533081055 1.9098906517028809
33.086326599121094 16.201942443847656 1.9105585813522339
33.1011962890625 15.958343505859375 1.9107208251953125
33.09176254272461 15.704463005065918 1.9120628833770752
33.11304473876953 15.466516494750977 1.9117238521575928
33.139007568359375 15.231822967529297 1.911058783531189
33.16607666015625 14.998625755310059 1.9102561473846436
33.134033203125 14.740091323852539 1.9124430418014526
33.13941955566406 14.49973201751709 1.912603497505188
33.135772705078125 14.256704330444336 1.9131542444229126
33.159828186035156 14.026718139648438 1.9121869802474976
33.18785095214844 13.799274444580078 1.9109351634979248
33.21155548095703 13.570879936218262 1.9098294973373413
33.226295471191406 13.339737892150879 1.9091113805770874
33.095428466796875 13.052125930786133 1.915872573852539
33.13646697998047 12.834080696105957 1.9136360883712769
33.553253173828125 12.759448051452637 1.8918201923370361
33.67652130126953 12.570504188537598 1.8851591348648071
33.72652053833008 12.35407543182373 1.8822245597839355
33.72248840332031 12.118589401245117 1.88201904296875
33.7347412109375 11.889925003051758 1.8808919191360474
33.74734878540039 11.662219047546387 1.8796722888946533
33.76411056518555 11.436726570129395 1.878161907196045
33.78696060180664 11.213984489440918 1.8762595653533936
33.78935241699219 10.985215187072754 1.875346302986145
33.80353927612305 10.761080741882324 1.8737467527389526
33.813385009765625 10.536291122436523 1.8722988367080688
33.81028366088867 10.3082914352417 1.8714531660079956
33.78843307495117 10.075589179992676 1.8715119361877441
33.8177375793457 9.858915328979492 1.8688318729400635
33.850460052490234 9.643627166748047 1.865898609161377
33.845252990722656 9.418134689331055 1.864874005317688
33.85783386230469 9.198304176330566 1.8628491163253784
33.86416244506836 8.977394104003906 1.861077904701233
33.87389373779297 8.758001327514648 1.8590583801269531
33.8841438293457 8.539314270019531 1.8569397926330566
33.88910675048828 8.319877624511719 1.8550268411636353
33.92082595825195 8.107431411743164 1.8516381978988647
33.906463623046875 7.884504795074463 1.8505992889404297
33.912078857421875 7.666902542114258 1.8484395742416382
33.928009033203125 7.4520978927612305 1.8456676006317139
33.93769454956055 7.236344337463379 1.8431528806686401
33.95481491088867 7.022571563720703 1.8401741981506348
33.95492172241211 6.80571985244751 1.8380242586135864
33.960514068603516 6.5904622077941895 1.8355146646499634
33.96277618408203 6.3750224113464355 1.833111047744751
33.990203857421875 6.16461181640625 1.829302191734314
33.991737365722656 5.94980001449585 1.826796531677246
34.0096435546875 5.738190650939941 1.823350429534912
34.024253845214844 5.52626371383667 1.820007562637329
34.030643463134766 5.313294410705566 1.8170329332351685
34.02384948730469 5.098677635192871 1.8146917819976807
34.034488677978516 4.8870391845703125 1.8113504648208618
34.0536994934082 4.676819324493408 1.8074780702590942
34.06864547729492 4.466156005859375 1.803761601448059
34.06643295288086 4.253506183624268 1.8008962869644165
34.087684631347656 4.043990612030029 1.7966982126235962
33.544010162353516 3.7710158824920654 1.8229178190231323
33.51564407348633 3.5598058700561523 1.821307897567749
33.58331298828125 3.3588223457336426 1.8144325017929077
33.64183044433594 3.1563949584960938 1.8079729080200195
33.66032409667969 2.94997501373291 1.8036081790924072
33.6676025390625 2.7426350116729736 1.7997809648513794
33.68156814575195 2.5359151363372803 1.7955175638198853
33.66936111450195 2.327404022216797 1.7926135063171387
33.67280197143555 2.120203733444214 1.788784384727478
33.66001892089844 1.9121978282928467 1.7857747077941895
33.66987991333008 1.7056394815444946 1.7814528942108154
13.192815780639648 0.5874534249305725 2.90627121925354
13.139209747314453 0.5043357014656067 2.907695770263672
19.305339813232422 0.6222670674324036 2.5648193359375
12.759950637817383 0.3330886662006378 2.925591468811035
12.428247451782227 0.248165100812912 2.9424664974212646
33.748348236083984 0.4661354422569275 1.7529094219207764
12.474117279052734 0.0960155725479126 2.9367728233337402
12.574228286743164 0.01964982971549034 2.9295573234558105
12.63293170928955 -0.057752590626478195 2.9246115684509277
12.733087539672852 -0.1363251656293869 2.9172918796539307
12.743902206420898 -0.21463005244731903 2.9149539470672607
33.81206512451172 -0.777596652507782 1.7224833965301514
33.818389892578125 -0.9853351712226868 1.7173867225646973
33.82244110107422 -1.193146824836731 1.7123438119888306
12.484064102172852 -0.5168456435203552 2.9225523471832275
12.633150100708008 -0.6006731390953064 2.9122087955474854
13.151530265808105 -0.7062215209007263 2.8806543350219727
12.842903137207031 -0.7686783671379089 2.8963775634765625
11.894466400146484 -0.7851398587226868 2.9489831924438477
12.266732215881348 -0.8853358626365662 2.925649642944336
12.496866226196289 -0.9790511727333069 2.9103944301605225
12.40200138092041 -1.0482032299041748 2.913893222808838
12.380334854125977 -1.1229045391082764 2.913135051727295
12.740778923034668 -1.2344582080841064 2.890059471130371
33.900611877441406 -3.4953489303588867 1.649756908416748
13.314964294433594 -1.455217719078064 2.852064847946167
33.94987106323242 -3.921968936920166 1.6352558135986328
12.502148628234863 -1.5218079090118408 2.8954265117645264
33.947208404541016 -4.344371795654297 1.6234663724899292
33.96022415161133 -4.557967185974121 1.6165945529937744
33.97782897949219 -4.7727203369140625 1.6093617677688599
33.994075775146484 -4.987862586975098 1.6021186113357544
33.98527145385742 -5.199760437011719 1.596285104751587
34.002750396728516 -5.416137218475342 1.588788628578186
34.003089904785156 -5.630316257476807 1.5822312831878662
33.998146057128906 -5.844027996063232 1.5759063959121704
29.2600040435791 -5.21454381942749 1.8568798303604126
34.02348709106445 -6.279147148132324 1.5608495473861694
34.055641174316406 -6.5013933181762695 1.5519884824752808
34.02561950683594 -6.7122931480407715 1.5468345880508423
33.95712661743164 -6.915501594543457 1.5439696311950684
33.90501022338867 -7.121817111968994 1.5400291681289673
33.939430236816406 -7.346762180328369 1.5306553840637207
33.96360397338867 -7.570444107055664 1.521810531616211
33.98630142211914 -7.7947001457214355 1.5129510164260864
34.01334762573242 -8.020895004272461 1.50371253490448
34.050540924072266 -8.250536918640137 1.4937279224395752
34.053253173828125 -8.472743034362793 1.485801100730896
34.08546447753906 -8.703195571899414 1.4759068489074707
34.099708557128906 -8.930065155029297 1.467038631439209
34.114383697509766 -9.15795612335205 1.458033561706543
34.13426971435547 -9.388216018676758 1.4485851526260376
34.12187194824219 -9.610406875610352 1.4410972595214844
34.11186218261719 -9.833905220031738 1.4333562850952148
34.125282287597656 -10.064984321594238 1.4239963293075562
34.12281036376953 -10.292277336120605 1.415554404258728
34.13886260986328 -10.526093482971191 1.4057964086532593
34.132381439208984 -10.753897666931152 1.3973957300186157
34.16999053955078 -10.996694564819336 1.385987401008606
34.156593322753906 -11.224157333374023 1.3778135776519775
34.11518859863281 -11.44298267364502 1.3713886737823486
34.133766174316406 -11.682731628417969 1.360878348350525
34.176116943359375 -11.932021141052246 1.3486510515213013
34.14899444580078 -12.15816879272461 1.340945839881897
34.17009735107422 -12.402481079101562 1.329883337020874
34.256874084472656 -12.672439575195312 1.3142414093017578
34.31173324584961 -12.932665824890137 1.3005963563919067
34.320892333984375 -13.177228927612305 1.2899136543273926
34.31904220581055 -13.418757438659668 1.2798538208007812
34.3331298828125 -13.66777229309082 1.268568515777588
34.34822463989258 -13.91858959197998 1.257073998451233
34.34861373901367 -14.16478157043457 1.2464598417282104
34.36935043334961 -14.420767784118652 1.2342907190322876
34.352439880371094 -14.662264823913574 1.2246127128601074
34.39060592651367 -14.928731918334961 1.2109273672103882
29.550865173339844 -13.043886184692383 1.5422688722610474
34.43821716308594 -15.45450210571289 1.185101866722107
34.4205322265625 -15.701068878173828 1.1749138832092285
34.44456481933594 -15.968146324157715 1.161597490310669
34.45035934448242 -16.228456497192383 1.1494308710098267
34.430843353271484 -16.47823715209961 1.1389435529708862
34.45173645019531 -16.74889373779297 1.1253753900527954
34.460758209228516 -17.01556968688965 1.112505555152893
34.481170654296875 -17.28969383239746 1.098633885383606
34.40081024169922 -17.514453887939453 1.0920331478118896
34.361534118652344 -17.760873794555664 1.0822781324386597
34.43008804321289 -18.064958572387695 1.0643419027328491
34.422218322753906 -18.331153869628906 1.0519177913665771
34.425533294677734 -18.60504722595215 1.0384869575500488
34.412776947021484 -18.87199592590332 1.0260981321334839
30.815383911132812 -17.14599609375 1.286553978919983
34.58636474609375 -19.523263931274414 0.9855790734291077
34.58163833618164 -19.801483154296875 0.9719878435134888
34.549766540527344 -20.065845489501953 0.9603158235549927
34.55119705200195 -20.3513240814209 0.9458922147750854
34.60694885253906 -20.671344757080078 0.9270277619361877
34.5772819519043 -20.94267463684082 0.9146375060081482
34.568538665771484 -21.228511810302734 0.9004219770431519
34.51354217529297 -21.487613677978516 0.8896892070770264
34.592498779296875 -21.832571029663086 0.868093729019165
34.55757141113281 -22.108327865600586 0.8553744554519653
34.614315032958984 -22.445274353027344 0.835063636302948
34.637359619140625 -22.76347541809082 0.8172250390052795
34.56645202636719 -23.021963119506836 0.8068288564682007
34.73018264770508 -23.440065383911133 0.7769778966903687
34.74430465698242 -23.7613525390625 0.7591193914413452
34.75578308105469 -24.08369255065918 0.7412351965904236
34.73112487792969 -24.383560180664062 0.7261274456977844
34.83091354370117 -24.77423667907715 0.7003244757652283
34.80335998535156 -25.07781982421875 0.6849623322486877
34.800785064697266 -25.40199089050293 0.6672493815422058
34.82680892944336 -25.75020408630371 0.6468309164047241
34.82910919189453 -26.084142684936523 0.6281734704971313
34.84688186645508 -26.43294334411621 0.6079027056694031
34.866424560546875 -26.786584854125977 0.5871891975402832
34.882930755615234 -27.141460418701172 0.5664447546005249
34.89873504638672 -27.499393463134766 0.5454623699188232
34.895851135253906 -27.84609603881836 0.5258396863937378
34.789146423339844 -28.112281799316406 0.5152331590652466
34.7862548828125 -28.464757919311523 0.4950866997241974
34.90016174316406 -28.917545318603516 0.46403247117996216
34.8768424987793 -29.261226654052734 0.44507601857185364
34.91902542114258 -29.663835525512695 0.4198022484779358
34.92580032348633 -30.04073715209961 0.3974323272705078
34.920230865478516 -30.410974502563477 0.37587475776672363
34.89870071411133 -30.77105140686035 0.35548490285873413
34.903076171875 -31.157915115356445 0.3323279619216919
34.763397216796875 -31.41890525817871 0.3225322365760803
34.97138977050781 -31.999208450317383 0.27921751141548157
34.94303512573242 -32.36970520019531 0.2580825984477997
35.03367233276367 -32.85568618774414 0.22503319382667542
34.97063064575195 -33.202510833740234 0.20653073489665985
32.323707580566406 30.841848373413086 1.4912495613098145
32.39499282836914 30.532695770263672 1.4949926137924194
32.33285140991211 30.102001190185547 1.5073434114456177
32.457820892333984 29.849018096923828 1.5072076320648193
32.5062255859375 29.527801513671875 1.511934757232666
32.47087860107422 29.13440704345703 1.5219388008117676
32.40652847290039 28.720041275024414 1.533617615699768
32.56755447387695 28.508220672607422 1.530530333518982
32.570796966552734 28.1602783203125 1.5374881029129028
32.584678649902344 27.82504653930664 1.5435853004455566
32.595680236816406 27.490713119506836 1.5496987104415894
32.60150909423828 27.155372619628906 1.555975317955017
32.62759780883789 26.84003448486328 1.5607976913452148
32.6347770690918 26.512178421020508 1.5666624307632446
32.64695739746094 26.19149398803711 1.5720521211624146
32.67444610595703 25.885929107666016 1.5763219594955444
32.67424392700195 25.561317443847656 1.5821832418441772
32.6942253112793 25.255395889282227 1.5866265296936035
32.69580078125 24.938077926635742 1.5920734405517578
32.71307373046875 24.63551139831543 1.5963940620422363
32.728675842285156 24.334270477294922 1.6006771326065063
32.71282958984375 24.01249122619629 1.6067681312561035
32.52848815917969 23.571683883666992 1.6231259107589722
32.57474136352539 23.30198097229004 1.6250717639923096
32.67031478881836 23.068893432617188 1.6238600015640259
32.618408203125 22.733858108520508 1.6315906047821045
32.72161865234375 22.50901222229004 1.629675030708313
32.72579574584961 22.217554092407227 1.6337071657180786
32.75418472290039 21.944686889648438 1.6361336708068848
32.67799377441406 21.60456085205078 1.644803762435913
32.73772048950195 21.356779098510742 1.6450738906860352
32.768768310546875 21.091779708862305 1.6469727754592896
32.76408386230469 20.8057918548584 1.6509188413619995
32.79436111450195 20.543983459472656 1.6526299715042114
32.75724792480469 20.242162704467773 1.6582924127578735
32.66395568847656 19.90882682800293 1.667211890220642
32.62259292602539 19.61033058166504 1.6728765964508057
32.81504821777344 19.453144073486328 1.6643877029418945
32.84815979003906 19.201595306396484 1.6653690338134766
32.87509536743164 18.9478759765625 1.6666128635406494
32.87324523925781 18.67926025390625 1.6694718599319458
32.800514221191406 18.37282371520996 1.6764495372772217
32.87213897705078 18.14907455444336 1.6747065782546997
32.986114501953125 17.949005126953125 1.6703473329544067
33.01613998413086 17.703857421875 1.670889139175415
33.01968765258789 17.445953369140625 1.6729021072387695
33.03725814819336 17.19697380065918 1.6739815473556519
33.058345794677734 16.951168060302734 1.6747515201568604
33.058067321777344 16.695846557617188 1.6766881942749023
33.0889778137207 16.457622528076172 1.6766793727874756
33.07427215576172 16.198123931884766 1.679270625114441
33.096309661865234 15.958073616027832 1.6795923709869385
33.09410095214844 15.707662582397461 1.681249737739563
33.11449432373047 15.46928596496582 1.6814782619476318
33.13412094116211 15.231668472290039 1.6816587448120117
33.16390609741211 14.99974250793457 1.681147575378418
33.11819839477539 14.735143661499023 1.6849862337112427
33.11806869506836 14.492486953735352 1.6860499382019043
33.134559631347656 14.258281707763672 1.686044692993164
33.148502349853516 14.024027824401855 1.686097502708435
33.16358947753906 13.791291236877441 1.6859943866729736
33.20479965209961 13.570229530334473 1.6842693090438843
33.233428955078125 13.344714164733887 1.6831942796707153
33.102638244628906 13.057072639465332 1.6913846731185913
33.12506866455078 12.831771850585938 1.6904977560043335
33.55848693847656 12.763585090637207 1.6654196977615356
33.675193786621094 12.572164535522461 1.6588349342346191
33.720489501953125 12.354028701782227 1.6563513278961182
33.723976135253906 12.12128734588623 1.6562325954437256
33.73624038696289 11.892617225646973 1.6555137634277344
33.744136810302734 11.663274765014648 1.6549656391143799
33.751434326171875 11.434602737426758 1.6543669700622559
33.77804946899414 11.213199615478516 1.6525514125823975
33.79562759399414 10.989429473876953 1.6511820554733276
33.79460144042969 10.760411262512207 1.6508198976516724
33.788230895996094 10.530630111694336 1.650687575340271
33.791778564453125 10.304825782775879 1.6498920917510986
33.78999710083008 10.078232765197754 1.6493253707885742
33.81259536743164 9.85959529876709 1.6472456455230713
33.83185958862305 9.640510559082031 1.6452791690826416
33.84682846069336 9.420758247375488 1.6434835195541382
33.85555648803711 9.199872016906738 1.6419732570648193
33.861881256103516 8.978978157043457 1.6405233144760132
33.876441955566406 8.76085090637207 1.6385078430175781
33.884761810302734 8.541661262512207 1.636778473854065
33.89360427856445 8.323175430297852 1.6349387168884277
33.90007781982422 8.104668617248535 1.6331579685211182
33.90416717529297 7.886167526245117 1.6314377784729004
33.905887603759766 7.667700290679932 1.629779577255249
33.92667770385742 7.454006671905518 1.6269136667251587
33.93830871582031 7.238678932189941 1.6245099306106567
33.95542907714844 7.024904251098633 1.621700644493103
33.96043014526367 6.809031009674072 1.619529366493225
33.962100982666016 6.5929789543151855 1.6174780130386353
33.95847702026367 6.376424789428711 1.615662693977356
33.97803497314453 6.16461706161499 1.6123906373977661
33.98545455932617 5.950913906097412 1.6097612380981445
34.00334167480469 5.739344120025635 1.6064285039901733
34.017940521240234 5.527457237243652 1.6032122373580933
34.023338317871094 5.31437349319458 1.6004664897918701
34.01456069946289 5.09950590133667 1.5984896421432495
34.02814483642578 4.888350963592529 1.5950965881347656
34.054264068603516 4.679122447967529 1.5908722877502441
34.06721878051758 4.468198299407959 1.5873570442199707
34.07292556762695 4.256547451019287 1.5841968059539795
34.08425521850586 4.045816421508789 1.5806204080581665
33.52986145019531 3.7716095447540283 1.6110860109329224
33.502479553222656 3.560591459274292 1.6097389459609985
33.57706832885742 3.3603885173797607 1.6021491289138794
33.62958526611328 3.1574435234069824 1.5958073139190674
33.6480598449707 2.9511005878448486 1.5914441347122192
33.66228485107422 2.7444045543670654 1.587257981300354
33.673248291015625 2.5374934673309326 1.5831894874572754
33.67497634887695 2.32999849319458 1.579605221748352
33.670440673828125 2.122262716293335 1.5763252973556519
33.65266418457031 1.9139877557754517 1.5737783908843994
33.674476623535156 1.708083152770996 1.5687296390533447
13.048422813415527 0.5813819766044617 2.831979990005493
13.035684585571289 0.5007185339927673 2.831264019012451
13.037415504455566 0.42071595788002014 2.8296287059783936
33.721153259277344 0.8818390965461731 1.550205945968628
33.74062728881836 0.6752773523330688 1.5448861122131348
33.743865966796875 0.4683002531528473 1.5404891967773438
12.760965347290039 0.09854656457901001 2.8403875827789307
33.75651550292969 0.05432218313217163 1.531067967414856
12.680174827575684 -0.05764393135905266 2.842104434967041
12.692458152770996 -0.13556107878684998 2.8396379947662354
33.794898986816406 -0.5675728917121887 1.515100121498108
12.794408798217773 -0.2936592996120453 2.829741954803467
33.80978775024414 -0.9828395247459412 1.504701852798462
33.811824798583984 -1.1905252933502197 1.4997169971466064
33.81358337402344 -1.3983160257339478 1.4946650266647339
12.575601577758789 -0.5976141691207886 2.8362009525299072
13.004105567932129 -0.6979401707649231 2.80706787109375
12.852038383483887 -0.7688783407211304 2.8147590160369873
12.898760795593262 -0.8511130809783936 2.80976939201355
33.873863220214844 -2.443228244781494 1.4648417234420776
12.530963897705078 -0.9814038276672363 2.829251766204834
33.887516021728516 -2.862544059753418 1.4529582262039185
33.89985275268555 -3.0731475353240967 1.4465277194976807
12.750856399536133 -1.2350937128067017 2.808777332305908
33.90668487548828 -3.4936962127685547 1.4345461130142212
13.375381469726562 -1.4614231586456299 2.763758897781372
13.823057174682617 -1.5961970090866089 2.732203722000122
33.929908752441406 -4.128464221954346 1.4150460958480835
33.94721221923828 -4.342080116271973 1.4077322483062744
33.96613311767578 -4.556464672088623 1.4002134799957275
33.97184371948242 -4.769580841064453 1.3934673070907593
33.97819137573242 -4.983229637145996 1.3865830898284912
33.98910903930664 -5.198041915893555 1.3792988061904907
34.00162124633789 -5.41364860534668 1.3718092441558838
33.99898147583008 -5.627324104309082 1.3652297258377075
34.00975036621094 -5.84370756149292 1.3576579093933105
29.261579513549805 -5.212946891784668 1.6694188117980957
34.02322769165039 -6.276777267456055 1.3427519798278809
34.051414489746094 -6.498260974884033 1.33369779586792
34.02040481567383 -6.708938121795654 1.3285421133041382
33.9538688659668 -6.9125142097473145 1.325714349746704
33.91736602783203 -7.1220903396606445 1.3207652568817139
33.94393539428711 -7.345407485961914 1.311415433883667
33.944679260253906 -7.563894748687744 1.3037227392196655
34.00334930419922 -7.79626989364624 1.2919368743896484
34.03518295288086 -8.023697853088379 1.2818713188171387
34.06550598144531 -8.251811981201172 1.27178955078125
34.07203674316406 -8.47506046295166 1.2632410526275635
34.09740447998047 -8.703883171081543 1.2532652616500854
34.095184326171875 -8.926515579223633 1.2450995445251465
34.1252326965332 -9.158499717712402 1.2345534563064575
34.123897552490234 -9.382989883422852 1.226095199584961
34.117244720458984 -9.606727600097656 1.2178994417190552
34.13884735107422 -9.839303970336914 1.2075849771499634
34.13112258911133 -10.064324378967285 1.199233889579773
34.115230560302734 -10.287604331970215 1.1913537979125977
34.158897399902344 -10.529879570007324 1.179082989692688
34.16756820678711 -10.76258659362793 1.1691930294036865
34.1613655090332 -10.991519927978516 1.1602532863616943
34.15742492675781 -11.222028732299805 1.1510282754898071
34.142478942871094 -11.449731826782227 1.1424838304519653
34.1873779296875 -11.698668479919434 1.1294381618499756
34.18057632446289 -11.93116283416748 1.1200401782989502
34.15623092651367 -12.15832805633545 1.111812949180603
34.131317138671875 -12.385985374450684 1.103509783744812
34.27798843383789 -12.677811622619629 1.0823190212249756
34.314056396484375 -12.931097984313965 1.0691704750061035
34.320369720458984 -13.174579620361328 1.0580953359603882
34.32683563232422 -13.419350624084473 1.046866536140442
34.33251190185547 -13.665067672729492 1.0355528593063354
34.34385299682617 -13.914356231689453 1.0236624479293823
34.348812103271484 -14.162397384643555 1.0121079683303833
34.36213684082031 -14.415267944335938 0.9997631907463074
34.351619720458984 -14.659439086914062 0.9890961647033691
34.37142562866211 -14.917923927307129 0.9759416580200195
29.541784286499023 -13.03786563873291 1.3392442464828491
34.4335823059082 -15.449923515319824 0.947374165058136
34.419490814208984 -15.69809341430664 0.9363642334938049
34.438026428222656 -15.962613105773926 0.9226354956626892
34.435665130615234 -16.219024658203125 0.9103855490684509
34.442237854003906 -16.481176376342773 0.8972629308700562
34.45944595336914 -16.7501220703125 0.8831199407577515
34.48269271850586 -17.023874282836914 0.8683128952980042
34.48603439331055 -17.289600372314453 0.85491943359375
34.40385437011719 -17.51347541809082 0.8482733368873596
34.35566711425781 -17.755311965942383 0.8387500047683716
34.433868408203125 -18.06439971923828 0.8187537789344788
34.400390625 -18.316991806030273 0.807686984539032
34.42214584350586 -18.600669860839844 0.7919045090675354
30.827280044555664 -16.903459548950195 1.0759680271148682
