# .PCD v0.7 - Point Cloud Data file format
VERSION 0.7
FIELDS x y z
SIZE 4 4 4
TYPE F F F
COUNT 1 1 1
WIDTH 846
HEIGHT 1
VIEWPOINT 0 0 0 1 0 0 0
POINTS 846
DATA ascii
25.072162628173828 10.999157905578613 0.8228052854537964
25.27215576171875 10.902701377868652 0.8046869039535522
25.708168029785156 10.904420852661133 0.7601091861724854
15.758430480957031 0.9123631715774536 1.8983128070831299
15.774426460266113 0.8162556290626526 1.8950600624084473
19.28877067565918 0.7611136436462402 1.5036815404891968
19.26598358154297 0.6418957710266113 1.504136323928833
12.899101257324219 -0.5995293259620667 2.1852004528045654
13.024004936218262 -0.6854206323623657 2.1689980030059814
12.882471084594727 -0.7572490572929382 2.1827197074890137
12.891282081604004 -0.8371514678001404 2.179466485977173
12.847062110900879 -0.9134579300880432 2.182147741317749
12.735495567321777 -1.062722086906433 2.190012216567993
12.834450721740723 -1.1503037214279175 2.176312208175659
12.824000358581543 -1.2287187576293945 2.17496657371521
12.819990158081055 -1.307755708694458 2.1728334426879883
12.801663398742676 -1.3852945566177368 2.172279119491577
12.796688079833984 -1.4642399549484253 2.1701464653015137
12.78234577178955 -1.5421066284179688 2.1690311431884766
12.734018325805664 -1.8543519973754883 2.162999391555786
29.250335693359375 -5.179730415344238 0.218279629945755
19.959896087646484 -6.535496234893799 1.1562535762786865
19.45099449157715 -6.501343727111816 1.2119001150131226
19.24312973022461 -6.563462257385254 1.2302148342132568
19.144981384277344 -6.661459922790527 1.2348251342773438
19.118423461914062 -6.784072399139404 1.2303935289382935
19.10788917541504 -6.912692546844482 1.2238422632217407
19.089038848876953 -7.038691520690918 1.2182304859161377
19.088878631591797 -7.172054290771484 1.2101380825042725
19.14158821105957 -7.326267719268799 1.1951841115951538
19.154258728027344 -7.466252326965332 1.1851781606674194
20.306238174438477 -8.203872680664062 1.0196781158447266
19.080631256103516 -7.845348834991455 1.1687448024749756
19.114267349243164 -7.996717929840088 1.1555042266845703
19.108386993408203 -8.132466316223145 1.1472417116165161
28.400753021240234 -16.225027084350586 -0.358814001083374
28.430713653564453 -16.47455596923828 -0.3810803294181824
28.39876937866211 -16.689857482910156 -0.3948711156845093
28.342227935791016 -16.891672134399414 -0.4053879678249359
28.224807739257812 -17.057485580444336 -0.4073898196220398
27.940542221069336 -17.1208553314209 -0.3855104148387909
27.8074893951416 -17.27513885498047 -0.385385662317276
27.682838439941406 -17.434261322021484 -0.3865838944911957
20.50990867614746 -13.09358024597168 0.6408402323722839
20.212995529174805 -13.079480171203613 0.669718861579895
19.919532775878906 -13.06386947631836 0.6982983946800232
19.727880477905273 -13.112181663513184 0.7120071649551392
19.53063201904297 -13.154756546020508 0.726614236831665
19.391809463500977 -13.23513412475586 0.7325520515441895
19.305801391601562 -13.350996971130371 0.7305352687835693
19.265424728393555 -13.49876594543457 0.7215247750282288
19.25066566467285 -13.665498733520508 0.708453357219696
19.232162475585938 -13.830822944641113 0.6957427263259888
19.23320770263672 -14.011624336242676 0.6798206567764282
19.234344482421875 -14.194137573242188 0.6636387705802917
19.23236846923828 -14.376005172729492 0.6476902365684509
19.22808837890625 -14.557781219482422 0.6318522691726685
19.23253059387207 -14.747897148132324 0.61439448595047
19.22987174987793 -14.934353828430176 0.5977879762649536
19.242799758911133 -15.134827613830566 0.578443706035614
19.23457908630371 -15.320565223693848 0.5621806383132935
19.239469528198242 -15.518609046936035 0.5435482859611511
19.232656478881836 -15.709125518798828 0.5265145301818848
19.2364559173584 -15.910263061523438 0.5074796676635742
19.229373931884766 -16.104393005371094 0.4899214208126068
19.215330123901367 -16.294540405273438 0.47322171926498413
19.262149810791016 -16.538768768310547 0.4461686611175537
20.816972732543945 -18.5511417388916 0.12401773780584335
20.55278778076172 -18.54354476928711 0.14653745293617249
20.306337356567383 -18.54880714416504 0.16623486578464508
20.088285446166992 -18.57734489440918 0.18122433125972748
19.859071731567383 -18.59306526184082 0.19826145470142365
19.641225814819336 -18.616914749145508 0.21346309781074524
19.428855895996094 -18.64360809326172 0.22782836854457855
12.853699684143066 11.979644775390625 1.8262741565704346
12.939156532287598 11.91203784942627 1.8229466676712036
12.963923454284668 11.788949966430664 1.828014850616455
12.907011032104492 11.593548774719238 1.8442717790603638
14.329562187194824 12.713756561279297 1.656022310256958
14.460892677307129 12.672833442687988 1.6468465328216553
13.085153579711914 11.326117515563965 1.8438806533813477
13.12845516204834 11.223671913146973 1.8457618951797485
13.16643238067627 11.117269515991211 1.848258376121521
13.216588020324707 11.021651268005371 1.8489986658096313
13.258387565612793 10.919513702392578 1.850766658782959
13.281686782836914 10.802839279174805 1.8549094200134277
13.328095436096191 10.70560073852539 1.8558460474014282
13.348875999450684 10.588419914245605 1.8600924015045166
13.38516616821289 10.484265327453613 1.8621636629104614
13.436417579650879 10.392234802246094 1.8621574640274048
13.45937728881836 10.278838157653809 1.8657807111740112
13.498927116394043 10.178727149963379 1.8671181201934814
13.535360336303711 10.076733589172363 1.8687645196914673
13.581470489501953 9.98233413696289 1.8690544366836548
13.604394912719727 9.871391296386719 1.8722590208053589
13.645874977111816 9.774442672729492 1.8729597330093384
13.683430671691895 9.675058364868164 1.8740743398666382
13.724359512329102 9.578426361083984 1.8746633529663086
13.757247924804688 9.476578712463379 1.8761905431747437
13.78940486907959 9.374686241149902 1.8777157068252563
13.829089164733887 9.278295516967773 1.8781903982162476
13.865621566772461 9.18012523651123 1.8789763450622559
13.90646743774414 9.08511734008789 1.8791286945343018
13.936639785766602 8.983485221862793 1.8805391788482666
13.978676795959473 8.88983154296875 1.8803688287734985
14.029356002807617 8.801811218261719 1.8790342807769775
14.061723709106445 8.702513694763184 1.879908561706543
14.085763931274414 8.598484992980957 1.8817311525344849
14.12098503112793 8.501668930053711 1.8820730447769165
14.167520523071289 8.411852836608887 1.8809304237365723
14.205760955810547 8.3172607421875 1.8807350397109985
14.241652488708496 8.221521377563477 1.8807477951049805
14.278634071350098 8.126636505126953 1.8805445432662964
14.317588806152344 8.033066749572754 1.880018711090088
14.47774600982666 8.006702423095703 1.8645967245101929
24.614070892333984 13.222079277038574 0.6392390131950378
24.625789642333984 13.034577369689941 0.6444506049156189
24.632610321044922 12.845586776733398 0.6500955820083618
24.684919357299805 12.681085586547852 0.650080144405365
24.663389205932617 12.479609489440918 0.6588367223739624
24.714183807373047 12.315685272216797 0.6587140560150146
24.72015953063965 12.130142211914062 0.6638423800468445
24.70778465270996 11.936769485473633 0.6710171699523926
24.734375 11.763221740722656 0.6733661890029907
24.743560791015625 11.582206726074219 0.6776527166366577
24.742433547973633 11.397361755371094 0.6830223202705383
24.80607032775879 11.242926597595215 0.6805277466773987
24.85694122314453 11.082874298095703 0.6794279217720032
25.06519889831543 10.992096900939941 0.6595208048820496
25.345380783081055 10.930282592773438 0.6310219168663025
25.654104232788086 10.877469062805176 0.5991016030311584
44.87159729003906 8.182836532592773 -1.53751802444458
19.293766021728516 0.758739173412323 1.3871057033538818
19.256072998046875 0.6389996409416199 1.3894555568695068
12.89797306060791 -0.680776834487915 2.105541467666626
12.880472183227539 -0.7591157555580139 2.1053833961486816
12.867450714111328 -0.8375889658927917 2.1046395301818848
12.763525009155273 -1.303983449935913 2.102121591567993
12.749167442321777 -1.3816028833389282 2.101158618927002
12.685015678405762 -1.4534498453140259 2.106140375137329
12.640180587768555 -1.5269428491592407 2.108757495880127
12.609696388244629 -1.6018171310424805 2.109598159790039
12.628963470458984 -1.683060646057129 2.104363441467285
12.646724700927734 -1.7644644975662231 2.099241256713867
12.731748580932617 -1.85602605342865 2.085867166519165
12.545210838317871 -1.907533049583435 2.105485439300537
20.1416072845459 -6.461323261260986 1.013928771018982
20.140867233276367 -6.597711086273193 1.0060827732086182
19.056257247924805 -6.633484363555908 1.12434983253479
19.01488494873047 -6.750239372253418 1.1218129396438599
20.04960060119629 -7.256387233734131 0.9765338897705078
19.123958587646484 -7.322502136230469 1.0739948749542236
19.05154037475586 -7.429206848144531 1.0750455856323242
19.012657165527344 -7.548845291137695 1.0715090036392212
20.319353103637695 -8.504064559936523 0.8664089441299438
19.176639556884766 -8.304061889648438 1.0031533241271973
19.047815322875977 -8.387540817260742 1.0112175941467285
19.054527282714844 -8.530558586120605 1.0005321502685547
28.293954849243164 -13.72397232055664 -0.3524344861507416
28.287031173706055 -13.93582820892334 -0.36730918288230896
28.330913543701172 -14.174304008483887 -0.3896302282810211
28.295087814331055 -14.374305725097656 -0.40087631344795227
28.23230743408203 -14.561219215393066 -0.40846508741378784
28.1700496673584 -14.748824119567871 -0.41630303859710693
27.770174026489258 -14.757477760314941 -0.3755660951137543
27.490890502929688 -14.8262939453125 -0.35208120942115784
27.39020347595215 -14.989862442016602 -0.3545134663581848
20.514476776123047 -13.10053825378418 0.4931833744049072
20.22517204284668 -13.09139633178711 0.522433876991272
19.94257164001465 -13.08301067352295 0.5508530735969543
19.70792579650879 -13.10295581817627 0.5720214247703552
19.50341033935547 -13.14046859741211 0.588617205619812
19.33358383178711 -13.199453353881836 0.5998566150665283
19.261642456054688 -13.324551582336426 0.595689594745636
19.231124877929688 -13.478859901428223 0.5848333239555359
19.209135055541992 -13.640186309814453 0.5724263191223145
19.222915649414062 -13.828385353088379 0.5540781617164612
19.223081588745117 -14.008509635925293 0.5376502871513367
19.21776580810547 -14.186208724975586 0.5218554139137268
19.217336654663086 -14.369122505187988 0.5050144791603088
19.218542098999023 -14.554957389831543 0.4876425266265869
19.216609954833984 -14.740140914916992 0.47051548957824707
19.218603134155273 -14.93010425567627 0.45246797800064087
19.217422485351562 -15.119422912597656 0.4346654713153839
19.229366302490234 -15.321026802062988 0.41438204050064087
19.23415184020996 -15.518985748291016 0.3949906527996063
19.23031234741211 -15.711935043334961 0.3767543435096741
19.20954132080078 -15.892779350280762 0.36110803484916687
19.308876037597656 -16.175827026367188 0.3246072232723236
19.248931884765625 -16.32793617248535 0.31505414843559265
19.26380729675293 -16.5451602935791 0.2923232913017273
19.283470153808594 -16.769031524658203 0.2683974504470825
12.836021423339844 12.106586456298828 1.7175341844558716
12.882165908813477 12.00187873840332 1.7200593948364258
12.903372764587402 11.874839782714844 1.7261511087417603
12.971318244934082 11.791463851928711 1.725207805633545
14.012059211730957 12.581853866577148 1.5816473960876465
14.225549697875977 12.61706256866455 1.559959053993225
14.442978858947754 12.652740478515625 1.5377920866012573
13.083616256713867 11.320755004882812 1.7436168193817139
13.118573188781738 11.211231231689453 1.7468892335891724
13.162553787231445 11.110038757324219 1.7487455606460571
13.208080291748047 11.010639190673828 1.7502715587615967
13.239837646484375 10.900354385375977 1.7536470890045166
13.270740509033203 10.790095329284668 1.7570217847824097
13.312417984008789 10.689202308654785 1.7587580680847168
13.340118408203125 10.577704429626465 1.762349247932434
13.391995429992676 10.485878944396973 1.7624397277832031
13.411798477172852 10.369492530822754 1.766904354095459
13.44805908203125 10.266529083251953 1.768959879875183
13.499435424804688 10.17547607421875 1.7688193321228027
13.526284217834473 10.066372871398926 1.7719662189483643
13.570723533630371 9.97086238861084 1.7725861072540283
13.594389915466309 9.860590934753418 1.7759512662887573
13.634994506835938 9.76313591003418 1.7768951654434204
13.678159713745117 9.667848587036133 1.7773945331573486
13.715781211853027 9.568985939025879 1.7785511016845703
13.755979537963867 9.472278594970703 1.7792633771896362
13.784002304077148 9.367615699768066 1.781518816947937
13.818687438964844 9.267946243286133 1.782778263092041
13.860956192016602 9.173690795898438 1.7829279899597168
13.886780738830566 9.068937301635742 1.785178780555725
13.926881790161133 8.973901748657227 1.7854323387145996
13.978917121887207 8.886713981628418 1.7840168476104736
14.005152702331543 8.783381462097168 1.7859277725219727
14.042476654052734 8.687379837036133 1.786280870437622
14.082547187805176 8.593321800231934 1.7861851453781128
14.10921859741211 8.491410255432129 1.7877568006515503
14.155681610107422 8.4016695022583 1.7866498231887817
14.195570945739746 8.308161735534668 1.7863185405731201
14.227960586547852 8.210504531860352 1.7868770360946655
14.267459869384766 8.117186546325684 1.7864257097244263
14.30721664428711 8.024177551269531 1.785857915878296
14.437678337097168 7.981475353240967 1.7735153436660767
14.93896770477295 8.139571189880371 1.71345853805542
15.880409240722656 8.526887893676758 1.5971232652664185
24.64182472229004 13.038615226745605 0.4801958203315735
24.69979476928711 12.876205444335938 0.4797814190387726
24.698362350463867 12.683609962463379 0.4867953062057495
24.691959381103516 12.489723205566406 0.4942686855792999
24.697450637817383 12.303035736083984 0.5000594258308411
24.701583862304688 12.116750717163086 0.5058566331863403
24.797412872314453 11.975820541381836 0.499898761510849
24.91307830810547 11.843981742858887 0.4913206696510315
24.92276954650879 11.661896705627441 0.4959796369075775
24.736242294311523 11.390360832214355 0.5251473188400269
24.772674560546875 11.223665237426758 0.5260948538780212
24.823415756225586 11.063826560974121 0.525107741355896
25.006885528564453 10.962430953979492 0.5073891878128052
25.277616500854492 10.89695930480957 0.478696346282959
25.692075729370117 10.88945198059082 0.43204179406166077
19.26272201538086 0.754879891872406 1.2781319618225098
19.2528018951416 0.6362575888633728 1.2773253917694092
19.308626174926758 0.5195797085762024 1.2683740854263306
12.88783073425293 -0.6822716593742371 2.0313358306884766
12.872302055358887 -0.7606638669967651 2.0310068130493164
12.874122619628906 -0.840052604675293 2.028456687927246
12.648193359375 -1.451259970664978 2.0361523628234863
12.607329368591309 -1.5250022411346436 2.0384814739227295
20.123008728027344 -6.3224005699157715 0.9006180167198181
20.169422149658203 -6.473272323608398 0.8862359523773193
20.157249450683594 -6.606119632720947 0.8796916007995605
20.146085739135742 -6.739691257476807 0.8728861212730408
18.98063087463379 -6.479750156402588 1.0246671438217163
18.972030639648438 -6.607127666473389 1.0177501440048218
18.945756912231445 -6.728673934936523 1.0131559371948242
18.9522705078125 -6.862298011779785 1.0039032697677612
19.205677032470703 -7.221956729888916 0.9514016509056091
19.10140609741211 -7.316921234130859 0.9571471214294434
19.011476516723633 -7.4166460037231445 0.9608348608016968
19.03245735168457 -8.383976936340332 0.8914044499397278
19.006553649902344 -8.512300491333008 0.8850616216659546
19.009567260742188 -8.6541748046875 0.8743945956230164
19.183406829833984 -8.875903129577637 0.8386722207069397
19.321130752563477 -9.084061622619629 0.8078829050064087
20.694726943969727 -13.041497230529785 0.33713415265083313
20.394250869750977 -13.02788257598877 0.36949992179870605
20.123022079467773 -13.029391288757324 0.39738476276397705
19.85089683532715 -13.026983261108398 0.42559853196144104
19.64641761779785 -13.066181182861328 0.44301629066467285
19.45043182373047 -13.108901023864746 0.4591353237628937
19.30622673034668 -13.184920310974121 0.46683669090270996
19.225387573242188 -13.303644180297852 0.4640829861164093
19.173839569091797 -13.44291877746582 0.4563627541065216
19.432342529296875 -13.802959442138672 0.39682286977767944
19.35975456237793 -13.931139945983887 0.39202672243118286
19.202245712280273 -13.99767017364502 0.4013940691947937
19.213645935058594 -14.187564849853516 0.38218605518341064
19.214704513549805 -14.371597290039062 0.3644469678401947
19.222118377685547 -14.562158584594727 0.3453430235385895
19.212186813354492 -14.741289138793945 0.32892805337905884
19.221115112304688 -14.936652183532715 0.3089834451675415
19.222131729125977 -15.127778053283691 0.29010576009750366
19.2176456451416 -15.316389083862305 0.2718918025493622
19.234689712524414 -15.52418041229248 0.2495945692062378
19.224580764770508 -15.712068557739258 0.23175884783267975
19.206777572631836 -15.895363807678223 0.21499842405319214
19.215539932250977 -16.10257339477539 0.1931964010000229
19.234560012817383 -16.320743560791016 0.16919945180416107
19.28017234802246 -16.564279556274414 0.14000654220581055
19.245019912719727 -16.740724563598633 0.12509779632091522
12.774937629699707 12.219156265258789 1.6096220016479492
12.82845401763916 12.120789527893066 1.6113513708114624
12.90666675567627 12.045947074890137 1.6090861558914185
12.832509994506836 11.830541610717773 1.6305363178253174
12.99860954284668 11.837230682373047 1.6143395900726318
12.887541770935059 11.592524528503418 1.641068458557129
12.9514741897583 11.507325172424316 1.640504240989685
13.002899169921875 11.411293029785156 1.6417629718780518
13.074655532836914 11.333280563354492 1.6398100852966309
13.099153518676758 11.214760780334473 1.6449531316757202
13.151520729064941 11.12074089050293 1.6457386016845703
13.19102668762207 11.01630973815918 1.6483551263809204
13.235878944396973 10.916869163513184 1.650050401687622
13.27769947052002 10.815410614013672 1.6520867347717285
13.294778823852539 10.694546699523926 1.657687783241272
13.325657844543457 10.585620880126953 1.6611027717590332
13.368988990783691 10.487139701843262 1.6625577211380005
13.40768814086914 10.385481834411621 1.6645857095718384
13.447223663330078 10.284951210021973 1.6663799285888672
13.478897094726562 10.178936958312988 1.669211506843567
13.517741203308105 10.078859329223633 1.6708850860595703
13.555868148803711 9.97868537902832 1.672555923461914
13.586845397949219 9.873751640319824 1.675150990486145
13.636417388916016 9.782706260681152 1.674960970878601
13.663498878479004 9.67592716217041 1.6778994798660278
13.698739051818848 9.575441360473633 1.6795599460601807
13.73898696899414 9.47883415222168 1.6804040670394897
13.775280952453613 9.379857063293457 1.6817097663879395
13.812528610229492 9.281898498535156 1.6827794313430786
13.853231430053711 9.186577796936035 1.6832635402679443
13.874171257019043 9.078598976135254 1.686427354812622
13.919341087341309 8.986870765686035 1.6860876083374023
13.95971965789795 8.89225959777832 1.6863276958465576
13.992735862731934 8.793261528015137 1.6874995231628418
14.03012752532959 8.697333335876465 1.6879661083221436
14.079580307006836 8.60904598236084 1.6866705417633057
14.11231803894043 8.510732650756836 1.687597632408142
14.147795677185059 8.414373397827148 1.688052773475647
14.189475059509277 8.321914672851562 1.6875640153884888
14.227974891662598 8.22776985168457 1.6874231100082397
14.258090019226074 8.129036903381348 1.6883379220962524
14.305708885192871 8.040461540222168 1.6867755651474
14.361464500427246 7.956417083740234 1.6840264797210693
14.915255546569824 8.144184112548828 1.6137232780456543
15.86710262298584 8.538114547729492 1.4898607730865479
24.619943618774414 13.053860664367676 0.3144886791706085
24.650726318359375 12.877325057983398 0.3178887367248535
24.67585563659668 12.698630332946777 0.32188254594802856
24.70060920715332 12.52055835723877 0.32575973868370056
24.687686920166016 12.324477195739746 0.33450788259506226
24.701807022094727 12.143041610717773 0.33946341276168823
24.777198791503906 11.992172241210938 0.33609539270401
24.755756378173828 11.795137405395508 0.345458984375
24.87396812438965 11.664999008178711 0.336120069026947
24.861698150634766 11.473942756652832 0.3439411520957947
24.752199172973633 11.23996353149414 0.36443257331848145
24.814823150634766 11.0855073928833 0.3620065450668335
24.979196548461914 10.97583293914795 0.346049040555954
25.233373641967773 10.903539657592773 0.31819912791252136
25.382509231567383 10.783893585205078 0.3040795624256134
19.263633728027344 0.7724506258964539 1.1621874570846558
19.2597599029541 0.6540147662162781 1.160698652267456
19.281932830810547 0.5363977551460266 1.1557693481445312
12.884747505187988 -0.6695455312728882 1.9543530941009521
12.871273040771484 -0.7480425238609314 1.9538304805755615
12.878104209899902 -0.8277369141578674 1.9505926370620728
19.71095848083496 -6.0409255027771 0.8410788178443909
19.391374588012695 -6.0734405517578125 0.8785145878791809
19.120285034179688 -6.117669105529785 0.9091676473617554
19.054731369018555 -6.225898742675781 0.9105314016342163
18.954730987548828 -6.322270393371582 0.9167588353157043
18.943382263183594 -6.4479851722717285 0.9101905226707458
18.91622543334961 -6.568600177764893 0.9057794213294983
18.908845901489258 -6.696403503417969 0.8983957767486572
18.909927368164062 -6.827730655670166 0.8896548748016357
18.89615821838379 -6.954190731048584 0.8829380869865417
18.916797637939453 -7.093960762023926 0.8710681200027466
18.920696258544922 -7.228236198425293 0.8614922165870667
18.880258560180664 -7.345942497253418 0.8582898378372192
18.9136962890625 -7.492984771728516 0.8440830707550049
18.96348762512207 -7.647755146026611 0.8272764086723328
18.94151496887207 -7.7744526863098145 0.8209315538406372
19.0759334564209 -7.966840744018555 0.7911475300788879
19.04366111755371 -8.091048240661621 0.7860066294670105
19.087873458862305 -8.248566627502441 0.7692630887031555
19.007524490356445 -8.352727890014648 0.7710824012756348
18.818084716796875 -8.407724380493164 0.789325475692749
18.985857009887695 -8.622936248779297 0.7534084320068359
18.961009979248047 -8.752504348754883 0.7464820742607117
18.959501266479492 -8.893452644348145 0.7358517646789551
18.96501922607422 -9.03854751586914 0.7239781022071838
19.013147354125977 -9.20519733428955 0.7053641676902771
19.185264587402344 -9.434410095214844 0.6673445105552673
20.675758361816406 -13.004478454589844 0.19473955035209656
20.469907760620117 -13.051186561584473 0.21287912130355835
20.121232986450195 -13.00342082977295 0.2550881505012512
19.879959106445312 -13.021324157714844 0.27948448061943054
19.652435302734375 -13.045527458190918 0.30169594287872314
19.45577049255371 -13.087883949279785 0.3187754452228546
19.2936954498291 -13.151747703552246 0.3300110697746277
19.217927932739258 -13.27376937866211 0.3264116942882538
19.19249725341797 -13.431122779846191 0.31397831439971924
19.22157859802246 -13.628179550170898 0.2918475270271301
19.1798038482666 -13.776422500610352 0.28178536891937256
19.242597579956055 -14.001561164855957 0.25315147638320923
19.2324161529541 -14.175707817077637 0.2370177060365677
19.21525764465332 -14.346107482910156 0.22186049818992615
19.21962547302246 -14.534151077270508 0.20260517299175262
19.21925926208496 -14.720376968383789 0.18389934301376343
19.224363327026367 -14.91260814666748 0.16390924155712128
19.2270450592041 -15.104843139648438 0.14404511451721191
19.231178283691406 -15.300138473510742 0.1236002966761589
19.24905014038086 -15.508472442626953 0.10030926764011383
13.274580001831055 13.003138542175293 1.3877023458480835
12.735977172851562 12.323637962341309 1.4901058673858643
12.794556617736816 12.229517936706543 1.4913033246994019
12.763678550720215 12.051312446594238 1.507292628288269
12.90243148803711 12.033742904663086 1.4948830604553223
13.044363975524902 12.01761245727539 1.4819655418395996
13.011842727661133 11.841170310974121 1.4977184534072876
12.880942344665527 11.578643798828125 1.5292953252792358
14.122068405151367 12.538818359375 1.337262749671936
13.085026741027832 11.33449935913086 1.5254565477371216
13.098980903625488 11.206924438476562 1.5326714515686035
13.148259162902832 11.110358238220215 1.5340760946273804
13.197608947753906 11.014244079589844 1.5353549718856812
13.220999717712402 10.897107124328613 1.5406321287155151
13.268086433410645 10.800148963928223 1.5420258045196533
13.294367790222168 10.686853408813477 1.5465738773345947
13.343083381652832 10.592156410217285 1.5474746227264404
13.370829582214355 10.481338500976562 1.5515344142913818
13.410277366638184 10.380302429199219 1.5536457300186157
13.441104888916016 10.273147583007812 1.5569730997085571
13.483799934387207 10.175568580627441 1.5583479404449463
13.521827697753906 10.0748872756958 1.5603289604187012
13.552730560302734 9.969417572021484 1.5632851123809814
13.596504211425781 9.873859405517578 1.564160943031311
13.630742073059082 9.77177906036377 1.5663790702819824
13.661811828613281 9.667927742004395 1.5689623355865479
13.703512191772461 9.572020530700684 1.5698281526565552
13.734746932983398 9.469202995300293 1.5721622705459595
13.7750825881958 9.373062133789062 1.5730211734771729
13.808990478515625 9.272907257080078 1.5747367143630981
13.848806381225586 9.177075386047363 1.5754661560058594
13.889629364013672 9.08218765258789 1.575945258140564
13.918134689331055 8.97961139678955 1.578144907951355
13.954277992248535 8.882354736328125 1.5791106224060059
13.990592002868652 8.78551959991455 1.5799498558044434
14.02708911895752 8.689094543457031 1.5806620121002197
14.066317558288574 8.594619750976562 1.5808762311935425
14.108314514160156 8.502038955688477 1.5805914402008057
14.148853302001953 8.408758163452148 1.5804256200790405
14.187066078186035 8.314295768737793 1.580503225326538
14.224653244018555 8.219677925109863 1.5805764198303223
14.259027481079102 8.123437881469727 1.5810185670852661
14.304004669189453 8.033400535583496 1.5798414945602417
14.394421577453613 7.968586444854736 1.5720655918121338
15.035048484802246 8.203320503234863 1.4855867624282837
15.210652351379395 8.178617477416992 1.4657434225082397
24.61935806274414 13.044023513793945 0.1324067860841751
24.654483795166016 12.869823455810547 0.1355355978012085
24.675168991088867 12.688874244689941 0.14053861796855927
24.697216033935547 12.509498596191406 0.14516937732696533
24.757062911987305 12.349815368652344 0.14429575204849243
24.749980926513672 12.157496452331543 0.15268562734127045
24.706645965576172 11.948882102966309 0.16597583889961243
24.7342472076416 11.775798797607422 0.16911852359771729
24.793893814086914 11.618401527404785 0.16761425137519836
24.774168014526367 11.424568176269531 0.17704159021377563
24.835206985473633 11.268716812133789 0.17502889037132263
24.89073944091797 11.110520362854004 0.17363819479942322
24.937089920043945 10.94847583770752 0.1733751893043518
25.118091583251953 10.844868659973145 0.15430451929569244
19.237634658813477 0.7657128572463989 1.0390353202819824
19.244609832763672 0.6478068232536316 1.0361299514770508
19.261756896972656 0.5301422476768494 1.0317500829696655
12.8645658493042 -0.6725712418556213 1.872292160987854
12.882721900939941 -0.7527902722358704 1.8674877882003784
12.870715141296387 -0.8313437104225159 1.866752028465271
27.8626708984375 -5.8108954429626465 -0.35374271869659424
27.784353256225586 -5.972727298736572 -0.3514489531517029
19.87274742126465 -5.963720321655273 0.689214289188385
19.481414794921875 -5.976894855499268 0.7391916513442993
19.225784301757812 -6.0278520584106445 0.769131600856781
19.073047637939453 -6.108816623687744 0.7837711572647095
19.008501052856445 -6.21706485748291 0.7851864099502563
18.907663345336914 -6.312840461730957 0.7919771671295166
18.851348876953125 -6.422940254211426 0.7920054793357849
18.84769630432129 -6.551114559173584 0.783981204032898
18.827312469482422 -6.673864364624023 0.7783581018447876
18.851749420166016 -6.813097953796387 0.7657917141914368
18.839885711669922 -6.939883232116699 0.7586004137992859
18.839218139648438 -7.0713019371032715 0.7495603561401367
18.83579444885254 -7.202268600463867 0.7407982349395752
18.835159301757812 -7.334897994995117 0.7314616441726685
18.859365463256836 -7.478005886077881 0.7181332111358643
18.870588302612305 -7.616873264312744 0.7066431045532227
18.859752655029297 -7.7475104331970215 0.698421061038971
18.859891891479492 -7.883265495300293 0.6883403658866882
18.863628387451172 -8.02125072479248 0.677537739276886
18.873641967773438 -8.162723541259766 0.6655833721160889
18.878095626831055 -8.302630424499512 0.6543336510658264
18.895090103149414 -8.448958396911621 0.6409276127815247
18.910093307495117 -8.595399856567383 0.6276522874832153
18.915019989013672 -8.73819351196289 0.6157987117767334
18.915319442749023 -8.879691123962402 0.6045098304748535
18.930665969848633 -9.029190063476562 0.5906268358230591
18.912822723388672 -9.163679122924805 0.581906795501709
18.952640533447266 -9.327129364013672 0.5636867880821228
19.001781463623047 -9.496720314025879 0.5437195897102356
16.577823638916016 -8.412972450256348 0.9273962378501892
16.485088348388672 -8.49364185333252 0.9318040013313293
16.70414924621582 -8.736751556396484 0.8848397731781006
16.6385498046875 -8.964449882507324 0.8731247186660767
16.639324188232422 -9.097179412841797 0.8614796996116638
16.367399215698242 -9.079548835754395 0.8953003287315369
16.32483673095703 -9.187524795532227 0.8907766938209534
16.254928588867188 -9.28011703491211 0.8907526135444641
16.20418930053711 -9.383601188659668 0.8873999118804932
16.323421478271484 -9.587021827697754 0.85499507188797
16.1984920501709 -9.647972106933594 0.8639881014823914
19.94765281677246 -13.074378967285156 0.11010308563709259
19.644956588745117 -13.049238204956055 0.14675743877887726
19.450021743774414 -13.092692375183105 0.16444729268550873
19.292070388793945 -13.159337043762207 0.17558416724205017
19.200773239135742 -13.270659446716309 0.1747266799211502
19.17851448059082 -13.430154800415039 0.1612609624862671
19.215526580810547 -13.63280200958252 0.13677386939525604
19.172849655151367 -13.780414581298828 0.12652020156383514
19.19065284729004 -13.972844123840332 0.10494055598974228
12.847959518432617 12.901691436767578 1.3266105651855469
12.712468147277832 12.610252380371094 1.3632900714874268
12.683016777038574 12.427895545959473 1.3806178569793701
12.730931282043457 12.322966575622559 1.3839725255966187
12.689848899841309 12.133585929870605 1.4028350114822388
12.734190940856934 12.02760124206543 1.4064457416534424
12.95685863494873 12.088688850402832 1.3788611888885498
12.993593215942383 11.828680992126465 1.394623875617981
12.867218971252441 11.570338249206543 1.427062749862671
12.897625923156738 11.4556303024292 1.432310938835144
12.941277503967285 11.353415489196777 1.4351513385772705
13.056876182556152 11.314109802246094 1.4256856441497803
13.093350410461426 11.20608139038086 1.4295259714126587
13.141870498657227 11.108918190002441 1.4312058687210083
13.185125350952148 11.00776481628418 1.4336432218551636
13.231460571289062 10.909653663635254 1.4354416131973267
13.257092475891113 10.7951021194458 1.4405454397201538
13.286459922790527 10.68437671661377 1.4448853731155396
13.328948020935059 10.584798812866211 1.4469307661056519
13.363692283630371 10.479592323303223 1.4501205682754517
13.400787353515625 10.376786231994629 1.4527982473373413
13.4363374710083 10.273316383361816 1.4556015729904175
13.471916198730469 10.170395851135254 1.4582747220993042
13.508328437805176 10.068612098693848 1.4606901407241821
13.550393104553223 9.971464157104492 1.462078332901001
13.583749771118164 9.868349075317383 1.4647443294525146
13.615547180175781 9.764620780944824 1.4675371646881104
13.655489921569824 9.667176246643066 1.4689162969589233
13.69231128692627 9.56790542602539 1.470677375793457
13.729247093200684 9.469106674194336 1.4723072052001953
13.767126083374023 9.371331214904785 1.4736764430999756
13.804322242736816 9.273446083068848 1.475042700767517
13.835880279541016 9.172165870666504 1.4771790504455566
13.880821228027344 9.080077171325684 1.4771206378936768
13.909326553344727 8.977561950683594 1.4795103073120117
13.930405616760254 8.870777130126953 1.4829319715499878
13.990163803100586 8.788865089416504 1.4802769422531128
14.013197898864746 8.684089660644531 1.4831774234771729
14.062546730041504 8.595911026000977 1.481933355331421
14.104548454284668 8.503355979919434 1.4817198514938354
14.142535209655762 8.408580780029297 1.4820200204849243
14.179889678955078 8.313657760620117 1.482316493988037
14.218330383300781 8.219584465026855 1.4823490381240845
14.247537612915039 8.120441436767578 1.483677864074707
14.292487144470215 8.030476570129395 1.482532024383545
14.371561050415039 7.9594807624816895 1.4761687517166138
14.98287582397461 8.178573608398438 1.389995813369751
15.228052139282227 8.191749572753906 1.3588721752166748
19.24254035949707 0.7700744271278381 0.9220643043518066
19.226760864257812 0.6513673663139343 0.9223519563674927
19.239944458007812 0.5337063670158386 0.9184508919715881
12.90050983428955 -0.6719154119491577 1.78936767578125
12.857366561889648 -0.7487848997116089 1.7932000160217285
12.854272842407227 -0.8277561664581299 1.7912334203720093
19.757476806640625 -5.92446756362915 0.5816854238510132
19.495275497436523 -5.976541996002197 0.6139416098594666
19.221866607666016 -6.022079944610596 0.6480224132537842
19.0899658203125 -6.109712600708008 0.6601491570472717
18.855236053466797 -6.162469387054443 0.6883198618888855
18.816699981689453 -6.27799654006958 0.6858128309249878
18.822397232055664 -6.408584117889404 0.6762454509735107
18.801036834716797 -6.530394554138184 0.6707949042320251
18.795669555664062 -6.6581292152404785 0.6626904010772705
18.799673080444336 -6.789741039276123 0.652957022190094
18.806476593017578 -6.923020362854004 0.6426258087158203
18.82160758972168 -7.060112953186035 0.6308081746101379
18.82097625732422 -7.192005634307861 0.6213467121124268
18.821277618408203 -7.324875354766846 0.6115818619728088
18.819732666015625 -7.457656383514404 0.6019584536552429
18.833772659301758 -7.597354888916016 0.5896589756011963
18.839481353759766 -7.73450231552124 0.578535795211792
18.843299865722656 -7.871626377105713 0.5675527453422546
18.843406677246094 -8.007929801940918 0.5570067763328552
18.854351043701172 -8.149632453918457 0.5445189476013184
18.860637664794922 -8.290180206298828 0.5326160192489624
18.8740291595459 -8.43474292755127 0.5193626880645752
18.87824821472168 -8.576104164123535 0.507439911365509
18.88503074645996 -8.719491958618164 0.4949108362197876
18.873750686645508 -8.85530948638916 0.4852100908756256
19.15337562561035 -9.130431175231934 0.4266163408756256
19.099260330200195 -9.24902057647705 0.4235992431640625
18.9459285736084 -9.318860054016113 0.43720895051956177
16.63599967956543 -8.31013298034668 0.8162153959274292
16.5649471282959 -8.402168273925781 0.8172813057899475
16.44768524169922 -8.470112800598145 0.8261635899543762
16.244348526000977 -8.492057800292969 0.8497902154922485
16.732189178466797 -8.87833023071289 0.7545489072799683
16.19915771484375 -8.723475456237793 0.8348969221115112
15.966262817382812 -8.725015640258789 0.8637343049049377
16.134286880493164 -8.94596004486084 0.8228583931922913
16.15887451171875 -9.089812278747559 0.8066602349281311
16.224369049072266 -9.258310317993164 0.783052384853363
16.181446075439453 -9.366058349609375 0.7782978415489197
16.107973098754883 -9.456116676330566 0.7788360118865967
16.10110855102539 -9.585570335388184 0.7674349546432495
16.019630432128906 -9.670858383178711 0.7691971063613892
12.630997657775879 12.670392990112305 1.2619589567184448
12.644814491271973 12.529885292053223 1.272248387336731
12.704845428466797 12.436149597167969 1.2737221717834473
12.746390342712402 12.324918746948242 1.2784827947616577
12.77988338470459 12.20679759979248 1.284559726715088
12.770597457885742 12.049269676208496 1.2982875108718872
12.833823204040527 11.961257934570312 1.2985612154006958
12.876031875610352 11.854122161865234 1.3025258779525757
12.918880462646484 11.748251914978027 1.3062238693237305
12.960914611816406 11.642301559448242 1.309918761253357
12.999913215637207 11.5343017578125 1.314008116722107
13.052240371704102 11.438675880432129 1.3155790567398071
13.041687965393066 11.288991928100586 1.3281461000442505
13.096839904785156 11.197198867797852 1.3289179801940918
13.14681339263916 11.101316452026367 1.3304805755615234
13.188493728637695 10.998891830444336 1.3333660364151
13.223295211791992 10.89133071899414 1.3373119831085205
13.258811950683594 10.785004615783691 1.3409903049468994
13.3004789352417 10.684242248535156 1.343469262123108
13.321999549865723 10.567971229553223 1.3492752313613892
13.366782188415527 10.470786094665527 1.3509503602981567
13.399117469787598 10.364352226257324 1.3546226024627686
13.438526153564453 10.26392936706543 1.3569583892822266
13.479583740234375 10.165202140808105 1.358890414237976
13.514372825622559 10.062214851379395 1.361755132675171
13.547609329223633 9.958593368530273 1.3647513389587402
13.5792818069458 9.854360580444336 1.3678802251815796
13.612605094909668 9.751843452453613 1.370605707168579
13.653273582458496 9.655011177062988 1.37198805809021
13.698143005371094 9.56144905090332 1.3725615739822388
13.733402252197266 9.461512565612793 1.374607801437378
13.772869110107422 9.36484432220459 1.375844955444336
13.803441047668457 9.262526512145996 1.3784239292144775
13.843192100524902 9.166749954223633 1.3793853521347046
13.874820709228516 9.065954208374023 1.3815561532974243
13.906569480895996 8.96565055847168 1.3835898637771606
13.950986862182617 8.873807907104492 1.38346266746521
13.983052253723145 8.774381637573242 1.3852208852767944
14.022849082946777 8.680110931396484 1.3856256008148193
14.062015533447266 8.585680961608887 1.3860260248184204
14.101401329040527 8.491606712341309 1.386286973953247
14.137606620788574 8.395852088928223 1.3869500160217285
14.174878120422363 8.300972938537598 1.3873382806777954
14.206371307373047 8.202978134155273 1.388537049293518
14.24838924407959 8.111281394958496 1.3879679441452026
14.287224769592285 8.017921447753906 1.3878012895584106
14.41040325164795 7.971394062042236 1.3743031024932861
14.764029502868652 8.049351692199707 1.324711799621582
15.293659210205078 8.217059135437012 1.2477940320968628
19.220003128051758 0.7598434090614319 0.8120809197425842
19.221960067749023 0.6418812870979309 0.8098701238632202
19.263744354248047 0.5250311493873596 0.8016939759254456
12.892253875732422 -0.6780109405517578 1.714495062828064
12.860947608947754 -0.7555080056190491 1.716784119606018
12.859774589538574 -0.8346289992332458 1.7145107984542847
19.840167999267578 -5.827195644378662 0.45478397607803345
19.6275691986084 -5.895899772644043 0.48044753074645996
19.431894302368164 -5.967440128326416 0.5034210681915283
19.13802146911621 -6.006039619445801 0.5422883033752441
18.9564208984375 -6.0771565437316895 0.563079297542572
18.821645736694336 -6.161644458770752 0.5762813687324524
18.782161712646484 -6.276650905609131 0.5739313960075378
18.77471351623535 -6.402568340301514 0.5662352442741394
18.846694946289062 -6.556549072265625 0.545376181602478
18.81596565246582 -6.675648212432861 0.5411830544471741
18.802141189575195 -6.801004409790039 0.5340791940689087
18.796756744384766 -6.929861068725586 0.525439441204071
18.78401756286621 -7.056478023529053 0.5178685188293457
18.7962703704834 -7.193087577819824 0.5059930682182312
18.797422409057617 -7.326168060302734 0.49579840898513794
18.771930694580078 -7.449332237243652 0.4899049699306488
18.81709098815918 -7.601322174072266 0.47199979424476624
18.82087516784668 -7.737619400024414 0.4608560800552368
18.82916259765625 -7.8765387535095215 0.44877898693084717
18.808263778686523 -8.003861427307129 0.4414771497249603
18.871740341186523 -8.168107986450195 0.41965168714523315
16.5347843170166 -7.277784824371338 0.8079667091369629
16.448881149291992 -7.360901832580566 0.8127167820930481
16.427335739135742 -7.472687721252441 0.8063335418701172
16.3377742767334 -7.553401947021484 0.8115719556808472
16.305076599121094 -7.660180568695068 0.806901216506958
16.419679641723633 -7.837467670440674 0.7764680981636047
18.999486923217773 -9.212211608886719 0.3149678707122803
16.58919906616211 -8.17005443572998 0.7251255512237549
16.529560089111328 -8.26722526550293 0.7244546413421631
16.455259323120117 -8.356819152832031 0.7262827157974243
16.4357967376709 -8.474327087402344 0.718307375907898
16.552038192749023 -8.663354873657227 0.6860063076019287
16.185029983520508 -8.59837532043457 0.7397981882095337
16.111608505249023 -8.686697959899902 0.7412126064300537
16.001317977905273 -8.754537582397461 0.7492020130157471
16.230205535888672 -9.00971508026123 0.6957522034645081
16.249988555908203 -9.151727676391602 0.6797940135002136
16.06108856201172 -9.175780296325684 0.7017236948013306
15.984463691711426 -9.262722969055176 0.7031631469726562
16.1236629486084 -9.476156234741211 0.6647747755050659
16.100479125976562 -9.59609603881836 0.6560062170028687
16.08234405517578 -9.719684600830078 0.6461356282234192
12.611279487609863 12.668366432189941 1.1562339067459106
12.64765739440918 12.550320625305176 1.1626567840576172
12.686600685119629 12.435771942138672 1.1683911085128784
12.721772193908691 12.318459510803223 1.174674391746521
12.75670051574707 12.201868057250977 1.1808197498321533
12.795000076293945 12.08939266204834 1.1861377954483032
12.832402229309082 11.976906776428223 1.191454291343689
12.863083839416504 11.859044075012207 1.1978732347488403
12.899395942687988 11.747257232666016 1.2030502557754517
12.953231811523438 11.652029037475586 1.2047724723815918
12.964183807373047 11.519084930419922 1.214368462562561
13.009729385375977 11.417801856994629 1.2173293828964233
13.047785758972168 11.310554504394531 1.2215330600738525
13.087274551391602 11.205202102661133 1.2253186702728271
13.12596321105957 11.099788665771484 1.2291024923324585
13.165375709533691 10.995590209960938 1.232606291770935
13.199419975280762 10.887544631958008 1.2369407415390015
13.235709190368652 10.781996726989746 1.2407182455062866
13.273517608642578 10.67827320098877 1.2440768480300903
13.308225631713867 10.572643280029297 1.2478508949279785
13.342140197753906 10.466987609863281 1.2516230344772339
13.37682819366455 10.362525939941406 1.2551153898239136
13.413097381591797 10.25983715057373 1.2581875324249268
13.452563285827637 10.160075187683105 1.260560393333435
13.487340927124023 10.05725383758545 1.2636282444000244
13.522164344787598 9.954975128173828 1.2665542364120483
13.558646202087402 9.854391098022461 1.2690585851669312
13.59681510925293 9.755465507507324 1.2711411714553833
13.632669448852539 9.655296325683594 1.273500680923462
13.67348575592041 9.559024810791016 1.2748773097991943
13.707932472229004 9.458678245544434 1.277230978012085
13.740026473999023 9.357151985168457 1.2798632383346558
13.780431747436523 9.261662483215332 1.2809492349624634
13.816058158874512 9.163291931152344 1.2827339172363281
13.853483200073242 9.06645679473877 1.284094214439392
13.880260467529297 8.963062286376953 1.2871389389038086
13.924661636352539 8.871380805969238 1.287085771560669
13.966784477233887 8.778437614440918 1.287309169769287
14.002402305603027 8.681656837463379 1.2885150909423828
14.03904914855957 8.585803031921387 1.2894351482391357
14.079285621643066 8.492380142211914 1.2896461486816406
14.118054389953613 8.398279190063477 1.2899935245513916
14.156197547912598 8.304019927978516 1.2903369665145874
14.197145462036133 8.211590766906738 1.290110468864441
14.240931510925293 8.120930671691895 1.2893117666244507
14.289318084716797 8.032951354980469 1.2876577377319336
14.390844345092773 7.974427700042725 1.2772011756896973
14.73456859588623 8.047327041625977 1.2271147966384888
15.240087509155273 8.202619552612305 1.1508046388626099
19.248842239379883 0.7751660346984863 0.691260814666748
15.749652862548828 0.5375967621803284 1.224858045578003
19.274917602539062 0.5395247340202332 0.6833735704421997
12.870719909667969 -0.745759904384613 1.637453317642212
12.8607177734375 -0.8243685960769653 1.636534571647644
19.65618896484375 -5.888948440551758 0.35216185450553894
19.272777557373047 -5.903252601623535 0.40757834911346436
19.049209594726562 -5.9629364013671875 0.436349481344223
18.866086959838867 -6.033036708831787 0.4583642780780792
18.79358673095703 -6.137289047241211 0.46172094345092773
18.76828956604004 -6.256807804107666 0.4570017457008362
16.497072219848633 -5.612380504608154 0.83356112241745
18.835729598999023 -6.537373065948486 0.4270726442337036
16.659854888916016 -5.89700174331665 0.7892706394195557
16.554283142089844 -5.974265098571777 0.798825740814209
18.78882598876953 -6.911434173583984 0.4061892032623291
18.808515548706055 -7.050101280212402 0.392848938703537
18.813373565673828 -7.183987617492676 0.38188910484313965
18.812694549560547 -7.316411972045898 0.371719092130661
18.8597354888916 -7.4683637619018555 0.3530769348144531
18.84061050415039 -7.594964504241943 0.3457644581794739
18.847122192382812 -7.732479095458984 0.3338102400302887
18.852651596069336 -7.870360851287842 0.32184723019599915
18.864459991455078 -8.011690139770508 0.3085932731628418
18.867084503173828 -8.14993953704834 0.2967717945575714
18.864198684692383 -8.286538124084473 0.2857443690299988
18.87295913696289 -8.429045677185059 0.27246150374412537
16.25914192199707 -7.3817138671875 0.7279161214828491
16.292938232421875 -7.518097877502441 0.7114258408546448
16.232730865478516 -7.61159610748291 0.7116571068763733
16.206741333007812 -7.721195697784424 0.705615758895874
16.162246704101562 -7.8221659660339355 0.7027979493141174
16.739748001098633 -8.228972434997559 0.5865945816040039
16.564062118530273 -8.269326210021973 0.6071074604988098
16.471261978149414 -8.349783897399902 0.6124750375747681
16.416709899902344 -8.44929027557373 0.6107473969459534
16.52161407470703 -8.632073402404785 0.5794231295585632
16.373802185058594 -8.683303833007812 0.5946857333183289
16.0982608795166 -8.664298057556152 0.6337936520576477
16.363115310668945 -8.936933517456055 0.571967601776123
16.19624900817871 -8.97541618347168 0.5906927585601807
16.35293960571289 -9.194025993347168 0.5484105944633484
16.462968826293945 -9.389472961425781 0.5145257115364075
16.035703659057617 -9.276806831359863 0.5825425982475281
16.075963973999023 -9.432401657104492 0.5616692304611206
16.031816482543945 -9.53939437866211 0.5567324757575989
16.052005767822266 -9.68545150756836 0.5392529964447021
12.60973834991455 12.671248435974121 1.041662573814392
12.646163940429688 12.553240776062012 1.0484458208084106
12.681619644165039 12.435261726379395 1.05522882938385
12.718949317932129 12.320073127746582 1.0614358186721802
12.769647598266602 12.218576431274414 1.0647635459899902
12.789376258850098 12.088371276855469 1.074135184288025
12.83186149597168 11.980669975280762 1.0787546634674072
12.866961479187012 11.866863250732422 1.0846694707870483
12.901150703430176 11.753074645996094 1.0905832052230835
12.939580917358398 11.643946647644043 1.0954859256744385
12.986035346984863 11.542677879333496 1.0986535549163818
13.033967018127441 11.443233489990234 1.1013836860656738
13.06173324584961 11.326777458190918 1.1078699827194214
13.075787544250488 11.199471473693848 1.1168174743652344
13.125791549682617 11.103731155395508 1.118672490119934
13.162964820861816 10.99764633178711 1.1228413581848145
13.190939903259277 10.884594917297363 1.1286036968231201
13.230297088623047 10.781615257263184 1.1320441961288452
13.263492584228516 10.674217224121094 1.1364986896514893
13.301294326782227 10.571127891540527 1.1399351358413696
13.340666770935059 10.469806671142578 1.1429328918457031
13.367568969726562 10.359306335449219 1.148110032081604
13.406975746154785 10.259092330932617 1.1508128643035889
13.447237968444824 10.159975051879883 1.1532210111618042
13.477272987365723 10.053650856018066 1.157375454902649
