# .PCD v0.7 - Point Cloud Data file format
VERSION 0.7
FIELDS x y z
SIZE 4 4 4
TYPE F F F
COUNT 1 1 1
WIDTH 847
HEIGHT 1
VIEWPOINT 0 0 0 1 0 0 0
POINTS 847
DATA ascii
26.825368881225586 -23.369733810424805 -0.38447993993759155
26.659372329711914 -23.514759063720703 -0.38489964604377747
20.819622039794922 -18.593042373657227 0.475369930267334
20.549238204956055 -18.579784393310547 0.4962593615055084
20.31572723388672 -18.596786499023438 0.5116862654685974
20.04707908630371 -18.57853889465332 0.5326844453811646
19.85696792602539 -18.630443572998047 0.5416638851165771
19.659053802490234 -18.67319107055664 0.5519206523895264
19.441314697265625 -18.69493865966797 0.5653794407844543
23.956520080566406 23.17173957824707 0.6303950548171997
23.949485778808594 22.882638931274414 0.6459553241729736
24.154211044311523 22.79683494567871 0.6349101066589355
15.488812446594238 14.440339088439941 1.7200005054473877
24.092105865478516 22.18647003173828 0.6706598997116089
12.954617500305176 11.784485816955566 2.0479495525360107
12.99979305267334 11.6808443069458 2.0495998859405518
13.027801513671875 11.56255054473877 2.0532355308532715
13.069077491760254 11.456825256347656 2.055152654647827
13.111808776855469 11.352982521057129 2.056795597076416
13.15678596496582 11.251635551452637 2.058072805404663
13.185797691345215 11.137313842773438 2.061161518096924
13.226905822753906 11.03390121459961 2.0627059936523438
13.262630462646484 10.926605224609375 2.064793348312378
13.297537803649902 10.819284439086914 2.0668792724609375
13.330854415893555 10.711325645446777 2.06905460357666
13.371150016784668 10.609551429748535 2.070316791534424
13.411483764648438 10.508301734924316 2.071484327316284
13.447928428649902 10.404516220092773 2.073014974594116
13.473319053649902 10.292821884155273 2.075733184814453
13.512158393859863 10.192000389099121 2.0768027305603027
13.55026912689209 10.091089248657227 2.077869415283203
13.590057373046875 9.991862297058105 2.078657627105713
13.62430477142334 9.889017105102539 2.0799944400787354
13.661849975585938 9.789027214050293 2.080869197845459
13.703561782836914 9.692398071289062 2.081188201904297
13.724188804626465 9.581375122070312 2.0838091373443604
13.764472961425781 9.484587669372559 2.084122896194458
13.802438735961914 9.386547088623047 2.084617853164673
13.83889389038086 9.287839889526367 2.0852019786834717
13.878808975219727 9.191787719726562 2.085320234298706
13.91473388671875 9.093416213989258 2.0858054161071777
13.947464942932129 8.993330001831055 2.08656644821167
13.98453426361084 8.896390914916992 2.0867674350738525
14.019250869750977 8.7982759475708 2.087151050567627
14.060065269470215 8.70426082611084 2.0867865085601807
14.10195255279541 8.611113548278809 2.086230754852295
14.139816284179688 8.515724182128906 2.0860443115234375
14.180464744567871 8.422225952148438 2.085479736328125
14.21963882446289 8.328046798706055 2.0850043296813965
14.257329940795898 8.23320484161377 2.084618091583252
14.299583435058594 8.141168594360352 2.083665132522583
14.348191261291504 8.052820205688477 2.0819554328918457
14.580940246582031 8.066344261169434 2.0603034496307373
14.890427589416504 8.11877155303955 2.030407667160034
27.510465621948242 14.78118896484375 0.6774787902832031
27.535133361816406 14.577705383300781 0.6809853911399841
27.580411911010742 14.385980606079102 0.6821331977844238
27.60312271118164 14.183330535888672 0.6855493187904358
27.63949203491211 13.9885835647583 0.6873592138290405
27.691438674926758 13.802360534667969 0.6873674988746643
27.78861427307129 13.638830184936523 0.6824359893798828
27.931432723999023 13.497147560119629 0.6725468039512634
28.1436710357666 13.38757610321045 0.6552087664604187
28.483625411987305 13.335838317871094 0.6242969632148743
32.92317581176758 15.16901969909668 0.1608496606349945
33.0994758605957 15.005019187927246 0.14778873324394226
33.104087829589844 14.763202667236328 0.1526675969362259
33.09421920776367 14.516294479370117 0.15889538824558258
33.1136474609375 14.283466339111328 0.16187617182731628
33.109474182128906 14.041618347167969 0.16716471314430237
33.14768600463867 13.81873893737793 0.16785234212875366
33.1613883972168 13.586484909057617 0.17094317078590393
33.21503829956055 13.371308326721191 0.1697062849998474
33.05256652832031 13.071062088012695 0.1908339560031891
33.1057014465332 12.85799503326416 0.18932487070560455
33.52389144897461 12.78449535369873 0.14972509443759918
33.61894607543945 12.585260391235352 0.1436094045639038
33.65769577026367 12.365089416503906 0.1431952565908432
33.648197174072266 12.12804126739502 0.14763043820858002
33.653953552246094 11.897541999816895 0.15032649040222168
33.66661071777344 11.670363426208496 0.15215426683425903
33.67210006713867 11.44155216217041 0.15456987917423248
33.68549346923828 11.216254234313965 0.15601640939712524
33.69739532470703 10.99122142791748 0.15746624767780304
33.7134895324707 10.768278121948242 0.15833377838134766
33.72337341308594 10.54406452178955 0.15969371795654297
33.73748779296875 10.321880340576172 0.16046969592571259
33.72631072998047 10.092784881591797 0.1637009233236313
33.750850677490234 9.875110626220703 0.1631101816892624
33.75293731689453 9.651494026184082 0.16468271613121033
33.77080535888672 9.4330415725708 0.16448861360549927
33.7757453918457 9.211586952209473 0.1654786467552185
33.782127380371094 8.991193771362305 0.1661771684885025
33.78997039794922 8.771815299987793 0.16658325493335724
33.805076599121094 8.554874420166016 0.16610075533390045
33.810096740722656 8.335931777954102 0.16651232540607452
33.82047653198242 8.118873596191406 0.16623219847679138
33.83431625366211 7.903130531311035 0.1654578447341919
33.84095764160156 7.686198711395264 0.1652819663286209
33.84621810913086 7.469480037689209 0.16510795056819916
33.85203552246094 7.253400802612305 0.16473743319511414
33.8652458190918 7.039350986480713 0.16347083449363708
33.875160217285156 6.825016498565674 0.16240531206130981
33.88371276855469 6.610822677612305 0.16134069859981537
33.895809173583984 6.397701263427734 0.1597764790058136
33.91145324707031 6.185570240020752 0.15771068632602692
33.90715789794922 5.970207214355469 0.15755362808704376
33.92601776123047 5.759289741516113 0.1548856794834137
33.92197036743164 5.544832706451416 0.15443144738674164
33.92836380004883 5.332492351531982 0.15277084708213806
33.939327239990234 5.121170997619629 0.15050522983074188
33.95390319824219 4.910624980926514 0.1477339118719101
33.95830154418945 4.698862552642822 0.1458720713853836
33.96138381958008 4.487228870391846 0.14401116967201233
33.976959228515625 4.277470588684082 0.14073094725608826
33.99618148803711 4.068278789520264 0.13694044947624207
32.441463470458984 3.6806042194366455 0.2950209975242615
32.40068435668945 3.4748682975769043 0.29723501205444336
32.36652374267578 3.270569086074829 0.2986437976360321
32.38654327392578 3.0720767974853516 0.2943434715270996
32.35579299926758 2.8690671920776367 0.29515257477760315
32.365413665771484 2.6699821949005127 0.2916695475578308
32.34703063964844 2.468841075897217 0.29095277190208435
32.37502670288086 2.271364212036133 0.28531453013420105
32.3958625793457 2.0732531547546387 0.2802855670452118
15.755377769470215 0.911514401435852 2.001624584197998
15.791259765625 0.8164507746696472 1.9963818788528442
15.79377555847168 0.7194870114326477 1.9945342540740967
15.792715072631836 0.6224043369293213 1.9929955005645752
15.800002098083496 0.5256580710411072 1.9905261993408203
15.821610450744629 0.42924875020980835 1.9865013360977173
15.827713012695312 0.3322800099849701 1.9840257167816162
15.83620548248291 0.23529557883739471 1.9812363386154175
32.558448791503906 0.28363221883773804 0.23169058561325073
32.64964294433594 0.08415786921977997 0.21797466278076172
32.58445358276367 -0.11587364971637726 0.22048869729042053
32.52003860473633 -0.31512436270713806 0.22280921041965485
32.422584533691406 -0.5130879282951355 0.2284872829914093
32.427337646484375 -0.7121427059173584 0.22331207990646362
32.42192077636719 -0.9110261797904968 0.219076007604599
32.4162712097168 -1.1099066734313965 0.21473360061645508
12.902780532836914 -0.5208144783973694 2.2711544036865234
32.515560150146484 -1.5128799676895142 0.19396090507507324
13.053964614868164 -0.6874248385429382 2.2509422302246094
12.85376262664795 -0.7559724450111389 2.2699906826019287
12.85764217376709 -0.8353789448738098 2.2673583030700684
12.866979598999023 -0.9152860045433044 2.264090061187744
12.8738374710083 -0.9951866865158081 2.2610297203063965
13.231978416442871 -1.1045829057693481 2.220376968383789
13.30301570892334 -1.1927391290664673 2.2102670669555664
12.843400001525879 -1.8706939220428467 2.2350993156433105
12.80201530456543 -1.9449542760849 2.236628532409668
29.27105140686035 -5.185422420501709 0.4100716710090637
19.653926849365234 -6.97520637512207 1.2993701696395874
19.494592666625977 -7.053692817687988 1.3105652332305908
19.386323928833008 -7.149403095245361 1.3156623840332031
19.325990676879883 -7.262232303619385 1.314976692199707
19.286346435546875 -7.382763385772705 1.3117294311523438
19.25243377685547 -7.505609512329102 1.3077021837234497
19.226049423217773 -7.631618976593018 1.3026691675186157
19.267940521240234 -7.785511016845703 1.2892261743545532
19.154266357421875 -7.876710414886475 1.2946228981018066
20.571191787719727 -13.133994102478027 0.7915720343589783
20.32392692565918 -13.1525239944458 0.8118334412574768
20.024066925048828 -13.133655548095703 0.8395681381225586
19.839366912841797 -13.187491416931152 0.851359486579895
19.5855712890625 -13.192949295043945 0.8729445338249207
19.461259841918945 -13.283706665039062 0.8763336539268494
19.378232955932617 -13.402253150939941 0.873809814453125
19.36362075805664 -13.568732261657715 0.8613956570625305
19.33230209350586 -13.72461223602295 0.8511878252029419
19.314306259155273 -13.891057014465332 0.8388753533363342
19.304624557495117 -14.06481647491455 0.8251528739929199
19.315105438232422 -14.254901885986328 0.8082632422447205
19.30170249938965 -14.428996086120605 0.7946343421936035
19.29875946044922 -14.61245346069336 0.7792387008666992
19.283252716064453 -14.787957191467285 0.7654715180397034
19.285921096801758 -14.979050636291504 0.7487609386444092
19.285400390625 -15.169503211975098 0.7322710156440735
19.295690536499023 -15.370412826538086 0.713886022567749
19.304231643676758 -15.572019577026367 0.6954836845397949
19.29102325439453 -15.75797176361084 0.6801272034645081
19.317569732666016 -15.978528022766113 0.6583939790725708
19.3238582611084 -16.1846981048584 0.6394702792167664
19.364683151245117 -16.422374725341797 0.6148613095283508
19.404064178466797 -16.661806106567383 0.5901080965995789
20.808284759521484 -18.544757843017578 0.3079617917537689
20.54773712158203 -18.540321350097656 0.3285887539386749
20.26971435546875 -18.516651153564453 0.35223743319511414
20.064929962158203 -18.55702018737793 0.36418360471725464
19.817657470703125 -18.555540084838867 0.38318368792533875
19.64034652709961 -18.617305755615234 0.3908100128173828
19.437238693237305 -18.652851104736328 0.4027553200721741
23.978721618652344 23.19440269470215 0.41032013297080994
24.105030059814453 23.032455444335938 0.4093903601169586
24.071733474731445 22.72020721435547 0.42954909801483154
15.484387397766113 14.436599731445312 1.5827105045318604
12.919114112854004 11.897781372070312 1.9306845664978027
12.943048477172852 11.774114608764648 1.9354677200317383
14.37999153137207 12.921217918395996 1.7555028200149536
14.431204795837402 12.808330535888672 1.7573071718215942
14.447896003723145 12.665775299072266 1.7634687423706055
14.549912452697754 12.598422050476074 1.758479356765747
13.128291130065918 11.227469444274902 1.9490265846252441
13.173133850097656 11.126827239990234 1.9504122734069824
13.211888313293457 11.02159309387207 1.9524751901626587
13.259833335876465 10.924530029296875 1.9532697200775146
13.297822952270508 10.819755554199219 1.955229640007019
13.34123420715332 10.719911575317383 1.9564069509506226
13.359755516052246 10.600765228271484 1.9606080055236816
13.390636444091797 10.492230415344238 1.9631494283676147
13.434858322143555 10.39467716217041 1.9639289379119873
13.47364330291748 10.293349266052246 1.9652923345565796
13.508514404296875 10.18954086303711 1.967044711112976
13.548208236694336 10.089850425720215 1.9681082963943481
13.584782600402832 9.988287925720215 1.96946382522583
13.618206024169922 9.88490104675293 1.9711114168167114
13.654109954833984 9.783799171447754 1.9723637104034424
13.694973945617676 9.686651229858398 1.9729238748550415
13.734345436096191 9.588798522949219 1.9735788106918335
13.768936157226562 9.48800277709961 1.9747239351272583
13.799515724182129 9.384905815124512 1.9762624502182007
13.84009075164795 9.2889986038208 1.9765130281448364
13.872544288635254 9.187999725341797 1.9776511192321777
13.910943984985352 9.091307640075684 1.9779937267303467
13.95369815826416 8.997724533081055 1.9777374267578125
13.979877471923828 8.893810272216797 1.9793646335601807
14.03564739227295 8.808954238891602 1.9774096012115479
14.065523147583008 8.708035469055176 1.9784342050552368
14.0887451171875 8.603448867797852 1.980155110359192
14.136785507202148 8.51430606842041 1.9788814783096313
14.17741870880127 8.420832633972168 1.9784010648727417
14.215720176696777 8.326172828674316 1.9781156778335571
14.250809669494629 8.229866981506348 1.978126883506775
14.285253524780273 8.133442878723145 1.9781348705291748
14.335536003112793 8.046157836914062 1.9762324094772339
14.49323558807373 8.018285751342773 1.961865782737732
15.852981567382812 8.518533706665039 1.8131171464920044
27.46868133544922 14.544235229492188 0.485494464635849
27.484647750854492 14.337747573852539 0.4902957081794739
27.499120712280273 14.131610870361328 0.4951026141643524
27.5280818939209 13.933921813964844 0.498094379901886
27.460386276245117 13.688916206359863 0.5119207501411438
27.665790557861328 13.58028793334961 0.4945572018623352
27.780418395996094 13.42592716217041 0.48739859461784363
28.11428451538086 13.375380516052246 0.4553326368331909
28.44045066833496 13.317439079284668 0.424106240272522
32.25484085083008 3.461455821990967 0.10051459819078445
15.771329879760742 0.9131104350090027 1.8968919515609741
15.78633975982666 0.8168723583221436 1.8937463760375977
19.290756225585938 0.7611920237541199 1.5034619569778442
19.255054473876953 0.6415314674377441 1.505344271659851
12.897115707397461 -0.5994371771812439 2.1854236125946045
13.026982307434082 -0.6855772137641907 2.1686630249023438
12.880486488342285 -0.7571325302124023 2.182943344116211
12.88731575012207 -0.8368939757347107 2.1799139976501465
12.858957290649414 -0.9143032431602478 2.1808032989501953
12.734505653381348 -1.0626394748687744 2.19012451171875
12.823564529418945 -1.149328351020813 2.177548885345459
12.842793464660645 -1.2305188179016113 2.172827959060669
12.795736312866211 -1.3846534490585327 2.1729559898376465
12.780893325805664 -1.462433099746704 2.1719536781311035
12.761630058288574 -1.539608359336853 2.1714060306549072
29.24055290222168 -5.177998065948486 0.21942178905010223
19.82398796081543 -6.4909987449646 1.1731271743774414
19.45099449157715 -6.501343727111816 1.2119001150131226
19.226211547851562 -6.557692050933838 1.2323286533355713
19.1646785736084 -6.668313026428223 1.2323566675186157
19.11748695373535 -6.783740997314453 1.2305114269256592
19.10695457458496 -6.912354469299316 1.2239603996276855
19.09090232849121 -7.0393781661987305 1.2179946899414062
19.100034713745117 -7.176245212554932 1.2087211608886719
19.072961807250977 -7.300002574920654 1.2039294242858887
18.996051788330078 -7.404587268829346 1.2054076194763184
20.39185905456543 -8.238462448120117 1.008653163909912
19.088895797729492 -7.8487467765808105 1.167676568031311
19.128007888793945 -8.002466201782227 1.1537224054336548
19.107473373413086 -8.13207721710205 1.1473605632781982
28.390409469604492 -16.2191162109375 -0.3573596775531769
28.410959243774414 -16.463109970092773 -0.378290593624115
28.40390396118164 -16.692874908447266 -0.39559999108314514
28.357574462890625 -16.900819778442383 -0.40757545828819275
28.189977645874023 -17.03643798828125 -0.4024023711681366
28.072568893432617 -17.201753616333008 -0.4045048952102661
27.85470199584961 -17.30447006225586 -0.39221104979515076
27.73238754272461 -17.46546745300293 -0.3937810957431793
20.51910972595215 -13.099455833435059 0.6394971609115601
20.212995529174805 -13.079480171203613 0.669718861579895
19.94028091430664 -13.077476501464844 0.695240318775177
19.7377986907959 -13.118773460388184 0.7105379104614258
19.532278060913086 -13.155865669250488 0.7263689637184143
19.38361358642578 -13.22953987121582 0.733778715133667
19.30171775817871 -13.348176002502441 0.7311490774154663
19.275991439819336 -13.506168365478516 0.7199270725250244
19.24823760986328 -13.663775444030762 0.7088221311569214
19.232162475585938 -13.830822944641113 0.6957427263259888
19.24203109741211 -14.018051147460938 0.6784653663635254
19.22955322265625 -14.19060230255127 0.6643786430358887
19.242700576782227 -14.383728981018066 0.6460852026939392
19.243911743164062 -14.5697603225708 0.6293813586235046
19.227807998657227 -14.744274139404297 0.6151361465454102
19.240842819213867 -14.94287395477295 0.5960551500320435
19.234220504760742 -15.128079414367676 0.5798061490058899
19.22991943359375 -15.316856384277344 0.5629246234893799
19.22788429260254 -15.50926399230957 0.5454093813896179
19.261859893798828 -15.732977867126465 0.5217958092689514
19.234163284301758 -15.908366203308105 0.5078526139259338
19.238502502441406 -16.112037658691406 0.4884287118911743
19.241058349609375 -16.31635856628418 0.46898895502090454
19.279462814331055 -16.553632736206055 0.44330304861068726
20.835491180419922 -18.567644119262695 0.12089460343122482
20.5446834564209 -18.536235809326172 0.14791230857372284
20.29901123046875 -18.5421142578125 0.1674857884645462
20.0504093170166 -18.54231834411621 0.18773573637008667
19.86993408203125 -18.603235244750977 0.19638215005397797
19.627544403076172 -18.60394859313965 0.21584577858448029
19.43601417541504 -18.65047836303711 0.22657331824302673
23.967453002929688 23.17626190185547 0.2125115692615509
24.025293350219727 22.94911766052246 0.22141467034816742
24.07619285583496 22.717361450195312 0.23103509843349457
12.856610298156738 11.9823579788208 1.8258646726608276
12.938425064086914 11.91136360168457 1.8230491876602173
12.904315948486328 11.73473834991455 1.8363207578659058
12.932170867919922 11.616150856018066 1.8407821655273438
14.399500846862793 12.7758150100708 1.646365761756897
14.482585906982422 12.691845893859863 1.6438645124435425
13.131028175354004 11.365830421447754 1.8376030921936035
13.123918533325195 11.219793319702148 1.8463797569274902
13.162632942199707 11.114059448242188 1.8487738370895386
13.209712982177734 11.015917778015137 1.849927306175232
13.249175071716309 10.911925315856934 1.852006196975708
13.29017448425293 10.809744834899902 1.8537724018096924
13.318790435791016 10.698126792907715 1.8570878505706787
13.353550910949707 10.59212875366211 1.8594708442687988
13.395344734191895 10.492238998413086 1.8608158826828003
13.423829078674316 10.382497787475586 1.863817572593689
13.458587646484375 10.278234481811523 1.86588454246521
13.495750427246094 10.176331520080566 1.8675341606140137
13.53775405883789 10.078516006469727 1.8684523105621338
13.57505989074707 9.977622032165527 1.8698879480361938
13.608420372009277 9.874311447143555 1.8717377185821533
13.645874977111816 9.774442672729492 1.8729597330093384
13.686678886413574 9.67735481262207 1.8736565113067627
13.717835426330566 9.573873519897461 1.8754997253417969
13.751514434814453 9.472628593444824 1.8769229650497437
13.790226936340332 9.375245094299316 1.8776109218597412
13.830739974975586 9.279403686523438 1.8779805898666382
13.864792823791504 9.179574966430664 1.879081130027771
13.902304649353027 9.082396507263184 1.879654049873352
13.931625366210938 8.980253219604492 1.8811702728271484
13.972803115844727 8.88609504699707 1.8811057806015015
14.02261734008789 8.797582626342773 1.8798773288726807
14.060877799987793 8.701990127563477 1.8800140619277954
14.083218574523926 8.596930503845215 1.8820477724075317
14.124393463134766 8.503721237182617 1.8816502094268799
14.167520523071289 8.411852836608887 1.8809304237365723
14.20318603515625 8.315753936767578 1.881052851676941
14.242513656616211 8.222018241882324 1.8806416988372803
14.279498100280762 8.127128601074219 1.8804384469985962
14.32365894317627 8.036473274230957 1.8792747259140015
14.466434478759766 8.000445365905762 1.8659796714782715
14.9436674118042 8.145243644714355 1.8118733167648315
27.452007293701172 14.746698379516602 0.29389825463294983
27.460676193237305 14.535248756408691 0.30024537444114685
27.491592407226562 14.33665943145752 0.30371609330177307
27.511381149291992 14.133237838745117 0.3083643317222595
27.55189323425293 13.941335678100586 0.31034132838249207
27.51633644104004 13.712214469909668 0.32131728529930115
27.605756759643555 13.546250343322754 0.3170808255672455
27.739831924438477 13.401762962341309 0.3073546588420868
27.951278686523438 13.293289184570312 0.2882530689239502
28.25246810913086 13.224873542785645 0.25834599137306213
28.6965274810791 13.218981742858887 0.2113528698682785
44.80023956298828 8.169821739196777 -1.5292928218841553
19.279870986938477 0.7581918239593506 1.3887243270874023
19.259052276611328 0.6390987038612366 1.3891081809997559
12.873332023620605 -0.600314199924469 2.1106345653533936
12.909873008728027 -0.6814038157463074 2.104130744934082
12.871549606323242 -0.758590817451477 2.106442451477051
12.865469932556152 -0.8374601602554321 2.104875087738037
12.775378227233887 -1.305193305015564 2.100698232650757
12.741270065307617 -1.3807477951049805 2.1021084785461426
12.706718444824219 -1.4559344053268433 2.1035256385803223
12.683552742004395 -1.5321779251098633 2.103522539138794
12.622501373291016 -1.6034424304962158 2.1080496311187744
12.625027656555176 -1.682536244392395 2.1048405170440674
12.64770793914795 -1.764601469039917 2.0991220474243164
12.626626014709473 -1.8407118320465088 2.0986533164978027
12.526561737060547 -1.9046992063522339 2.1077582836151123
20.115148544311523 -6.452836513519287 1.0173712968826294
20.12200355529785 -6.591533184051514 1.0085439682006836
20.120380401611328 -6.728041648864746 1.0006945133209229
19.111940383911133 -6.521604537963867 1.1249178647994995
19.055320739746094 -6.633157730102539 1.1244733333587646
19.018625259399414 -6.7515668869018555 1.1213185787200928
20.203563690185547 -7.312099933624268 0.9561235904693604
19.085466384887695 -7.040318489074707 1.0960750579833984
18.972909927368164 -7.264675617218018 1.0942182540893555
18.934131622314453 -7.383430480957031 1.090818166732788
20.314777374267578 -8.50214958190918 0.8670325875282288
19.055543899536133 -8.251631736755371 1.0197691917419434
19.048723220825195 -8.387940406799316 1.0110924243927002
19.064489364624023 -8.535017013549805 0.9991554617881775
28.310022354125977 -13.731765747070312 -0.354698121547699
28.30215835571289 -13.943281173706055 -0.3694497346878052
28.314054489135742 -14.165870666503906 -0.3872359097003937
28.258825302124023 -14.35588550567627 -0.3957046568393707
28.179407119750977 -14.533937454223633 -0.40088990330696106
28.086559295654297 -14.705116271972656 -0.40429794788360596
27.6098690032959 -14.672298431396484 -0.3524187207221985
27.51708221435547 -14.84041976928711 -0.3558792769908905
27.4267520904541 -15.009862899780273 -0.3598361909389496
27.27293586730957 -15.14409065246582 -0.35464975237846375
20.813045501708984 -13.111908912658691 0.46272024512290955
20.50277328491211 -13.093066215515137 0.49497517943382263
20.212682723999023 -13.08331298828125 0.5243557691574097
19.94008445739746 -13.081377983093262 0.5512380003929138
19.709579467773438 -13.10405445098877 0.5717647075653076
19.509164810180664 -13.144347190856934 0.5877180695533752
19.337678909301758 -13.202248573303223 0.5992138385772705
19.26816749572754 -13.32906436920166 0.5946604013442993
19.227062225341797 -13.476014137268066 0.5854772329330444
19.21883773803711 -13.647075653076172 0.5708795785903931
19.20440101623535 -13.815068244934082 0.5570453405380249
19.211862564086914 -14.000333786010742 0.5394580364227295
19.21058464050293 -14.180909156799316 0.5230185389518738
19.222896575927734 -14.37327766418457 0.504109263420105
19.211429595947266 -14.549568176269531 0.4888070523738861
19.213462829589844 -14.737727165222168 0.47103363275527954
19.225650787353516 -14.935578346252441 0.4513009786605835
19.23300552368164 -15.131684303283691 0.43207046389579773
19.23712158203125 -15.327204704284668 0.41308334469795227
19.245725631713867 -15.528325080871582 0.3930411636829376
19.22493553161621 -15.70754337310791 0.3776648938655853
19.220237731933594 -15.901626586914062 0.3592853844165802
19.417566299438477 -16.26687240600586 0.3059769868850708
19.307151794433594 -16.3773193359375 0.30501478910446167
19.27358627319336 -16.553556442260742 0.2906268537044525
19.309654235839844 -16.79180145263672 0.26382654905319214
12.822281837463379 12.09362506866455 1.7195862531661987
12.887985229492188 12.00730037689209 1.7191946506500244
13.763542175292969 12.666609764099121 1.5989271402359009
12.917624473571777 11.742644309997559 1.73311185836792
14.020934104919434 12.589824676513672 1.5803468227386475
12.982892990112305 11.514700889587402 1.7411894798278809
14.340546607971191 12.562987327575684 1.5526630878448486
13.106918334960938 11.340921401977539 1.7402490377426147
13.119328498840332 11.211875915527344 1.7467803955078125
13.158757209777832 11.106832504272461 1.749289631843567
13.205788612365723 11.008728981018066 1.750598430633545
13.249813079833984 10.9085693359375 1.7522296905517578
13.276910781860352 10.795112609863281 1.7561490535736084
13.306217193603516 10.684224128723145 1.759631633758545
13.339339256286621 10.57708740234375 1.7624585628509521
13.38886547088623 10.483428001403809 1.762877345085144
13.411798477172852 10.369492530822754 1.766904354095459
13.449638366699219 10.267735481262207 1.7687407732009888
13.498641967773438 10.174877166748047 1.7689287662506104
13.52389144897461 10.064593315124512 1.772295594215393
13.560312271118164 9.963211059570312 1.774014949798584
13.602435111999512 9.866427421569824 1.7748514413833618
13.638225555419922 9.765451431274414 1.7764546871185303
13.670044898986816 9.662111282348633 1.778496265411377
13.722302436828613 9.573534965515137 1.777668833732605
13.743701934814453 9.463822364807129 1.7809193134307861
13.784002304077148 9.367615699768066 1.781518816947937
13.817036628723145 9.266839981079102 1.7829993963241577
13.854327201843262 9.169301986694336 1.783813714981079
13.882620811462402 9.066219329833984 1.785732626914978
13.919363021850586 8.969057083129883 1.7864305973052979
13.96717643737793 8.87924861907959 1.7855709791183472
14.00346851348877 8.78232479095459 1.7861502170562744
14.048392295837402 8.6910400390625 1.785502314567566
14.086788177490234 8.595911026000977 1.785628318786621
14.11007022857666 8.491922378540039 1.7876452207565308
14.154827117919922 8.401161193847656 1.7867614030838013
14.194713592529297 8.307659149169922 1.7864301204681396
14.230542182922363 8.211995124816895 1.78654146194458
14.266596794128418 8.116694450378418 1.786537528038025
14.312417030334473 8.027093887329102 1.7851859331130981
14.451591491699219 7.989169120788574 1.7717218399047852
14.971251487731934 8.157164573669434 1.709307074546814
15.880409240722656 8.526887893676758 1.5971232652664185
27.452241897583008 14.525932312011719 0.12043562531471252
27.50514030456543 14.338906288146973 0.12146595120429993
27.51700210571289 14.13134765625 0.12756167352199554
27.546863555908203 13.934049606323242 0.13118328154087067
27.5557804107666 13.727167129516602 0.13728941977024078
27.5872802734375 13.532513618469238 0.14035184681415558
27.71942710876465 13.387255668640137 0.13052232563495636
27.989009857177734 13.306587219238281 0.10323352366685867
19.264707565307617 0.7549577951431274 1.2778894901275635
19.24784278869629 0.6360931396484375 1.2779324054718018
19.33144760131836 0.520196259021759 1.2655773162841797
12.873957633972168 -0.6815395355224609 2.0330617427825928
12.863387107849121 -0.7601383924484253 2.0321173667907715
12.876102447509766 -0.8401814699172974 2.028209686279297
12.690581321716309 -1.4561165571212769 2.0307958126068115
12.610283851623535 -1.525359034538269 2.038107395172119
20.16653060913086 -6.3360700607299805 0.8947053551673889
20.138259887695312 -6.4632744789123535 0.8904820680618286
20.132747650146484 -6.598092079162598 0.8830399513244629
20.114110946655273 -6.728998184204102 0.87726891040802
18.97124671936035 -6.476546764373779 1.0259575843811035
18.981395721435547 -6.610388278961182 1.0164583921432495
18.951364517211914 -6.7306647300720215 1.0123802423477173
18.92896270751953 -6.853860855102539 1.007138729095459
19.05739402770996 -7.032979965209961 0.980781614780426
18.93658447265625 -7.253803730010986 0.9802491068840027
18.920024871826172 -7.380980491638184 0.9736961126327515
18.829814910888672 -7.479320049285889 0.9774128198623657
18.91994857788086 -8.334429740905762 0.9076194763183594
18.902498245239258 -8.465709686279297 0.9001138806343079
19.010469436645508 -8.654585838317871 0.8742631673812866
19.161813735961914 -8.865914344787598 0.8418194651603699
19.289730072021484 -9.069302558898926 0.8124769926071167
20.658672332763672 -13.018779754638672 0.3428783714771271
20.4034366607666 -13.033750534057617 0.36802902817726135
20.085586547851562 -13.005157470703125 0.4034065008163452
19.865812301635742 -13.036767959594727 0.4231876730918884
19.636516571044922 -13.059596061706543 0.444624662399292
19.448787689208984 -13.107793807983398 0.45940402150154114
19.303770065307617 -13.183243751525879 0.467239648103714
19.231090545654297 -13.30759048461914 0.46314236521720886
19.18195343017578 -13.448606491088867 0.45501813292503357
19.437997817993164 -13.806976318359375 0.395880788564682
19.312297821044922 -13.89699649810791 0.3999747037887573
19.197439193725586 -13.994168281555176 0.4022027552127838
19.222414016723633 -14.194038391113281 0.38070183992385864
19.221054077148438 -14.376344680786133 0.3633664548397064
19.220539093017578 -14.560961723327637 0.3456129729747772
19.215330123901367 -14.743700981140137 0.32838714122772217
19.207815170288086 -14.92631721496582 0.3112846612930298
19.2454891204834 -15.146157264709473 0.28604209423065186
19.224618911743164 -15.32194709777832 0.2706715166568756
19.240856170654297 -15.529157638549805 0.24850912392139435
19.227649688720703 -15.71457576751709 0.23121552169322968
19.20448875427246 -15.893467903137207 0.21540609002113342
19.26641845703125 -16.14520263671875 0.18408522009849548
19.231536865234375 -16.318180084228516 0.16974404454231262
19.259130477905273 -16.546205520629883 0.14382031559944153
19.20689582824707 -16.70756721496582 0.1320493519306183
12.769911766052246 12.214348793029785 1.6104189157485962
12.860952377319336 12.15149211883545 1.6062263250350952
12.887782096862793 12.028324127197266 1.6120495796203613
12.849308967590332 11.846029281616211 1.6279126405715942
12.939109802246094 11.783051490783691 1.623586893081665
12.97821044921875 11.531079292297363 1.6363881826400757
13.075406074523926 11.333931922912598 1.6396955251693726
13.099907875061035 11.21540641784668 1.6448384523391724
13.150002479553223 11.119457244873047 1.645967960357666
13.194075584411621 11.0188570022583 1.6478960514068604
13.231281280517578 10.913077354431152 1.6507399082183838
13.265376091003418 10.805373191833496 1.6539266109466553
13.305614471435547 10.703264236450195 1.656076192855835
13.333436012268066 10.591798782348633 1.659951090812683
13.371333122253418 10.488978385925293 1.6622118949890137
13.406118392944336 10.384265899658203 1.6648163795471191
13.443279266357422 10.281933784484863 1.6669573783874512
13.48206901550293 10.181331634521484 1.668749213218689
13.510575294494629 10.073515892028809 1.671926498413086
13.557467460632324 9.979864120483398 1.6723244190216064
13.58041763305664 9.86907958984375 1.6760778427124023
13.622697830200195 9.772865295410156 1.676932692527771
13.661877632141113 9.674778938293457 1.6781318187713623
13.70036792755127 9.576580047607422 1.6793277263641357
13.734082221984863 9.47545051574707 1.6811014413833618
13.773638725280762 9.378739356994629 1.6819424629211426
13.805108070373535 9.276912689208984 1.6838279962539673
13.854059219360352 9.187127113342285 1.6831468343734741
13.882481575012207 9.084037780761719 1.68526029586792
13.90932846069336 8.980406761169434 1.6874895095825195
13.956369400024414 8.890125274658203 1.6867951154708862
13.987689971923828 8.790091514587402 1.6882015466690063
14.03097152709961 8.697856903076172 1.687848687171936
14.07280158996582 8.604901313781738 1.6876084804534912
14.11997127532959 8.515348434448242 1.6865417957305908
14.153770446777344 8.417925834655762 1.6872304677963257
14.196329116821289 8.325933456420898 1.686623454093933
14.221957206726074 8.224289894104004 1.6882466077804565
14.255501747131348 8.127562522888184 1.6886911392211914
14.300514221191406 8.037542343139648 1.6874825954437256
14.374494552612305 7.963634967803955 1.6822566986083984
14.926586151123047 8.150370597839355 1.6121879816055298
15.888089179992676 8.549407005310059 1.487024188041687
19.25372314453125 0.7720533609390259 1.1634596586227417
19.23497772216797 0.6531736850738525 1.1638822555541992
19.306718826293945 0.5370867848396301 1.1525825262069702
12.870882987976074 -0.6688247323036194 1.9561610221862793
12.858404159545898 -0.7472942471504211 1.9555110931396484
12.87513542175293 -0.8275460004806519 1.95098078250885
19.976764678955078 -5.988497734069824 0.8113691210746765
19.674007415771484 -6.029600620269775 0.8463158011436462
19.425416946411133 -6.084103584289551 0.8736758828163147
19.268457412719727 -6.165081024169922 0.8880460262298584
19.168699264526367 -6.263139247894287 0.8942379355430603
18.954730987548828 -6.322270393371582 0.9167588353157043
18.938692092895508 -6.4463887214660645 0.910865306854248
18.907800674438477 -6.565674781799316 0.9069948196411133
18.90137481689453 -6.6937575340271 0.899476945400238
18.9024715423584 -6.825038433074951 0.890736997127533
18.88593101501465 -6.95042610168457 0.8844274878501892
18.91494369506836 -7.093265056610107 0.8713392615318298
18.898483276367188 -7.219749927520752 0.864747941493988
18.924577713012695 -7.363186836242676 0.8517726063728333
18.935800552368164 -7.501742839813232 0.8408216834068298
18.91387176513672 -7.627744674682617 0.834621250629425
18.89019203186035 -7.7533860206604 0.8285555839538574
18.949748992919922 -8.051145553588867 0.8000549674034119
18.952381134033203 -8.190011024475098 0.7896035313606262
18.89960289001465 -8.30530071258545 0.7873414754867554
18.839792251586914 -8.4174222946167 0.7860435843467712
18.966014862060547 -8.613924026489258 0.7564200162887573
18.9718017578125 -8.757486343383789 0.744837760925293
18.968467712402344 -8.897658348083496 0.7344805598258972
18.961441040039062 -9.036843299865723 0.7245268821716309
19.01225471496582 -9.204765319824219 0.7055012583732605
19.213706970214844 -9.448397636413574 0.6629449129104614
20.707609176635742 -13.024513244628906 0.1894402801990509
20.459888458251953 -13.044798851013184 0.2145538181066513
20.117076873779297 -13.000733375549316 0.25578635931015015
19.881616592407227 -13.022409439086914 0.2792050838470459
19.627687454223633 -13.029098510742188 0.3058931827545166
19.446733474731445 -13.081804275512695 0.3203158378601074
19.296966552734375 -13.15397834777832 0.32945016026496887
19.215484619140625 -13.27208137512207 0.32683250308036804
19.20223045349121 -13.437934875488281 0.3122940957546234
19.20219612121582 -13.614435195922852 0.29521864652633667
19.213577270507812 -13.800681114196777 0.27588140964508057
19.238595962524414 -13.998648643493652 0.25385481119155884
19.244369506835938 -14.184517860412598 0.23490621149539948
19.227157592773438 -14.354991912841797 0.21974705159664154
19.225154876708984 -14.538330078125 0.20161806046962738
19.240480422973633 -14.7366304397583 0.1800892949104309
19.21184730529785 -14.902898788452148 0.16616879403591156
19.250398635864258 -15.123190879821777 0.13980504870414734
19.24202537536621 -15.308767318725586 0.12161993235349655
19.24982261657715 -15.509093284606934 0.10016780346632004
16.982152938842773 -16.47957992553711 0.21393108367919922
13.273161888122559 13.001749038696289 1.3879426717758179
12.739543914794922 12.327089309692383 1.4895052909851074
12.81106185913086 12.245295524597168 1.488538146018982
12.770895957946777 12.058127403259277 1.506089448928833
13.06722640991211 12.187445640563965 1.4675524234771729
13.023921966552734 11.998778343200684 1.4853389263153076
12.92520809173584 11.7623291015625 1.5119470357894897
13.843705177307129 12.291657447814941 1.3825483322143555
13.077463150024414 11.468865394592285 1.5170369148254395
13.116539001464844 11.361796379089355 1.5203769207000732
13.098980903625488 11.206924438476562 1.5326714515686035
13.147500991821289 11.10971736907959 1.5341973304748535
13.194561004638672 11.011699676513672 1.5358397960662842
13.230192184448242 10.904682159423828 1.5391762256622314
13.267316818237305 10.799521446228027 1.542147159576416
13.292046546936035 10.684988021850586 1.5469385385513306
13.332199096679688 10.583516120910645 1.5491772890090942
13.366141319274902 10.477664947509766 1.552264928817749
13.40556812286377 10.376657485961914 1.5543767213821411
13.438739776611328 10.27133846282959 1.557339072227478
13.479046821594238 10.171980857849121 1.5590797662734985
13.520235061645508 10.073700904846191 1.5605731010437012
13.550332069396973 9.967653274536133 1.56365168094635
13.596504211425781 9.873859405517578 1.564160943031311
13.619449615478516 9.763683319091797 1.5680923461914062
13.659381866455078 9.66620922088623 1.5693299770355225
13.697816848754883 9.568042755126953 1.5706863403320312
13.738016128540039 9.471456527709961 1.571671724319458
13.771800994873047 9.370828628540039 1.573512315750122
13.809814453125 9.273460388183594 1.5746140480041504
13.849634170532227 9.177623748779297 1.5753430128097534
13.886306762695312 9.080015182495117 1.5764378309249878
13.907293319702148 8.972617149353027 1.579746961593628
13.955114364624023 8.882887840270996 1.5789873600006104
13.994793891906738 8.788158416748047 1.5793325901031494
14.026246070861816 8.68857192993164 1.5807855129241943
14.045148849487305 8.581685066223145 1.5839670896530151
14.101515769958496 8.497941970825195 1.581581473350525
14.147147178649902 8.407745361328125 1.5806734561920166
14.193058967590332 8.3178071975708 1.579635500907898
14.224653244018555 8.219677925109863 1.5805764198303223
14.254717826843262 8.12098217010498 1.5816394090652466
14.297948837280273 8.029998779296875 1.5807112455368042
14.372718811035156 7.95657205581665 1.5751752853393555
15.08121109008789 8.228508949279785 1.4789880514144897
15.247354507446289 8.198352813720703 1.4605096578598022
19.24654769897461 0.7660677433013916 1.0378328561782837
19.232723236083984 0.6474064588546753 1.037735104560852
19.291473388671875 0.5309609174728394 1.0277338027954102
12.901174545288086 -0.6744838953018188 1.867276668548584
12.881731986999512 -0.7527324557304382 1.8676236867904663
12.867749214172363 -0.8311521410942078 1.8671594858169556
27.901451110839844 -5.818982124328613 -0.3592938482761383
27.84438133239746 -5.985630512237549 -0.3600609600543976
19.88602638244629 -5.9677042961120605 0.6872466802597046
19.481414794921875 -5.976894855499268 0.7391916513442993
19.21539306640625 -6.024594306945801 0.7706803679466248
19.05890655517578 -6.104287147521973 0.7858855724334717
18.974628448486328 -6.205986499786377 0.790264368057251
18.88324737548828 -6.304689407348633 0.7956477403640747
18.842914581298828 -6.420067310333252 0.7932775020599365
18.85330581665039 -6.553064346313477 0.7831329107284546
18.846906661987305 -6.680809497833252 0.775385320186615
18.847095489501953 -6.811415672302246 0.7665000557899475
18.839885711669922 -6.939883232116699 0.7586004137992859
18.822538375854492 -7.0650410652160645 0.7521155476570129
18.847814559936523 -7.206863880157471 0.7389517426490784
18.828702926635742 -7.332383632659912 0.7324568033218384
18.84740447998047 -7.473263740539551 0.7199832201004028
18.849477767944336 -7.6083526611328125 0.7099187970161438
18.878063201904297 -7.755032062530518 0.6955704092979431
18.862632751464844 -7.884410858154297 0.6879120469093323
18.868181228637695 -8.023187637329102 0.6768236756324768
18.88545036315918 -8.167830467224121 0.6637253761291504
18.875377655029297 -8.301434516906738 0.6547628045082092
18.903223037719727 -8.452593803405762 0.6396389603614807
18.92000389099121 -8.599905014038086 0.6260759234428406
18.924901962280273 -8.742759704589844 0.6142213344573975
18.921588897705078 -8.882635116577148 0.6035053133964539
18.93155860900879 -9.029616355895996 0.5904832482337952
18.919057846069336 -9.166699409484863 0.5809006690979004
18.952640533447266 -9.327129364013672 0.5636867880821228
18.99027442932129 -9.49096965789795 0.5455915927886963
16.53899574279785 -8.393270492553711 0.9337374567985535
16.46133804321289 -8.481404304504395 0.9356986284255981
16.736591339111328 -8.753718376159668 0.8794987201690674
16.59935188293457 -8.943330764770508 0.879631519317627
16.62803840637207 -9.091009140014648 0.8633610606193542
16.35701560974121 -9.0737886428833 0.8970381617546082
16.319664001464844 -9.184613227844238 0.8916462659835815
16.25664710998535 -9.281097412109375 0.8904628753662109
16.232444763183594 -9.399962425231934 0.8826091885566711
16.305505752563477 -9.57650089263916 0.8580461740493774
16.17809295654297 -9.635821342468262 0.8674777150154114
19.86077880859375 -13.017439842224121 0.12545336782932281
19.616117477416992 -13.030080795288086 0.1518784910440445
19.44837760925293 -13.09158706665039 0.16474027931690216
19.287168502807617 -13.15599250793457 0.17646335065364838
19.199146270751953 -13.26953411102295 0.1750197857618332
19.198772430419922 -13.44433879852295 0.1575920581817627
19.22601318359375 -13.640243530273438 0.13486431539058685
19.192127227783203 -13.794269561767578 0.12299318611621857
12.864758491516113 12.918562889099121 1.3235924243927002
12.694860458374023 12.592784881591797 1.366436243057251
12.697186470031738 12.441781997680664 1.3780990839004517
12.74803638458252 12.33952522277832 1.3809481859207153
12.654001235961914 12.099306106567383 1.4091405868530273
12.750777244567871 12.043268203735352 1.4035435914993286
12.914066314697266 12.048759460449219 1.3863121271133423
13.045072555541992 12.022442817687988 1.3747354745864868
12.948850631713867 11.787944793701172 1.4023383855819702
13.27730655670166 11.93913745880127 1.3566974401474
13.07931900024414 11.617030143737793 1.4012823104858398
13.099349021911621 11.492108345031738 1.4082826375961304
13.059123992919922 11.316058158874512 1.4253052473068237
13.090335845947266 11.20350170135498 1.430033802986145
13.140356063842773 11.107637405395508 1.431459903717041
13.18969440460205 11.011578559875488 1.4328806400299072
13.229928970336914 10.908391952514648 1.435696005821228
13.26093864440918 10.798233985900879 1.4399086236953735
13.282594680786133 10.681268692016602 1.4455225467681885
13.326619148254395 10.582948684692383 1.4473134279251099
13.363692283630371 10.479592323303223 1.4501205682754517
13.400787353515625 10.376786231994629 1.4527982473373413
13.43554973602295 10.272714614868164 1.455729365348816
13.4695405960083 10.168603897094727 1.4586585760116577
13.510714530944824 10.070390701293945 1.4603062868118286
13.550393104553223 9.971464157104492 1.462078332901001
13.582144737243652 9.867182731628418 1.4650007486343384
13.611517906188965 9.761731147766113 1.4681788682937622
13.655489921569824 9.667176246643066 1.4689162969589233
13.693123817443848 9.568472862243652 1.4705487489700317
13.731695175170898 9.470796585083008 1.471921443939209
13.76302719116211 9.36854076385498 1.4743200540542603
13.804322242736816 9.273446083068848 1.475042700767517
13.834226608276367 9.171069145202637 1.477436900138855
13.879161834716797 9.078990936279297 1.4773786067962646
13.906826972961426 8.975948333740234 1.479897379875183
13.941278457641602 8.877701759338379 1.4812520742416382
13.984286308288574 8.785172462463379 1.4811820983886719
14.014039993286133 8.684611320495605 1.4830483198165894
14.059162139892578 8.593841552734375 1.4824514389038086
14.101152420043945 8.501307487487793 1.4822382926940918
14.139978408813477 8.407060623168945 1.482409119606018
14.178179740905762 8.312655448913574 1.4825762510299683
14.211463928222656 8.215614318847656 1.4833887815475464
14.247537612915039 8.120441436767578 1.483677864074707
14.29162311553955 8.029991149902344 1.4826620817184448
14.383703231811523 7.966206073760986 1.4743448495864868
14.911517143249512 8.139615058898926 1.4006870985031128
15.283929824829102 8.221813201904297 1.3505206108093262
19.23462677001953 0.7697571516036987 0.9231799840927124
19.232698440551758 0.6515689492225647 0.9215141534805298
19.256771087646484 0.5341742634773254 0.9160751700401306
12.87183952331543 -0.6704249978065491 1.793468952178955
12.857366561889648 -0.7487848997116089 1.7932000160217285
12.857236862182617 -0.8279466032981873 1.7908084392547607
19.77358627319336 -5.929296493530273 0.5791958570480347
19.475412368774414 -5.970454692840576 0.6170196533203125
19.183162689208984 -6.009957313537598 0.654036283493042
19.067354202270508 -6.102477550506592 0.663672149181366
18.863698959350586 -6.165234565734863 0.686997652053833
18.826082229614258 -6.281126499176025 0.6843422651290894
18.820524215698242 -6.407947063446045 0.6765397787094116
18.81692123413086 -6.5359110832214355 0.6682907342910767
18.814315795898438 -6.664733409881592 0.6597416996955872
18.814556121826172 -6.7951154708862305 0.6505964398384094
18.813901901245117 -6.925753116607666 0.6414446234703064
18.814199447631836 -7.0573344230651855 0.6319906115531921
18.820053100585938 -7.191652774810791 0.6214942932128906
18.811140060424805 -7.3209309577941895 0.6132102012634277
18.826168060302734 -7.460206508636475 0.6009211540222168
18.84202766418457 -7.60068416595459 0.5883243680000305
18.84405517578125 -7.736379623413086 0.5777937173843384
18.85059928894043 -7.874675273895264 0.5663644075393677
18.850688934326172 -8.01102352142334 0.555817186832428
18.852535247802734 -8.148847579956055 0.5448164343833923
18.857017517089844 -8.288588523864746 0.5332117676734924
18.871320724487305 -8.43353271484375 0.5198098421096802
18.880050659179688 -8.576921463012695 0.507141649723053
18.879642486572266 -8.717005729675293 0.49580666422843933
18.900604248046875 -8.867907524108887 0.48072871565818787
19.19532585144043 -9.15042495727539 0.41958948969841003
19.19181251525879 -9.29383373260498 0.4080381691455841
18.935283660888672 -9.313623428344727 0.4390060603618622
16.63776969909668 -8.311016082763672 0.8159154653549194
16.56406593322754 -8.401721954345703 0.8174310922622681
16.437137603759766 -8.464682579040527 0.8279646635055542
16.2408447265625 -8.490225791931152 0.8503912687301636
16.74179458618164 -8.883427619934082 0.752894937992096
16.22614097595215 -8.738005638122559 0.8302326798439026
15.992288589477539 -8.739235877990723 0.85921710729599
16.137744903564453 -8.947876930236816 0.822255551815033
16.14853286743164 -9.08399772644043 0.8084700107574463
16.240680694580078 -9.267618179321289 0.7801847457885742
16.21139144897461 -9.38338851928711 0.7730113863945007
16.101152420043945 -9.452113151550293 0.7800447940826416
16.137632369995117 -9.607312202453613 0.7609307169914246
15.999320983886719 -9.658597946166992 0.7728301286697388
12.631696701049805 12.67109489440918 1.2618274688720703
12.644814491271973 12.529885292053223 1.272248387336731
12.698470115661621 12.42990779876709 1.2749069929122925
12.75351619720459 12.331809997558594 1.277165412902832
12.738311767578125 12.167082786560059 1.2922059297561646
12.782132148742676 12.06015396118164 1.2961770296096802
12.842524528503418 11.969368934631348 1.296977162361145
12.894990921020508 11.871580123901367 1.2990915775299072
12.918880462646484 11.748251914978027 1.3062238693237305
