# .PCD v0.7 - Point Cloud Data file format
VERSION 0.7
FIELDS x y z
SIZE 4 4 4
TYPE F F F
COUNT 1 1 1
WIDTH 854
HEIGHT 1
VIEWPOINT 0 0 0 1 0 0 0
POINTS 854
DATA ascii
34.062076568603516 4.44991397857666 2.422499179840088
34.05486297607422 4.236690998077393 2.419290542602539
34.062198638916016 4.025600433349609 2.4155187606811523
33.640167236328125 3.7666451930999756 2.4270923137664795
33.52235794067383 3.545396566390991 2.4277708530426025
33.576141357421875 3.3429646492004395 2.4222412109375
33.63765335083008 3.1408417224884033 2.4163742065429688
33.659122467041016 2.9347028732299805 2.4119009971618652
33.666378021240234 2.7273688316345215 2.4078943729400635
33.68032455444336 2.5206525325775146 2.403595209121704
33.68602752685547 2.313386917114258 2.3995492458343506
33.702423095703125 2.106893539428711 2.39506196975708
33.70856857299805 1.8997795581817627 2.3909013271331787
33.71144485473633 1.6925678253173828 2.386812925338745
33.70806121826172 1.4851716756820679 2.382908821105957
33.728363037109375 1.2788265943527222 2.3780767917633057
19.301753997802734 0.6131133437156677 2.9125375747680664
33.738197326660156 0.8648698329925537 2.3694047927856445
33.75869369506836 0.6582090854644775 2.364408254623413
33.762935638427734 0.45112788677215576 2.359971761703491
33.76790237426758 0.244033083319664 2.355456829071045
12.912644386291504 0.01384656596928835 3.142881393432617
33.79001235961914 -0.1703641414642334 2.345810651779175
12.7078857421875 -0.14229291677474976 3.1473042964935303
33.80004119873047 -0.5851499438285828 2.336413621902466
33.80763626098633 -0.7927554249763489 2.3315377235412598
12.455231666564941 -0.3687879741191864 3.1518967151641846
33.83597946166992 -1.2089134454727173 2.321115732192993
12.551488876342773 -0.5258253812789917 3.1446778774261475
11.685617446899414 -0.561410129070282 3.176717519760132
13.38110637664795 -0.7251056432723999 3.1085782051086426
12.844718933105469 -0.7751110792160034 3.12774395942688
12.791804313659668 -0.8507072925567627 3.1279523372650146
12.899895668029785 -0.937410831451416 3.1217732429504395
33.88320541381836 -2.6705923080444336 2.2849137783050537
13.166074752807617 -1.1192879676818848 3.1072585582733154
12.200637817382812 -1.1126720905303955 3.1439530849456787
12.218384742736816 -1.1899124383926392 3.1413521766662598
12.132280349731445 -1.2567095756530762 3.1429214477539062
12.769880294799805 -1.4019640684127808 3.1151413917541504
33.94853591918945 -3.937319040298462 2.250641345977783
33.9324951171875 -4.146581172943115 2.2458174228668213
13.503833770751953 -1.7345807552337646 3.0788302421569824
13.425536155700684 -1.808315634727478 3.0798304080963135
33.958744049072266 -4.7856221199035645 2.227943181991577
11.836409568786621 -1.742439866065979 3.1413557529449463
11.810624122619629 -1.8127405643463135 3.140416145324707
34.00843811035156 -5.432711124420166 2.20851469039917
33.99991226196289 -5.645476341247559 2.2029592990875244
34.0097541809082 -5.861736297607422 2.196566343307495
13.525866508483887 -2.417038917541504 3.059399366378784
13.534292221069336 -2.5043253898620605 3.056612014770508
13.512717247009277 -2.5861732959747314 3.0550787448883057
33.93435287475586 -6.7100677490234375 2.175248622894287
33.894325256347656 -6.918498516082764 2.1706860065460205
33.846168518066406 -7.1252522468566895 2.1664223670959473
33.8270263671875 -7.338242053985596 2.1608476638793945
33.80556106567383 -7.5510478019714355 2.1553127765655518
33.8431282043457 -7.777741432189941 2.147125005722046
33.885013580322266 -8.00655746459961 2.138662099838257
33.96419143676758 -8.245609283447266 2.128459930419922
34.002933502197266 -8.47626781463623 2.1199536323547363
34.01979446411133 -8.702513694763184 2.112337350845337
34.064144134521484 -8.9368896484375 2.1034064292907715
34.09145736694336 -9.167986869812012 2.0951504707336426
34.09120559692383 -9.39259147644043 2.088057279586792
34.079864501953125 -9.614826202392578 2.081392526626587
34.07379150390625 -9.839215278625488 2.0744142532348633
34.084449768066406 -10.069270133972168 2.066592216491699
34.09356689453125 -10.299826622009277 2.058755874633789
34.08871841430664 -10.5270414352417 2.051483631134033
34.1300048828125 -10.76961612701416 2.041980743408203
34.1306037902832 -11.000529289245605 2.034283399581909
34.156219482421875 -11.240598678588867 2.025324821472168
34.14039611816406 -11.468035697937012 2.0182290077209473
34.12211990356445 -11.695379257202148 2.011171579360962
34.1513671875 -11.940073013305664 2.0017662048339844
34.12055969238281 -12.16476821899414 1.995141625404358
34.11174392700195 -12.398065567016602 1.987381100654602
34.268089294433594 -12.693476676940918 1.97152578830719
34.32769012451172 -12.955642700195312 1.9602172374725342
34.310760498046875 -13.190343856811523 1.9525340795516968
34.328514099121094 -13.439526557922363 1.9430574178695679
34.34078598022461 -13.687944412231445 1.933746099472046
34.332786560058594 -13.929506301879883 1.925339698791504
34.36650466918945 -14.189403533935547 1.9147528409957886
34.37529373168945 -14.440564155578613 1.9053000211715698
34.36116409301758 -14.68333911895752 1.8968992233276367
34.38016128540039 -14.941614151000977 1.886719822883606
29.563928604125977 -13.064804077148438 2.1233527660369873
34.43253707885742 -15.469512939453125 1.8652749061584473
34.41763687133789 -15.717362403869629 1.856490135192871
34.42182540893555 -15.975284576416016 1.846612811088562
34.444915771484375 -16.24364471435547 1.8356351852416992
34.432674407958984 -16.49692153930664 1.8263846635818481
34.449153900146484 -16.765522003173828 1.81551194190979
34.43586730957031 -17.021221160888672 1.8060911893844604
34.38591766357422 -17.25991439819336 1.7985154390335083
34.261356353759766 -17.461442947387695 1.7948527336120605
34.15069580078125 -17.669898986816406 1.790393590927124
34.31024932861328 -18.020238876342773 1.7712149620056152
34.42182540893555 -18.349233627319336 1.754429817199707
34.30485916137695 -18.55813217163086 1.7499914169311523
34.310081481933594 -18.834056854248047 1.7387514114379883
34.3786506652832 -19.147192001342773 1.7238575220108032
34.450748443603516 -19.465314865112305 1.7085877656936646
34.40324020385742 -19.717988967895508 1.6998542547225952
34.3858642578125 -19.9893856048584 1.6893084049224854
34.52735137939453 -20.356168746948242 1.6695998907089233
34.486446380615234 -20.618316650390625 1.6600842475891113
34.50938034057617 -20.92059898376465 1.6467747688293457
34.42864227294922 -21.161699295043945 1.6393051147460938
34.485260009765625 -21.489221572875977 1.6237356662750244
34.49354553222656 -21.789426803588867 1.6108052730560303
34.512054443359375 -22.098621368408203 1.5971072912216187
34.425010681152344 -22.341981887817383 1.589501976966858
34.524024963378906 -22.70859718322754 1.5706835985183716
34.49848937988281 -22.996387481689453 1.5591119527816772
34.69417190551758 -23.43566131591797 1.53400456905365
34.729976654052734 -23.771570205688477 1.5183093547821045
34.745723724365234 -24.09684944152832 1.5036377906799316
34.74897003173828 -24.416324615478516 1.489545226097107
34.80085372924805 -24.773229598999023 1.4722450971603394
34.80267333984375 -25.097806930541992 1.4578454494476318
34.80745315551758 -25.427457809448242 1.4430670738220215
34.815914154052734 -25.762863159179688 1.4278564453125
34.83434295654297 -26.10890769958496 1.4118047952651978
34.85380554199219 -26.45916748046875 1.3954682350158691
34.86710739135742 -26.80820655822754 1.3793070316314697
34.87506103515625 -27.15656089782715 1.36327064037323
34.88474655151367 -27.509729385375977 1.3468986749649048
34.8984260559082 -27.86964225769043 1.3300354480743408
34.74514389038086 -28.09825325012207 1.3240309953689575
34.73640060424805 -28.445619583129883 1.3082696199417114
34.894588470458984 -28.93480682373047 1.2810314893722534
34.85838317871094 -29.267742156982422 1.2666003704071045
34.85896682739258 -29.63495445251465 1.2494465112686157
34.93429946899414 -30.070377349853516 1.2268956899642944
34.958160400390625 -30.466495513916016 1.2075872421264648
34.8586540222168 -30.758317947387695 1.1966177225112915
34.916996002197266 -31.193103790283203 1.1743725538253784
34.98240661621094 -31.639802932739258 1.1512937545776367
34.98692321777344 -32.03654479980469 1.1322216987609863
34.96298599243164 -32.41144561767578 1.1149119138717651
34.98234939575195 -32.830989837646484 1.0941962003707886
34.99497604370117 -33.24923324584961 1.0736563205718994
32.40798568725586 30.514108657836914 2.31160831451416
32.340423583984375 30.078521728515625 2.317941188812256
32.47264099121094 29.832237243652344 2.3160414695739746
32.50608825683594 29.497467041015625 2.31805157661438
32.4957160949707 29.126718521118164 2.3217248916625977
32.4206657409668 28.702880859375 2.3278913497924805
32.567378997802734 28.478466033935547 2.3250296115875244
32.59152603149414 28.14879035949707 2.3269999027252197
32.597652435302734 27.80691909790039 2.329591751098633
32.626041412353516 27.48729133605957 2.331193685531616
32.620243072509766 27.142154693603516 2.3340625762939453
32.65082550048828 26.830488204956055 2.3353850841522217
32.64311981201172 26.490501403808594 2.338134288787842
32.66289520263672 26.17599868774414 2.3396990299224854
32.682395935058594 25.864116668701172 2.3411829471588135
32.703250885009766 25.556058883666992 2.342524290084839
32.70889663696289 25.238950729370117 2.3443763256073
32.7293815612793 24.936067581176758 2.3455562591552734
32.742591857910156 24.630281448364258 2.346935749053955
32.67545700073242 24.26746368408203 2.351381778717041
32.25932693481445 23.65285301208496 2.369407892227173
32.42308807373047 23.46858787536621 2.3646187782287598
32.49878692626953 23.221027374267578 2.363205671310425
32.488548278808594 22.914081573486328 2.36507248878479
32.49873733520508 22.624134063720703 2.3660616874694824
32.44234848022461 22.290771484375 2.3695664405822754
32.497249603271484 22.0363712310791 2.3686580657958984
32.57518005371094 21.798812866210938 2.366781711578369
32.35283660888672 21.363948822021484 2.3764989376068115
32.454654693603516 21.14653778076172 2.3735456466674805
32.444889068603516 20.857873916625977 2.3748528957366943
32.61427307128906 20.685226440429688 2.369143009185791
32.575172424316406 20.381397247314453 2.3714449405670166
32.42727279663086 20.01321029663086 2.3778862953186035
32.32304382324219 19.67619514465332 2.382561445236206
32.36585998535156 19.43124771118164 2.381476402282715
32.35443115234375 19.155454635620117 2.38242244720459
32.36069869995117 18.89212417602539 2.382615804672241
32.487083435058594 18.699745178222656 2.378103256225586
32.63579559326172 18.51984405517578 2.372664213180542
32.69804000854492 18.29100227355957 2.3705010414123535
32.7779655456543 18.072708129882812 2.3675904273986816
32.884544372558594 17.86939239501953 2.3635876178741455
32.99514389038086 17.66828155517578 2.3593649864196777
33.009056091308594 17.416112899780273 2.3588125705718994
33.05215072631836 17.180570602416992 2.357069253921509
33.05446243286133 16.92511558532715 2.3568384647369385
33.06916427612305 16.677478790283203 2.3560667037963867
33.0838623046875 16.431188583374023 2.3552327156066895
33.084228515625 16.179201126098633 2.354891538619995
33.10074996948242 15.936498641967773 2.353865623474121
33.12548065185547 15.698909759521484 2.35246205329895
33.126808166503906 15.451478958129883 2.351903200149536
33.123626708984375 15.20337200164795 2.351459503173828
33.14506149291992 14.967815399169922 2.3500044345855713
33.149330139160156 14.72567081451416 2.349154472351074
33.15371322631836 14.484837532043457 2.348242998123169
33.17475509643555 14.25239372253418 2.3466267585754395
33.182228088378906 14.01518440246582 2.34548020362854
33.19081115722656 13.77956771850586 2.3442327976226807
33.20793151855469 13.548527717590332 2.3425965309143066
33.22254180908203 13.317423820495605 2.341001033782959
33.09051513671875 13.029526710510254 2.3450570106506348
33.131446838378906 12.81152057647705 2.34232759475708
33.5194206237793 12.725815773010254 2.3260064125061035
33.684715270996094 12.55276870727539 2.3182945251464844
33.71493148803711 12.329085350036621 2.315791606903076
33.74085235595703 12.104491233825684 2.3134007453918457
33.755859375 11.876725196838379 2.3113789558410645
33.75706481933594 11.644994735717773 2.309843063354492
33.75480270385742 11.413054466247559 2.3083884716033936
33.7671012878418 11.18692398071289 2.306307792663574
33.77694320678711 10.960762977600098 2.3042683601379395
33.793853759765625 10.737627029418945 2.301896333694458
33.81216049194336 10.515584945678711 2.2994139194488525
33.821372985839844 10.291394233703613 2.297234535217285
33.79941940307617 10.058649063110352 2.2962348461151123
33.823856353759766 9.8405179977417 2.2933459281921387
33.83343505859375 9.618640899658203 2.2909910678863525
33.84445571899414 9.397817611694336 2.2885243892669678
33.86079025268555 9.179051399230957 2.285792112350464
33.87571716308594 8.960436820983887 2.2830612659454346
33.875694274902344 8.73849105834961 2.2808730602264404
33.89554214477539 8.522241592407227 2.2778375148773193
33.906246185302734 8.30417537689209 2.2751128673553467
33.91653060913086 8.086529731750488 2.272351026535034
33.91860580444336 7.867488384246826 2.2698659896850586
33.909523010253906 7.646528244018555 2.2677767276763916
33.93609619140625 7.434100151062012 2.2641987800598145
33.950584411621094 7.21934700012207 2.2610528469085693
33.95687484741211 7.003282070159912 2.2581839561462402
33.96669006347656 6.788389682769775 2.2551188468933105
33.97024154663086 6.572690486907959 2.2522542476654053
33.95867156982422 6.354629039764404 2.2499523162841797
33.98603057861328 6.1442461013793945 2.246011972427368
33.9992790222168 5.931532382965088 2.242591142654419
34.008243560791016 5.718389987945557 2.239290952682495
34.02179718017578 5.506317138671875 2.235748052597046
34.029083251953125 5.293524742126465 2.232408046722412
34.02318572998047 5.079078197479248 2.2295570373535156
34.02979278564453 4.866882801055908 2.2261383533477783
34.0499153137207 4.656828880310059 2.2221057415008545
34.05289840698242 4.444639682769775 2.2187271118164062
34.061492919921875 4.233451843261719 2.215061664581299
34.0806884765625 4.023730278015137 2.2108983993530273
33.611061096191406 3.7593839168548584 2.2271268367767334
33.52202606201172 3.541377067565918 2.2274372577667236
33.57773971557617 3.3391432762145996 2.221628427505493
33.632232666015625 3.1363577842712402 2.2158055305480957
33.65463638305664 2.93034029006958 2.211272954940796
33.66283416748047 2.7231173515319824 2.2072842121124268
33.677730560302734 2.5164988040924072 2.202955484390259
33.69036102294922 2.3097305297851562 2.198665142059326
33.67180633544922 2.1010334491729736 2.1956498622894287
33.66592025756836 1.8934359550476074 2.1920413970947266
12.134583473205566 0.6070375442504883 3.1123440265655518
33.690242767333984 1.480454683303833 2.1831109523773193
12.68509578704834 0.4787106513977051 3.0857014656066895
19.308204650878906 0.6107200980186462 2.7974963188171387
33.72220993041992 0.8605372905731201 2.16947340965271
33.732666015625 0.6537807583808899 2.1648192405700684
33.75583267211914 0.447113037109375 2.1595511436462402
33.75875473022461 0.24004894495010376 2.155106544494629
33.76639938354492 0.03297078236937523 2.1503968238830566
12.884297370910645 -0.06722140312194824 3.0657200813293457
33.782859802246094 -0.381491482257843 2.140746593475342
33.79767608642578 -0.5890254974365234 2.1355390548706055
33.79922866821289 -0.7964747548103333 2.1308586597442627
11.540409088134766 -0.3436087965965271 3.1186530590057373
12.492456436157227 -0.448569118976593 3.0744552612304688
11.769758224487305 -0.49500107765197754 3.105111837387085
12.757287979125977 -0.6148475408554077 3.058971405029297
13.380644798278809 -0.7271288633346558 3.0289690494537354
12.849357604980469 -0.777391254901886 3.05107045173645
12.835305213928223 -0.8555992841720581 3.0497958660125732
33.88829040527344 -2.4658474922180176 2.0877490043640137
13.093579292297363 -1.0342912673950195 3.0340847969055176
33.89590835571289 -2.8848745822906494 2.076995849609375
12.331657409667969 -1.1265770196914673 3.0651161670684814
12.36819076538086 -1.2064626216888428 3.061476469039917
12.70527172088623 -1.3180421590805054 3.04386043548584
12.750494956970215 -1.4018429517745972 3.0396969318389893
13.42624568939209 -1.5594913959503174 3.006040573120117
13.416349411010742 -1.6418203115463257 3.004276990890503
13.767578125 -1.7705610990524292 2.9855010509490967
13.941499710083008 -1.8799256086349487 2.9749505519866943
11.850502967834473 -1.6722408533096313 3.0716419219970703
13.838165283203125 -2.039175271987915 2.9750452041625977
33.9942512512207 -5.2208051681518555 2.0104129314422607
33.990966796875 -5.433960914611816 2.004519462585449
34.00310134887695 -5.650055885314941 1.9978162050247192
34.001060485839844 -5.864299297332764 1.991721272468567
34.022247314453125 -6.083125591278076 1.9844282865524292
34.024349212646484 -6.299160480499268 1.9779845476150513
34.04764175415039 -6.519770622253418 1.9704309701919556
34.00091552734375 -6.7273359298706055 1.9662282466888428
33.902034759521484 -6.9241838455200195 1.964534044265747
33.84404754638672 -7.1289238929748535 1.9607833623886108
33.83264923095703 -7.343594551086426 1.9546663761138916
33.84816360473633 -7.56471061706543 1.9471375942230225
33.818424224853516 -7.776224136352539 1.9417877197265625
33.84957504272461 -8.002363204956055 1.933313012123108
33.81224822998047 -8.212913513183594 1.9281996488571167
34.02461242675781 -8.485898971557617 1.9103779792785645
34.050071716308594 -8.714505195617676 1.9018895626068115
34.08559799194336 -8.946784973144531 1.8927934169769287
34.0925407409668 -9.172564506530762 1.8850634098052979
34.08547592163086 -9.395318031311035 1.877967357635498
34.08080291748047 -9.619415283203125 1.8706648349761963
34.09385299682617 -9.849352836608887 1.862357258796692
34.082366943359375 -10.073019027709961 1.8552361726760864
34.100013732910156 -10.306161880493164 1.846504807472229
34.10367202758789 -10.536067962646484 1.8384112119674683
34.12198257446289 -10.77151870727539 1.829451322555542
34.1434326171875 -11.009122848510742 1.8202238082885742
34.13573455810547 -11.2383394241333 1.8124465942382812
34.1359748840332 -11.471056938171387 1.8041538000106812
34.14219665527344 -11.706792831420898 1.795443058013916
34.160003662109375 -11.947651863098145 1.7860052585601807
34.122520446777344 -12.170047760009766 1.7794643640518188
34.107994079589844 -12.4013090133667 1.7715905904769897
34.2623405456543 -12.695998191833496 1.7543611526489258
34.27326965332031 -12.939785957336426 1.7448525428771973
34.30019760131836 -13.190996170043945 1.734348177909851
34.322540283203125 -13.44193172454834 1.723978877067566
34.32917022705078 -13.688089370727539 1.7143698930740356
34.33869552612305 -13.936711311340332 1.7044849395751953
34.34276580810547 -14.184441566467285 1.6947928667068481
34.35336685180664 -14.436227798461914 1.6846163272857666
34.346553802490234 -14.682004928588867 1.675313949584961
29.640714645385742 -12.886295318603516 1.9351037740707397
29.567279815673828 -13.070694923400879 1.9307706356048584
34.41410827636719 -15.466253280639648 1.6416406631469727
34.41461181640625 -15.721039772033691 1.631432294845581
34.430484771728516 -15.984399795532227 1.6202031373977661
34.43448257446289 -16.24386215209961 1.6095383167266846
34.432987213134766 -16.502248764038086 1.5990694761276245
34.44667053222656 -16.769533157348633 1.5875738859176636
34.45925521850586 -17.038043975830078 1.5760046243667603
34.42253875732422 -17.28359603881836 1.5672552585601807
34.340511322021484 -17.507118225097656 1.5611292123794556
34.28807067871094 -17.74634552001953 1.5531260967254639
34.2640380859375 -18.001380920410156 1.5432870388031006
34.199398040771484 -18.236116409301758 1.5358164310455322
34.37906265258789 -18.60379409790039 1.5131809711456299
34.13272476196289 -18.742238998413086 1.5166956186294556
34.491371154785156 -19.215604782104492 1.4825103282928467
34.43950271606445 -19.46463966369629 1.473666787147522
34.495887756347656 -19.776830673217773 1.4578813314437866
34.484989166259766 -20.05280113220215 1.446168303489685
34.52532196044922 -20.360828399658203 1.4310380220413208
34.51346206665039 -20.640380859375 1.4190664291381836
34.56776809692383 -20.961965560913086 1.4026724100112915
34.52329635620117 -21.225902557373047 1.3924819231033325
34.50230407714844 -21.505924224853516 1.3806239366531372
34.482547760009766 -21.78862190246582 1.3685301542282104
34.489200592041016 -22.090192794799805 1.3545328378677368
34.54536819458008 -22.426368713378906 1.337061882019043
34.55698776245117 -22.73662567138672 1.3223446607589722
34.50877380371094 -23.009647369384766 1.3114584684371948
34.64216232299805 -23.40702247619629 1.2881320714950562
34.735713958740234 -23.78207778930664 1.267216444015503
34.749656677246094 -24.106233596801758 1.2514829635620117
34.740501403808594 -24.417102813720703 1.237131953239441
34.80527877807617 -24.783193588256836 1.2174535989761353
34.79884338378906 -25.101938247680664 1.2024867534637451
34.8002815246582 -25.429187774658203 1.1867616176605225
34.80140686035156 -25.759180068969727 1.1708415746688843
34.83094024658203 -26.113496780395508 1.152679681777954
34.82958984375 -26.448009490966797 1.1364792585372925
34.85709762573242 -26.807830810546875 1.1179711818695068
34.85707473754883 -27.14996337890625 1.1012039184570312
34.869041442871094 -27.50484848022461 1.0833234786987305
34.90214920043945 -27.880212783813477 1.0636327266693115
34.76816177368164 -28.12453842163086 1.0560474395751953
34.7452507019043 -28.46063232421875 1.0400571823120117
34.907779693603516 -28.953641891479492 1.0098990201950073
34.89812088012695 -29.309106826782227 0.9923385381698608
34.90365982055664 -29.68105697631836 0.9733633399009705
34.933929443359375 -30.078275680541992 0.9522099494934082
34.898162841796875 -30.42253303527832 0.9358485341072083
34.855743408203125 -30.76417350769043 0.9197598099708557
34.94218826293945 -31.22417449951172 0.8933225870132446
34.948036193847656 -31.617401123046875 0.8728552460670471
34.95772171020508 -32.018611907958984 0.8517715334892273
34.96159362792969 -32.41909408569336 0.8308301568031311
34.995338439941406 -32.85224533081055 0.8071551322937012
34.993221282958984 -33.25677490234375 0.7860305309295654
32.35964584350586 30.824920654296875 2.05246901512146
32.42056655883789 30.505990982055664 2.0546841621398926
32.3419189453125 30.060239791870117 2.0635478496551514
32.48355484008789 29.822763442993164 2.06158709526062
32.51615524291992 29.48732566833496 2.064789295196533
32.507911682128906 29.118614196777344 2.0698297023773193
32.42377471923828 28.686874389648438 2.0783727169036865
32.577877044677734 28.46902847290039 2.075369119644165
32.56787872314453 28.1099796295166 2.0801026821136475
32.601863861083984 27.79232406616211 2.0826148986816406
32.60795211791992 27.454072952270508 2.086334466934204
32.63264083862305 27.134685516357422 2.0890517234802246
32.653873443603516 26.815401077270508 2.0918188095092773
32.65534973144531 26.4830265045166 2.095402479171753
32.66646194458008 26.16164779663086 2.098417043685913
32.68113708496094 25.846088409423828 2.101152181625366
32.689239501953125 25.528263092041016 2.10408616065979
32.698631286621094 25.214365005493164 2.1068496704101562
32.737220764160156 24.925527572631836 2.1081464290618896
32.73915100097656 24.611351013183594 2.1110479831695557
32.70957565307617 24.27664566040039 2.1153054237365723
32.53124237060547 23.83632469177246 2.126344919204712
32.43295669555664 23.46002769470215 2.133551836013794
32.50206756591797 23.20779037475586 2.1329152584075928
32.52683639526367 22.92565155029297 2.134234666824341
32.552650451660156 22.64636993408203 2.1354124546051025
32.54661178588867 22.34726905822754 2.137960910797119
32.56047439575195 22.064233779907227 2.1395022869110107
32.65764617919922 21.839088439941406 2.137134552001953
32.47722244262695 21.431398391723633 2.147387742996216
32.49987030029297 21.16143226623535 2.148250102996826
32.52211380004883 20.893077850341797 2.149043560028076
32.58365249633789 20.651460647583008 2.1479604244232178
32.545169830322266 20.348421096801758 2.1513512134552
32.50590133666992 20.04768180847168 2.154688596725464
32.54186248779297 19.795455932617188 2.154517889022827
32.62137222290039 19.570789337158203 2.1522905826568604
32.597869873046875 19.28584861755371 2.154658794403076
32.40553665161133 18.904748916625977 2.1645963191986084
32.703468322753906 18.810745239257812 2.1522350311279297
32.655517578125 18.517606735229492 2.1554675102233887
32.73080825805664 18.295978546142578 2.1530444622039795
32.8186149597168 18.08184051513672 2.1499810218811035
32.94190216064453 17.887338638305664 2.145242214202881
33.00060272216797 17.65806007385254 2.14334774017334
33.040061950683594 17.41941261291504 2.1422483921051025
33.04768371582031 17.165283203125 2.142510414123535
33.05877685546875 16.91444969177246 2.1425411701202393
33.06268310546875 16.661426544189453 2.1428215503692627
33.078163146972656 16.41565704345703 2.142507314682007
33.09186935424805 16.170326232910156 2.142200231552124
33.09751892089844 15.92241096496582 2.142183780670166
33.11040115356445 15.679313659667969 2.141770601272583
33.118831634521484 15.435389518737793 2.1414856910705566
33.130062103271484 15.194037437438965 2.141004800796509
33.14778137207031 14.956826210021973 2.140162706375122
33.143741607666016 14.711050987243652 2.1402294635772705
33.16175079345703 14.476282119750977 2.139235734939575
33.175376892089844 14.240665435791016 2.1383702754974365
33.1772346496582 14.001151084899902 2.137967586517334
33.19217300415039 13.76827621459961 2.1369078159332275
33.20180130004883 13.534235954284668 2.1360201835632324
33.22372817993164 13.306168556213379 2.1345112323760986
33.08790969848633 13.016883850097656 2.14005446434021
33.124080657958984 12.79710865020752 2.1377716064453125
33.533390045166016 12.719488143920898 2.1185684204101562
33.686431884765625 12.541791915893555 2.1108627319335938
33.72312927246094 12.320517539978027 2.1083452701568604
33.731109619140625 12.089486122131348 2.1070609092712402
33.746002197265625 11.861804962158203 2.105398178100586
33.75559997558594 11.633091926574707 2.103909492492676
33.75798416137695 11.402787208557129 2.102684259414673
33.76734924316406 11.1757173538208 2.1010782718658447
33.781856536865234 10.951118469238281 2.099175214767456
33.791072845458984 10.725552558898926 2.097447633743286
33.81310272216797 10.504731178283691 2.0950734615325928
33.80311584472656 10.274744033813477 2.0940937995910645
33.785831451416016 10.043564796447754 2.0933847427368164
33.81974792480469 9.828323364257812 2.090278148651123
33.85422134399414 9.61358642578125 2.0870823860168457
33.85652542114258 9.390250205993652 2.0852913856506348
33.86122512817383 9.168291091918945 2.0833287239074707
33.86061096191406 8.945606231689453 2.0815489292144775
33.87499237060547 8.72751235961914 2.0790188312530518
33.88506317138672 8.508846282958984 2.0766241550445557
33.895668029785156 8.290860176086426 2.074143171310425
33.91070556640625 8.074451446533203 2.0713953971862793
33.90100860595703 7.852757930755615 2.069725275039673
33.90156555175781 7.634120464324951 2.0675225257873535
33.929996490478516 7.422177314758301 2.0639708042144775
33.952213287353516 7.209133625030518 2.0606415271759033
33.95450210571289 6.992266654968262 2.0581722259521484
33.9652099609375 6.777596950531006 2.0552525520324707
33.96573257446289 6.561352729797363 2.0527446269989014
33.94426345825195 6.3415021896362305 2.0512006282806396
33.97052764892578 6.131034851074219 2.047370433807373
33.98859786987305 5.919282913208008 2.0438597202301025
34.00337600708008 5.707208156585693 2.0404393672943115
34.02473068237305 5.496448516845703 2.0366482734680176
34.02305221557617 5.282268524169922 2.033874750137329
34.0091667175293 5.066694259643555 2.031616449356079
34.02061462402344 4.855299949645996 2.0281052589416504
34.0416374206543 4.645442008972168 2.0240774154663086
34.05146408081055 4.434216499328613 2.020515203475952
34.06591796875 4.223782062530518 2.016671895980835
34.07114791870117 4.012401103973389 2.01320219039917
33.545936584472656 3.742058515548706 2.0349442958831787
33.5203742980957 3.5311875343322754 2.0328729152679443
33.567047119140625 3.3280677795410156 2.027289867401123
33.621437072753906 3.1253392696380615 2.0212669372558594
33.649723052978516 2.919907331466675 2.0164265632629395
33.6638069152832 2.713200807571411 2.012202262878418
33.66965103149414 2.505910634994507 2.0083107948303223
33.670230865478516 2.298377513885498 2.004612684249878
12.012728691101074 0.7446882128715515 3.050886631011963
33.64262771606445 1.8821805715560913 1.9984265565872192
33.64934158325195 1.6755791902542114 1.9942466020584106
12.562031745910645 0.5470209717750549 3.019937753677368
12.214740753173828 0.45679354667663574 3.035449743270874
19.307214736938477 0.6046521067619324 2.685995101928711
12.716520309448242 0.3194819688796997 3.0078110694885254
33.72379684448242 0.6436834931373596 1.9703632593154907
12.417723655700684 0.15952785313129425 3.019407033920288
33.74870300292969 0.2300521731376648 1.9605814218521118
33.749263763427734 0.023030422627925873 1.9561797380447388
33.75455093383789 -0.1840232014656067 1.951478123664856
12.825063705444336 -0.1498713344335556 2.9925715923309326
12.747930526733398 -0.22719836235046387 2.9946987628936768
33.792728424072266 -0.8062570095062256 1.9358514547348022
11.77369213104248 -0.3545231819152832 3.0402445793151855
11.742279052734375 -0.42569321393966675 3.040167808532715
12.273214340209961 -0.52025306224823 3.0115911960601807
12.950043678283691 -0.628434956073761 2.9754252433776855
12.724480628967285 -0.6957901120185852 2.9850099086761475
12.850481986999512 -0.7817535996437073 2.9766719341278076
12.87824821472168 -0.8627625107765198 2.973304033279419
11.785954475402832 -0.8624168634414673 3.0274734497070312
11.790324211120605 -0.9354849457740784 3.0254158973693848
12.648993492126465 -1.0815882682800293 2.9791533946990967
12.267109870910645 -1.1248414516448975 2.996943712234497
33.904659271240234 -3.315131902694702 1.8690441846847534
12.751863479614258 -1.3271673917770386 2.9676458835601807
13.054098129272461 -1.439577341079712 2.949702024459839
13.344507217407227 -1.554474949836731 2.932250738143921
13.404019355773926 -1.6448055505752563 2.9268412590026855
33.934478759765625 -4.372401714324951 1.8389580249786377
12.361347198486328 -1.67121422290802 2.9775004386901855
13.73311710357666 -1.9423061609268188 2.9022960662841797
33.98786163330078 -5.016791820526123 1.8180906772613525
33.98286819458008 -5.229280471801758 1.8121901750564575
33.99724197387695 -5.445212364196777 1.8051718473434448
34.003353118896484 -5.660370826721191 1.7985150814056396
33.991371154785156 -5.872921943664551 1.7927565574645996
34.019344329833984 -6.092930793762207 1.7847520112991333
34.017417907714844 -6.308227062225342 1.7782864570617676
34.04452896118164 -6.5295586585998535 1.7701505422592163
34.005558013916016 -6.738654613494873 1.7655515670776367
33.92127227783203 -6.938517093658447 1.7633826732635498
33.86708450317383 -7.144194602966309 1.7594988346099854
33.87604904174805 -7.363463878631592 1.7520453929901123
33.92549133300781 -7.592487812042236 1.7422466278076172
33.93252944946289 -7.812988758087158 1.7347135543823242
33.930355072021484 -8.032023429870605 1.7276082038879395
33.97334671020508 -8.262648582458496 1.7178683280944824
34.02737045288086 -8.497249603271484 1.7073962688446045
34.04883575439453 -8.724894523620605 1.6986603736877441
34.08230209350586 -8.95667552947998 1.6891382932662964
34.08527755737305 -9.181406021118164 1.6812564134597778
34.10314178466797 -9.411026954650879 1.6724226474761963
34.08391189575195 -9.631168365478516 1.665627121925354
34.098751068115234 -9.86169147491455 1.6567702293395996
34.09576416015625 -10.087944030761719 1.6488465070724487
34.1123046875 -10.320891380310059 1.6396857500076294
34.126312255859375 -10.554128646850586 1.630566954612732
34.11683654785156 -10.781006813049316 1.6227238178253174
34.127716064453125 -11.015220642089844 1.613579511642456
34.12467575073242 -11.245911598205566 1.6051546335220337
34.126705169677734 -11.479207992553711 1.5963239669799805
34.1290397644043 -11.713601112365723 1.587368369102478
34.15711212158203 -11.95802116394043 1.5767550468444824
34.1232795715332 -12.181748390197754 1.569762945175171
34.091739654541016 -12.40687370300293 1.5625396966934204
34.24031448364258 -12.699416160583496 1.544233798980713
34.298789978027344 -12.961076736450195 1.5312561988830566
34.28265380859375 -13.195963859558105 1.5227247476577759
34.30861282348633 -13.448263168334961 1.511483073234558
34.299373626708984 -13.688056945800781 1.5022956132888794
34.33102798461914 -13.945524215698242 1.4904425144195557
34.34605026245117 -14.197794914245605 1.4794929027557373
34.3555793762207 -14.449225425720215 1.4687581062316895
34.33393859863281 -14.688743591308594 1.4598661661148071
34.329872131347656 -14.936903953552246 1.4497429132461548
29.559301376342773 -13.077863693237305 1.7441226243972778
34.40750503540039 -15.475666046142578 1.4236117601394653
34.40605926513672 -15.729591369628906 1.4129114151000977
34.412750244140625 -15.98870849609375 1.4015510082244873
34.392276763916016 -16.2365665435791 1.3918205499649048
34.43395233154297 -16.515422821044922 1.3778949975967407
34.41606140136719 -16.767423629760742 1.3677234649658203
34.44200134277344 -17.04239845275879 1.354522705078125
34.447120666503906 -17.308914184570312 1.3425432443618774
34.38356399536133 -17.542112350463867 1.3350050449371338
34.32021713256836 -17.776100158691406 1.327348232269287
34.34276580810547 -18.055957794189453 1.3137840032577515
34.3666877746582 -18.338638305664062 1.299957275390625
34.39105224609375 -18.62371826171875 1.285927653312683
30.829835891723633 -16.940980911254883 1.517759084701538
30.784347534179688 -17.16282081604004 1.5095174312591553
34.559444427490234 -19.546234130859375 1.2361630201339722
34.509578704833984 -19.7985782623291 1.2265535593032837
34.4941520690918 -20.072128295898438 1.2143988609313965
34.517059326171875 -20.370079040527344 1.1993801593780518
34.52903366088867 -20.663936614990234 1.184943675994873
34.56686019897461 -20.975793838500977 1.1684768199920654
34.54008483886719 -21.250709533691406 1.1564306020736694
34.500221252441406 -21.519224166870117 1.1451661586761475
34.506446838378906 -21.818449020385742 1.130403757095337
34.5052490234375 -22.115325927734375 1.115987777709961
34.59125900268555 -22.47118377685547 1.094980001449585
34.569976806640625 -22.760324478149414 1.0816192626953125
34.50493240356445 -23.02235221862793 1.071326494216919
34.627323150634766 -23.412446975708008 1.0468863248825073
34.72808837890625 -23.792499542236328 1.023752212524414
34.72873306274414 -24.10750961303711 1.0078836679458618
34.71864318847656 -24.417678833007812 0.9926128387451172
34.78570556640625 -24.785381317138672 0.9712262749671936
34.77347946166992 -25.09992027282715 0.9556559920310974
34.77642059326172 -25.428197860717773 0.9386928081512451
34.79026412963867 -25.76755142211914 0.920641303062439
34.796451568603516 -26.104433059692383 0.9029388427734375
34.80060577392578 -26.442964553833008 0.8851472735404968
34.84381866455078 -26.814783096313477 0.863998293876648
34.831817626953125 -27.147634506225586 0.8469699621200562
34.83661651611328 -27.49679946899414 0.828341007232666
34.88208770751953 -27.881935119628906 0.8061481714248657
34.74493408203125 -28.123626708984375 0.7985367178916931
34.75586700439453 -28.487409591674805 0.7786374688148499
34.88267517089844 -28.951168060302734 0.7488667368888855
34.85761260986328 -29.29363441467285 0.7313099503517151
34.850181579589844 -29.654338836669922 0.7120132446289062
34.91825866699219 -30.08379364013672 0.6860531568527222
34.88007736206055 -30.425979614257812 0.6687400937080383
34.85171890258789 -30.780057907104492 0.6503213047981262
34.9624137878418 -31.261974334716797 0.6196338534355164
34.98414611816406 -31.67005157470703 0.596207857131958
34.9558219909668 -32.03709030151367 0.5767993927001953
34.93162155151367 -32.41176223754883 0.5567251443862915
34.994319915771484 -32.872047424316406 0.5286262631416321
34.966609954833984 -33.25249099731445 0.5081690549850464
32.39584732055664 30.90886878967285 1.7683335542678833
32.369384765625 30.50673484802246 1.776687741279602
32.3194694519043 30.08771514892578 1.7861974239349365
32.459808349609375 29.849000930786133 1.7846808433532715
32.50746536254883 29.527070999145508 1.7883139848709106
32.47654342651367 29.13762664794922 1.7962450981140137
32.4091796875 28.720523834228516 1.8060585260391235
32.57324981689453 28.511314392089844 1.8026825189590454
32.583290100097656 28.16918182373047 1.8078393936157227
32.60404586791992 27.83968162536621 1.8122482299804688
32.60289764404297 27.494888305664062 1.8177341222763062
32.61640930175781 27.16586685180664 1.8222588300704956
32.62712097167969 26.837717056274414 1.8267974853515625
32.6412467956543 26.515501022338867 1.831010103225708
32.67447280883789 26.211626052856445 1.8340344429016113
32.68328094482422 25.890975952148438 1.8382723331451416
32.68466567993164 25.56751823425293 1.8427846431732178
32.7236442565918 25.276161193847656 1.845110297203064
32.72454071044922 24.95802879333496 1.8493916988372803
32.73313903808594 24.648651123046875 1.8531254529953003
32.74159240722656 24.341899871826172 1.8567428588867188
32.64845657348633 23.96326446533203 1.8657385110855103
32.543827056884766 23.580833435058594 1.8752108812332153
32.5340690612793 23.270915985107422 1.8794240951538086
32.6572151184082 23.057661056518555 1.8763664960861206
32.63144302368164 22.74095344543457 1.8812158107757568
32.68368148803711 22.48091697692871 1.8817641735076904
32.505001068115234 22.065671920776367 1.894562005996704
32.57229995727539 21.820833206176758 1.8940790891647339
32.63948440551758 21.57710075378418 1.8935050964355469
32.714115142822266 21.33936882019043 1.8924388885498047
32.69129180908203 21.039899826049805 1.8964571952819824
32.548805236816406 20.667083740234375 1.9067132472991943
32.52659606933594 20.374238967895508 1.9104722738265991
32.6923942565918 20.200063705444336 1.9041811227798462
32.76087951660156 19.96587562561035 1.9029535055160522
32.584556579589844 19.58544921875 1.9145493507385254
32.545745849609375 19.291484832763672 1.9187777042388916
32.686546325683594 19.105091094970703 1.9134533405303955
32.806373596191406 18.90622901916504 1.9091517925262451
32.8390007019043 18.657756805419922 1.909347653388977
32.818397521972656 18.380796432495117 1.9122446775436401
32.868228912353516 18.14486312866211 1.9113560914993286
32.978694915771484 17.94290542602539 1.9072061777114868
33.006927490234375 17.69685173034668 1.9072760343551636
33.030738830566406 17.449724197387695 1.9074889421463013
33.04390335083008 17.198360443115234 1.9081701040267944
33.050785064697266 16.945213317871094 1.9090914726257324
33.06650924682617 16.698030471801758 1.9094642400741577
33.06435012817383 16.443288803100586 1.910683274269104
33.086326599121094 16.201942443847656 1.9105585813522339
33.104793548583984 15.960077285766602 1.9105333089828491
33.11251449584961 15.714310646057129 1.9109829664230347
33.12118911743164 15.470320701599121 1.9112999439239502
33.139915466308594 15.232239723205566 1.9110113382339478
33.17881774902344 15.004386901855469 1.909594178199768
33.134944915771484 14.740496635437012 1.9123952388763428
33.15314483642578 14.5057373046875 1.9118903875350952
33.15687561035156 14.26578426361084 1.9120585918426514
33.15890884399414 14.026329040527344 1.9122341871261597
33.1915397644043 13.80080795288086 1.9107435941696167
33.19306182861328 13.563323974609375 1.9107890129089355
33.22907638549805 13.340853691101074 1.9089666604995728
33.09449768066406 13.051759719848633 1.9159202575683594
33.140193939208984 12.835524559020996 1.913442611694336
33.52617645263672 12.749152183532715 1.8932255506515503
33.67745590209961 12.570853233337402 1.8851103782653809
33.71807861328125 12.350982666015625 1.8826625347137451
33.73188781738281 12.121966361999512 1.8815306425094604
33.737571716308594 11.890920639038086 1.8807456493377686
33.74640655517578 11.661892890930176 1.8797216415405273
33.75275802612305 11.432880401611328 1.8787518739700317
33.77653121948242 11.21052360534668 1.8768017292022705
33.783653259277344 10.983362197875977 1.8756431341171265
33.79497146606445 10.758354187011719 1.8741925954818726
33.80575180053711 10.533914566040039 1.8726962804794312
33.795955657958984 10.303922653198242 1.8721994161605835
33.79704666137695 10.078157424926758 1.8710627555847168
33.81869888305664 9.8591947555542 1.868781328201294
33.8437385559082 9.641712188720703 1.8662502765655518
33.86930847167969 9.42482852935791 1.8636170625686646
33.875179290771484 9.20301628112793 1.8619413375854492
33.87285232543945 8.979698181152344 1.860623836517334
33.86808776855469 8.756501197814941 1.8593621253967285
33.894798278808594 8.541997909545898 1.8563810586929321
33.87455749511719 8.316305160522461 1.855790138244629
33.90431213378906 8.103485107421875 1.8525056838989258
33.923004150390625 7.888350009918213 1.849729299545288
33.91889953613281 7.6684441566467285 1.848081350326538
33.931907653808594 7.45295524597168 1.8454614877700806
33.95039367675781 7.239051818847656 1.8424826860427856
33.9616584777832 7.023987293243408 1.839812994003296
33.977439880371094 6.8102335929870605 1.8368333578109741
33.98011779785156 6.594266891479492 1.8344762325286865
33.98044204711914 6.378337860107422 1.8321744203567505
33.99413299560547 6.165324687957764 1.8290934562683105
33.994686126708984 5.950316905975342 1.8266396522521973
34.00668716430664 5.737692356109619 1.82350754737854
34.0272102355957 5.526744365692139 1.8198497295379639
34.026695251464844 5.31267786026001 1.8172433376312256
34.00607681274414 5.09601354598999 1.8156417608261108
34.03547668457031 4.887180805206299 1.8112975358963013
34.04578399658203 4.675732135772705 1.8079017400741577
34.058746337890625 4.464858531951904 1.8042937517166138
34.073368072509766 4.254372596740723 1.8005235195159912
34.09264373779297 4.044578552246094 1.7964303493499756
33.54301834106445 3.770904302597046 1.822970986366272
33.509681701660156 3.559173107147217 1.8216301202774048
33.5654296875 3.3570337295532227 1.815401554107666
33.63188552856445 3.1554622650146484 1.808512568473816
33.653358459472656 2.9493649005889893 1.8039864301681519
33.66262435913086 2.742229700088501 1.8000519275665283
33.680572509765625 2.5358400344848633 1.7955718040466309
13.082147598266602 0.9045507311820984 2.918191432952881
33.68476486206055 2.1209564208984375 1.7881293296813965
33.659019470214844 1.9121413230895996 1.7858302593231201
33.66389846801758 1.7053364515304565 1.781781792640686
13.184835433959961 0.5870983004570007 2.9067111015319824
13.151183128356934 0.5047948956489563 2.907034397125244
19.31831169128418 0.6226849555969238 2.564101219177246
12.75296401977539 0.33290648460388184 2.9259791374206543
12.440226554870605 0.2484039068222046 2.941800594329834
33.738365173339844 0.4659976363182068 1.753466248512268
12.464132308959961 0.0959390178322792 2.937330722808838
12.619158744812012 0.01971864327788353 2.927042245864868
12.643914222717285 -0.05780314281582832 2.92399525642395
12.748062133789062 -0.1364859640598297 2.9164493083953857
12.749892234802246 -0.2147311270236969 2.914616346359253
33.80308151245117 -0.7773898839950562 1.7229907512664795
33.814395904541016 -0.9852187633514404 1.7176129817962646
33.82343673706055 -1.1931819915771484 1.7122875452041626
12.487056732177734 -0.516969621181488 2.92238187789917
12.536417007446289 -0.5960707664489746 2.917731523513794
13.131592750549316 -0.7051501870155334 2.8817954063415527
12.83293628692627 -0.768081545829773 2.896949291229248
11.881516456604004 -0.7842845320701599 2.949728488922119
12.244826316833496 -0.8837540745735168 2.9269134998321533
12.435158729553223 -0.9742148518562317 2.9139647483825684
12.418912887573242 -1.0496331453323364 2.912912130355835
12.377351760864258 -1.122633934020996 2.913308620452881
12.722892761230469 -1.2327247858047485 2.8911030292510986
33.90359115600586 -3.4956560134887695 1.649582862854004
13.338781356811523 -1.4578214883804321 2.8506669998168945
13.323539733886719 -1.5389270782470703 2.8492658138275146
33.948699951171875 -4.133039951324463 1.6293926239013672
33.93928146362305 -4.343357563018799 1.6239358186721802
33.96220016479492 -4.55823278427124 1.6164780855178833
33.96893310546875 -4.771470069885254 1.6098917722702026
33.9891357421875 -4.987137794494629 1.602413535118103
33.98625946044922 -5.199912071228027 1.5962260961532593
33.99880599975586 -5.415509223937988 1.5890247821807861
34.01096725463867 -5.63162088394165 1.5817557573318481
34.008968353271484 -5.845888137817383 1.5752512216567993
29.27376365661621 -5.216996192932129 1.8560446500778198
34.04704666137695 -6.28349494934082 1.559414267539978
34.04975891113281 -6.500270366668701 1.5523477792739868
34.030517578125 -6.713259220123291 1.5465348958969116
33.973758697509766 -6.918887615203857 1.5429463386535645
33.90403366088867 -7.121611595153809 1.5400890111923218
33.916019439697266 -7.341693878173828 1.5321063995361328
33.97042465209961 -7.571964263916016 1.5213866233825684
33.98143768310547 -7.79358434677124 1.5132542848587036
34.027923583984375 -8.024332046508789 1.502800464630127
34.055389404296875 -8.25171184539795 1.4934226274490356
34.03872299194336 -8.469127655029297 1.4867178201675415
34.06999206542969 -8.69924545288086 1.4768863916397095
34.09005355834961 -8.927536964416504 1.4676514863967896
34.1529426574707 -9.168307304382324 1.455574870109558
34.13042068481445 -9.387157440185547 1.448831558227539
34.10649871826172 -9.606077194213867 1.4420850276947021
34.09843444824219 -9.830034255981445 1.4342219829559326
34.13676834106445 -10.06837272644043 1.423251986503601
34.1170768737793 -10.290547370910645 1.4159266948699951
34.14458465576172 -10.52785873413086 1.4054229259490967
34.1152458190918 -10.748498916625977 1.398518443107605
34.17853927612305 -10.9994478225708 1.3854241371154785
34.13667678833008 -11.21761417388916 1.3791275024414062
34.12465286254883 -11.44615650177002 1.3707618713378906
34.18003463745117 -11.698567390441895 1.3577980995178223
34.161983489990234 -11.92708683013916 1.349596381187439
34.13865280151367 -12.154486656188965 1.341639757156372
34.16165542602539 -12.399415969848633 1.3304524421691895
34.25032424926758 -12.670015335083008 1.3146854639053345
34.31173324584961 -12.932665824890137 1.3005963563919067
34.30784606933594 -13.172221183776855 1.2908045053482056
34.32926559448242 -13.422755241394043 1.2791532278060913
34.34239959716797 -13.671463966369629 1.2679296731948853
34.336204528808594 -13.913717269897461 1.2579059600830078
34.34861373901367 -14.16478157043457 1.2464598417282104
34.36290740966797 -14.418065071105957 1.234740972518921
34.35060501098633 -14.661481857299805 1.2247414588928223
34.3576545715332 -14.914426803588867 1.2132480144500732
29.549951553344727 -13.043482780456543 1.542333722114563
34.42182922363281 -15.447147369384766 1.1862664222717285
34.42234802246094 -15.701897621154785 1.1747840642929077
34.4255485534668 -15.959333419799805 1.1629613637924194
34.41244125366211 -16.210596084594727 1.1521646976470947
34.44074630737305 -16.482975006103516 1.1382263898849487
34.44276428222656 -16.744531631469727 1.126028299331665
34.471492767333984 -17.020870208740234 1.1117206811904907
34.47492599487305 -17.286563873291016 1.0990930795669556
34.394588470458984 -17.51128578186035 1.0924925804138184
34.37749099731445 -17.769119262695312 1.081093192100525
34.409767150878906 -18.054296493530273 1.0658576488494873
34.40548324584961 -18.322240829467773 1.0531734228134155
34.417633056640625 -18.600778579711914 1.0390819311141968
34.414527893066406 -18.872953414916992 1.0259655714035034
30.794458389282227 -17.134353637695312 1.2881479263305664
34.5672492980957 -19.51247215270996 0.9870417714118958
34.58250427246094 -19.801977157592773 0.9719213843345642
34.53423309326172 -20.056825637817383 0.961517333984375
