# .PCD v0.7 - Point Cloud Data file format
VERSION 0.7
FIELDS x y z
SIZE 4 4 4
TYPE F F F
COUNT 1 1 1
WIDTH 849
HEIGHT 1
VIEWPOINT 0 0 0 1 0 0 0
POINTS 849
DATA ascii
34.05512619018555 -8.270543098449707 0.8659835457801819
34.05949401855469 -8.493261337280273 0.8569035530090332
34.092350006103516 -8.724006652832031 0.8453652858734131
34.106292724609375 -8.950921058654785 0.8352339267730713
34.107177734375 -9.175230026245117 0.8260399699211121
34.101783752441406 -9.398563385009766 0.8172342777252197
34.10452651977539 -9.624883651733398 0.8076261878013611
34.133541107177734 -9.859615325927734 0.7956973910331726
34.13227844238281 -10.086592674255371 0.7861448526382446
34.091339111328125 -10.302393913269043 0.7797781229019165
34.18332290649414 -10.559550285339355 0.7621306777000427
34.15175247192383 -10.779823303222656 0.7547056078910828
34.143428802490234 -11.008061408996582 0.7451915740966797
34.16293716430664 -11.246262550354004 0.7331776022911072
34.15718460083008 -11.477185249328613 0.7231601476669312
34.18288040161133 -11.719772338867188 0.7103108763694763
34.19558334350586 -11.959159851074219 0.6984119415283203
34.15311813354492 -12.180065155029297 0.6911093592643738
34.11391067504883 -12.402603149414062 0.6834010481834412
34.24616241455078 -12.689176559448242 0.6606816649436951
34.28478240966797 -12.943345069885254 0.6458777189254761
34.284358978271484 -13.184157371520996 0.634306788444519
34.29154586791992 -13.429085731506348 0.6219082474708557
34.3062629699707 -13.678291320800781 0.6086791753768921
34.3321418762207 -13.933429718017578 0.594288170337677
34.32669448852539 -14.177227020263672 0.5824973583221436
34.34251403808594 -14.431136131286621 0.568644642829895
34.32717514038086 -14.673237800598145 0.5574015974998474
34.33757400512695 -14.927614212036133 0.5436815619468689
29.47671127319336 -13.0304594039917 0.9699723720550537
34.39376449584961 -15.456778526306152 0.5124785900115967
34.39488983154297 -15.711751937866211 0.4990338981151581
34.38423538208008 -15.9627046585083 0.4864847660064697
34.42045974731445 -16.237077713012695 0.469448059797287
34.405174255371094 -16.48880958557129 0.45695027709007263
34.44184875488281 -16.767133712768555 0.43945634365081787
34.44691848754883 -17.03195571899414 0.4246821701526642
34.42776107788086 -17.286293029785156 0.41197457909584045
34.368595123291016 -17.521574020385742 0.40284380316734314
34.316688537597656 -17.76136589050293 0.39287757873535156
34.419273376464844 -18.08320426940918 0.36809369921684265
34.36003112792969 -18.32210922241211 0.35843703150749207
34.378902435302734 -18.6041259765625 0.3411400318145752
30.804777145385742 -16.915531158447266 0.6693585515022278
30.795801162719727 -17.157501220703125 0.6559516191482544
34.55861282348633 -19.5325984954834 0.2758848965167999
34.546630859375 -19.806644439697266 0.2605920732021332
34.50845718383789 -20.06725311279297 0.2476513683795929
34.538761138916016 -20.369644165039062 0.2277611792087555
34.5897331237793 -20.686967849731445 0.20555701851844788
34.48644256591797 -20.913721084594727 0.19842511415481567
34.3740348815918 -21.135292053222656 0.19206705689430237
34.47074890136719 -21.487506866455078 0.1645296961069107
34.4700813293457 -21.78209114074707 0.146490678191185
34.6013298034668 -22.163454055786133 0.11477913707494736
34.55451583862305 -22.43385887145996 0.10086812824010849
30.422779083251953 -20.287033081054688 0.4896988570690155
30.251949310302734 -20.44257354736328 0.4902927577495575
29.83135414123535 -21.243854522705078 0.46422985196113586
30.183238983154297 -21.774965286254883 0.4085488021373749
29.76231575012207 -21.75043487548828 0.43521881103515625
29.679964065551758 -21.97110366821289 0.42554372549057007
29.619935989379883 -22.20950698852539 0.41327202320098877
29.600141525268555 -22.47993278503418 0.39639613032341003
29.567081451416016 -22.742448806762695 0.38072139024734497
33.88829040527344 -29.915271759033203 -0.3613201677799225
33.73258972167969 -30.148448944091797 -0.3694067895412445
33.64251708984375 -30.441661834716797 -0.3855089247226715
33.594913482666016 -30.775941848754883 -0.40700358152389526
20.19120979309082 -18.959339141845703 1.1716445684432983
20.0308895111084 -19.04165267944336 1.1741843223571777
32.35826873779297 30.905590057373047 0.6814390420913696
31.45091438293457 29.672574996948242 0.7770012617111206
15.548379898071289 14.490601539611816 2.2276463508605957
31.668701171875 29.15275001525879 0.7821120023727417
31.656843185424805 28.785438537597656 0.7952148914337158
32.0017204284668 28.742733001708984 0.7761906385421753
32.3300895690918 28.6816463470459 0.7586265206336975
32.49605178833008 28.47490882873535 0.7554242014884949
32.55205154418945 28.17319107055664 0.761786162853241
32.55476760864258 27.828420639038086 0.7726180553436279
32.58879089355469 27.513643264770508 0.7804649472236633
32.61098861694336 27.191831588745117 0.789122998714447
32.60968017578125 26.85365867614746 0.7996021509170532
32.61784362792969 26.526599884033203 0.8090266585350037
32.64656448364258 26.219196319580078 0.8164527416229248
32.6493034362793 25.893842697143555 0.8259063363075256
32.67991638183594 25.593435287475586 0.8327513933181763
32.682037353515625 25.27348518371582 0.841830313205719
32.702877044677734 24.970827102661133 0.8491032123565674
32.683807373046875 24.640634536743164 0.8595654964447021
32.73794937133789 24.368209838867188 0.8636153340339661
32.744964599609375 24.062963485717773 0.8714670538902283
32.55565643310547 23.617948532104492 0.8956330418586731
32.604671478271484 23.349851608276367 0.899524450302124
32.68503189086914 23.105653762817383 0.9006262421607971
32.689170837402344 22.809396743774414 0.9079314470291138
32.72213363647461 22.535463333129883 0.9126543998718262
32.79010009765625 22.287221908569336 0.9143053889274597
32.75103759765625 21.968412399291992 0.9246577620506287
32.781681060791016 21.69883155822754 0.9290634989738464
32.79939270019531 21.422605514526367 0.9343701004981995
32.83927917480469 21.162656784057617 0.9376896023750305
32.83848571777344 20.878402709960938 0.9441852569580078
32.83883285522461 20.597074508666992 0.9504186511039734
32.83951187133789 20.31810188293457 0.956458330154419
32.89080810546875 20.07211685180664 0.9582168459892273
32.84032440185547 19.76607894897461 0.9680932760238647
32.90571594238281 19.53168296813965 0.968406081199646
32.929866790771484 19.2740478515625 0.9719170928001404
32.9114875793457 18.99341583251953 0.9787110686302185
32.904788970947266 18.72163200378418 0.9844057559967041
32.81682586669922 18.406234741210938 0.9964764714241028
32.87465286254883 18.174673080444336 0.9966771006584167
32.95978546142578 17.958843231201172 0.9945608377456665
32.99077606201172 17.714336395263672 0.9966503977775574
33.01913070678711 17.46965980529785 0.9988130927085876
33.0324592590332 17.218385696411133 1.0020387172698975
33.03418731689453 16.96259307861328 1.0060482025146484
33.048274993896484 16.714628219604492 1.0089374780654907
33.05788803100586 16.465795516967773 1.012046217918396
33.06748580932617 16.218353271484375 1.0150222778320312
33.081581115722656 15.974446296691895 1.0175093412399292
33.09663772583008 15.732261657714844 1.0197899341583252
33.11358642578125 15.492183685302734 1.021791696548462
33.13246154785156 15.254157066345215 1.0235134363174438
33.15330505371094 15.01812744140625 1.0249555110931396
33.10963439941406 14.754404067993164 1.0313432216644287
33.11513900756836 14.514201164245605 1.0337345600128174
33.1253662109375 14.27724838256836 1.0356312990188599
33.15046310424805 14.047722816467285 1.0362392663955688
33.14820861816406 13.807683944702148 1.0388689041137695
33.18857192993164 13.586339950561523 1.038042664527893
33.222843170166016 13.363158226013184 1.0375758409500122
33.0821647644043 13.071528434753418 1.0506542921066284
33.104679107666016 12.846351623535156 1.0508626699447632
33.474246978759766 12.754197120666504 1.0238971710205078
33.67202377319336 12.59369945526123 1.0102380514144897
33.721160888671875 12.376957893371582 1.008054494857788
33.7294921875 12.145894050598145 1.0089343786239624
33.740020751953125 11.916522026062012 1.0095268487930298
33.74241638183594 11.68519115447998 1.0106372833251953
33.74418640136719 11.45460033416748 1.0116808414459229
33.75954055786133 11.229461669921875 1.0115556716918945
33.78099060058594 11.007035255432129 1.010844349861145
33.78578567504883 10.77991771697998 1.0113142728805542
33.79192352294922 10.554045677185059 1.0115681886672974
33.79751968383789 10.3287935256958 1.0117533206939697
33.799713134765625 10.10329818725586 1.0120915174484253
33.822425842285156 9.88459587097168 1.010728359222412
33.826473236083984 9.661065101623535 1.010703444480896
33.84730529785156 9.442946434020996 1.0092684030532837
33.860965728759766 9.223361015319824 1.0082818269729614
33.84428405761719 8.99627685546875 1.0095386505126953
33.86085510253906 8.778752326965332 1.0081110000610352
33.873130798339844 8.560628890991211 1.0069092512130737
33.89659118652344 8.345780372619629 1.004732608795166
33.899295806884766 8.126317977905273 1.0040602684020996
33.908355712890625 7.908946514129639 1.0027885437011719
33.911163330078125 7.690664291381836 1.001896619796753
33.93301773071289 7.47714900970459 0.9994211196899414
33.943782806396484 7.261568069458008 0.9977013468742371
33.950252532958984 7.045526504516602 0.9962102174758911
33.95241928100586 6.829087734222412 0.9949496388435364
33.95515823364258 6.6132659912109375 0.9935397505760193
33.95849609375 6.398035526275635 0.9919809699058533
33.97518539428711 6.185690402984619 0.9892784357070923
33.98367691040039 5.972170829772949 0.9871111512184143
33.997703552246094 5.759943962097168 0.9844081997871399
34.005489349365234 5.546965599060059 0.9820882081985474
33.9991340637207 5.332098007202148 0.9807685613632202
34.00522994995117 5.119593143463135 0.9783754348754883
34.02381134033203 4.909205436706543 0.9749031066894531
34.03517150878906 4.697962760925293 0.9718915224075317
34.054107666015625 4.487935543060303 0.9681832790374756
34.056915283203125 4.2759881019592285 0.9656342267990112
34.0732536315918 4.065944194793701 0.9619230031967163
33.63259506225586 3.804318904876709 0.993976891040802
33.50526809692383 3.58194899559021 1.0013784170150757
33.53619384765625 3.37736439704895 0.9962539672851562
33.60953903198242 3.1766602993011475 0.9876842498779297
33.64592742919922 2.9720239639282227 0.9819151163101196
33.65424346923828 2.7648544311523438 0.9782537817955017
33.668243408203125 2.5582218170166016 0.9740409255027771
33.667049407958984 2.3505473136901855 0.9709265232086182
33.683475494384766 2.1441850662231445 0.9663158059120178
15.757490158081055 0.9062775373458862 2.3843495845794678
15.78847885131836 0.8109353184700012 2.3802452087402344
15.796980857849121 0.7142559289932251 2.377875328063965
15.784969329833984 0.6167239546775818 2.3770883083343506
15.7992582321167 0.5202504396438599 2.374159574508667
15.828895568847656 0.42405062913894653 2.3699538707733154
15.835027694702148 0.3270329236984253 2.3675734996795654
15.806673049926758 0.22946391999721527 2.3679046630859375
33.759334564208984 0.28254765272140503 0.9258508682250977
12.99903678894043 0.02929254248738289 2.5894627571105957
12.991862297058105 -0.05041477456688881 2.5883285999298096
33.78168869018555 -0.3389245271682739 0.9107115864753723
33.77463912963867 -0.5460646152496338 0.9066228866577148
33.777278900146484 -0.7533776760101318 0.9016477465629578
11.850370407104492 -0.33680662512779236 2.6735825538635254
33.805633544921875 -1.1690914630889893 0.8895063400268555
33.80842971801758 -1.37687349319458 0.8841964602470398
33.74821090698242 -1.5818418264389038 0.8839124441146851
13.111039161682129 -0.694936215877533 2.563459634780884
12.813881874084473 -0.7580312490463257 2.5856716632843018
12.850629806518555 -0.8393447995185852 2.5805702209472656
33.860862731933594 -2.4209539890289307 0.8528609275817871
12.622483253479004 -0.9800986051559448 2.595032215118408
33.854713439941406 -2.83840274810791 0.8417776823043823
12.963610649108887 -1.166773796081543 2.562436103820801
33.904911041259766 -3.261991024017334 0.8255887627601624
33.91265106201172 -3.4728405475616455 0.8187533020973206
33.924034118652344 -3.6844475269317627 0.8114995956420898
33.92716598510742 -3.895531415939331 0.8048170208930969
33.93095016479492 -4.107033729553223 0.7979627251625061
33.927494049072266 -4.317976474761963 0.7915998697280884
33.93753433227539 -4.53101110458374 0.7839882969856262
33.95808410644531 -4.7459893226623535 0.7753726243972778
33.955570220947266 -4.958223819732666 0.7685754895210266
33.96158218383789 -5.172108173370361 0.7609407305717468
33.99577331542969 -5.390937805175781 0.7507947087287903
33.97545623779297 -5.601629257202148 0.7451480627059937
12.764835357666016 -2.184863805770874 2.54573917388916
13.419212341308594 -2.381727695465088 2.4869511127471924
34.02231216430664 -6.254665851593018 0.718294084072113
34.0328483581543 -6.472729682922363 0.7095174789428711
34.025367736816406 -6.687891960144043 0.702163577079773
33.96867370605469 -6.893497467041016 0.69893878698349
33.92244338989258 -7.101111888885498 0.6947077512741089
33.93825149536133 -7.322079658508301 0.6849813461303711
33.97596740722656 -7.548698425292969 0.6732081770896912
34.06462478637695 -7.788047790527344 0.656833827495575
34.06528854370117 -8.008475303649902 0.647993803024292
34.10908508300781 -8.239970207214355 0.6352293491363525
34.09522247314453 -8.458388328552246 0.6273910403251648
34.098304748535156 -8.681619644165039 0.6179252862930298
34.1153564453125 -8.9092378616333 0.6070803999900818
34.118377685546875 -9.13404369354248 0.5973371863365173
34.12088394165039 -9.359485626220703 0.5874980092048645
34.14876174926758 -9.592850685119629 0.575242817401886
34.146324157714844 -9.818649291992188 0.5655521750450134
34.1787223815918 -10.05546760559082 0.5525779724121094
34.159881591796875 -10.27812671661377 0.5440725088119507
34.19672393798828 -10.518508911132812 0.5303775072097778
34.187225341796875 -10.74569034576416 0.5207292437553406
34.1790771484375 -10.974067687988281 0.5108132362365723
34.17791748046875 -11.20554256439209 0.5001084804534912
34.21015930175781 -11.449116706848145 0.48617565631866455
34.2095832824707 -11.68288516998291 0.475096195936203
34.20365524291992 -11.915767669677734 0.4643550515174866
34.17174530029297 -12.14034652709961 0.45587337017059326
34.16084671020508 -12.373127937316895 0.44529053568840027
34.253971099853516 -12.64521598815918 0.42480435967445374
34.29375076293945 -12.89962387084961 0.40910467505455017
34.30192565917969 -13.143590927124023 0.3961917459964752
34.31117630004883 -13.389230728149414 0.38299962878227234
34.340911865234375 -13.644307136535645 0.36767902970314026
34.333709716796875 -13.88606071472168 0.35568881034851074
34.33220291137695 -14.13127326965332 0.34298059344291687
34.3326416015625 -14.378530502319336 0.329905241727829
34.310264587402344 -14.617345809936523 0.3188536465167999
34.33102035522461 -14.875834465026855 0.30344903469085693
29.507152557373047 -13.001274108886719 0.7597344517707825
34.40776824951172 -15.413540840148926 0.26858124136924744
34.37649154663086 -15.653604507446289 0.2576529085636139
34.41497039794922 -15.926915168762207 0.23967653512954712
34.35584259033203 -16.156354904174805 0.23113781213760376
34.4236946105957 -16.44707489013672 0.20981645584106445
34.3781623840332 -16.685306549072266 0.19956019520759583
34.29258346557617 -16.904664993286133 0.1931549608707428
34.36234664916992 -17.202072143554688 0.17096082866191864
34.02311706542969 -17.294273376464844 0.18989306688308716
34.30093002319336 -17.701316833496094 0.14617665112018585
33.767791748046875 -17.68953514099121 0.18481864035129547
34.2464714050293 -18.209123611450195 0.11991602182388306
34.17398452758789 -18.44059181213379 0.11115384101867676
34.10431671142578 -18.674251556396484 0.10194070637226105
29.8344669342041 -21.192670822143555 0.22921337187290192
30.198062896728516 -21.731199264526367 0.16839873790740967
29.795812606811523 -21.720693588256836 0.19521425664424896
29.710420608520508 -21.939117431640625 0.18549080193042755
29.646587371826172 -22.17460823059082 0.17307054996490479
29.596057891845703 -22.42156219482422 0.15887682139873505
29.600479125976562 -22.71237564086914 0.1379590779542923
33.75960159301758 -26.234712600708008 -0.37687253952026367
33.641326904296875 -26.475765228271484 -0.38671359419822693
33.57508087158203 -26.759172439575195 -0.4030056297779083
33.41519546508789 -26.968978881835938 -0.4082466661930084
32.74907302856445 -26.765159606933594 -0.3520126938819885
32.60829544067383 -26.9858341217041 -0.3594945967197418
32.411865234375 -27.160388946533203 -0.36028727889060974
32.20692443847656 -27.327112197875977 -0.36011022329330444
32.02079772949219 -27.50921630859375 -0.36235281825065613
31.829137802124023 -27.68614959716797 -0.3640039265155792
31.580482482910156 -27.812423706054688 -0.3585447669029236
31.34040069580078 -27.94464111328125 -0.35417798161506653
31.170827865600586 -28.139009475708008 -0.3588584363460541
31.05221939086914 -28.380033493041992 -0.3702467679977417
31.159299850463867 29.76235008239746 0.5112499594688416
31.278501510620117 29.511804580688477 0.513634979724884
15.538339614868164 14.481622695922852 2.090808153152466
31.343910217285156 28.855682373046875 0.5349172353744507
31.364240646362305 28.521305084228516 0.5463743209838867
31.53376579284668 28.324390411376953 0.5429361462593079
31.706531524658203 28.13043975830078 0.5390378832817078
31.896100997924805 27.951208114624023 0.5333654284477234
31.973814010620117 27.674758911132812 0.5383963584899902
32.02584457397461 27.378320693969727 0.5456930994987488
32.34138870239258 27.30683135986328 0.5274506211280823
32.504066467285156 27.104751586914062 0.5238052606582642
14.558902740478516 11.989850997924805 2.2461154460906982
14.635871887207031 11.903470993041992 2.2439398765563965
14.662568092346191 11.776629447937012 2.246462106704712
14.710137367248535 11.667258262634277 2.246922492980957
14.706671714782715 11.518393516540527 2.2521002292633057
14.693258285522461 11.363299369812012 2.258099317550659
14.717337608337402 11.238462448120117 2.2604846954345703
14.69983196258545 11.083136558532715 2.2666492462158203
14.760171890258789 10.987403869628906 2.2654831409454346
14.801408767700195 10.877764701843262 2.2660176753997803
14.871721267700195 10.789700508117676 2.2637975215911865
14.86368179321289 10.645437240600586 2.2687156200408936
14.915505409240723 10.544855117797852 2.2680506706237793
14.965018272399902 10.44289779663086 2.267529010772705
15.029447555541992 10.351473808288574 2.2655813694000244
15.158467292785645 10.303939819335938 2.257709503173828
15.04814338684082 10.0946626663208 2.2714805603027344
15.082173347473145 9.98400592803955 2.272071361541748
15.110404968261719 9.870038986206055 2.2731118202209473
15.136969566345215 9.755562782287598 2.2742269039154053
15.169431686401367 9.645411491394043 2.2747392654418945
15.204492568969727 9.537347793579102 2.2749476432800293
15.255756378173828 9.439709663391113 2.273641586303711
15.312355041503906 9.345437049865723 2.271798610687256
15.372639656066895 9.253396034240723 2.269568920135498
15.426370620727539 9.157402038574219 2.2678613662719727
15.464872360229492 9.052534103393555 2.267439365386963
32.91231155395508 18.996095657348633 0.7319591641426086
32.94725799560547 18.74799919128418 0.734901487827301
32.83082580566406 18.416288375854492 0.7509818077087402
32.85904312133789 18.16824722290039 0.7541791796684265
32.94587326049805 17.953474044799805 0.752098560333252
32.99001693725586 17.716144561767578 0.7536121606826782
33.02367401123047 17.474288940429688 0.7558947205543518
33.01494598388672 17.21147918701172 0.7617182731628418
33.03350830078125 16.96446990966797 0.7650129199028015
33.04317092895508 16.714275360107422 0.7689326405525208
33.05725860595703 16.467714309692383 0.772319495677948
33.06240463256836 16.218093872070312 0.7763325572013855
33.07562255859375 15.973800659179688 0.7795029878616333
33.095184326171875 15.733807563781738 0.7819824814796448
33.10312271118164 15.489527702331543 0.7853215932846069
33.123802185058594 15.252411842346191 0.7874243259429932
33.146453857421875 15.017271041870117 0.789219319820404
33.115570068359375 14.75929069519043 0.7954681515693665
33.107421875 14.5130615234375 0.7996239066123962
33.12405776977539 14.278931617736816 0.8015209436416626
33.13906478881836 14.04514217376709 0.8034230470657349
33.142337799072266 13.807488441467285 0.8061951398849487
33.17715835571289 13.583919525146484 0.806143581867218
33.21788024902344 13.363419532775879 0.8054620623588562
33.078216552734375 13.072214126586914 0.8200010657310486
33.10816955566406 12.849956512451172 0.8199708461761475
33.46919631958008 12.75455379486084 0.7917017936706543
33.665950775146484 12.593729019165039 0.777291476726532
33.72255325317383 12.379777908325195 0.7746608853340149
33.73184585571289 12.149051666259766 0.7759183049201965
33.736759185791016 11.917680740356445 0.7774195075035095
33.73351287841797 11.68442153930664 0.7794844508171082
33.7371711730957 11.454532623291016 0.7808399796485901
33.74968719482422 11.228499412536621 0.7813221216201782
33.760704040527344 11.002741813659668 0.7818081974983215
33.7854118347168 10.782118797302246 0.7810150980949402
33.80202865600586 10.559524536132812 0.7807855606079102
33.80003356933594 10.331886291503906 0.7820056080818176
33.79842758178711 10.10523796081543 0.7830711603164673
33.81827926635742 9.885708808898926 0.782207727432251
33.8194580078125 9.661386489868164 0.782799243927002
33.83835983276367 9.442779541015625 0.78177809715271
33.84527587890625 9.221418380737305 0.7816495895385742
33.83823013305664 8.996997833251953 0.7825796604156494
33.84417724609375 8.776761054992676 0.7822983264923096
33.86416244506836 8.560697555541992 0.7807175517082214
33.88567352294922 8.345433235168457 0.7788925766944885
33.90872573852539 8.130919456481934 0.7768210172653198
33.896453857421875 7.908510208129883 0.7776115536689758
33.90411376953125 7.691406726837158 0.776608407497406
33.92012023925781 7.476650714874268 0.7747867107391357
33.93866729736328 7.262819766998291 0.7726362347602844
33.94805908203125 7.047419548034668 0.7711440324783325
33.94827651977539 6.83060359954834 0.7703118920326233
33.951995849609375 6.6150007247924805 0.7690712213516235
33.95631408691406 6.3999762535095215 0.7676682472229004
33.97103500366211 6.187289237976074 0.7652739882469177
33.978538513183594 5.9736247062683105 0.7633761763572693
33.99059295654297 5.761097431182861 0.7609817981719971
33.99837112426758 5.548163890838623 0.7588366270065308
34.001861572265625 5.33488655090332 0.7569425702095032
34.00598907470703 5.122069358825684 0.7548828721046448
34.02456283569336 4.911678791046143 0.7514877319335938
34.035911560058594 4.700432777404785 0.7485926747322083
34.05089569091797 4.489881992340088 0.7452771663665771
34.056663513183594 4.278327941894531 0.7426314949989319
34.073978424072266 4.068405628204346 0.7388935089111328
33.61870193481445 3.8050808906555176 0.7752282619476318
33.49143600463867 3.5827927589416504 0.7836037278175354
33.52431106567383 3.37849497795105 0.7782484889030457
33.606536865234375 3.1787123680114746 0.7685720324516296
33.637935638427734 2.9736578464508057 0.7631102800369263
33.65120315551758 2.7669477462768555 0.7590837478637695
33.66121292114258 2.560032844543457 0.7552236318588257
33.666969299316406 2.352888822555542 0.7516174912452698
33.67443084716797 2.145958423614502 0.7477542757987976
15.751103401184082 0.906572163105011 2.2823781967163086
15.786046981811523 0.8114764094352722 2.2777657508850098
15.797526359558105 0.7149482369422913 2.2751128673553467
15.793477058410645 0.6177243590354919 2.273743152618408
15.817708969116211 0.521528959274292 2.269883871078491
15.825416564941406 0.42463040351867676 2.2673943042755127
15.831535339355469 0.327635258436203 2.264988422393799
15.812153816223145 0.23021668195724487 2.2647366523742676
33.744163513183594 0.28479093313217163 0.7077425122261047
12.050615310668945 0.02750217355787754 2.5873990058898926
12.143075942993164 -0.04676775634288788 2.577768564224243
12.962281227111816 -0.1294069141149521 2.5047640800476074
33.781314849853516 -0.5437918305397034 0.6864812970161438
33.783935546875 -0.7511432766914368 0.6814606189727783
12.171597480773926 -0.345613032579422 2.5684635639190674
11.77187442779541 -0.40656009316444397 2.60170578956604
33.80405807495117 -1.3743046522140503 0.6646332740783691
13.22451400756836 -0.6191913485527039 2.470263957977295
13.180529594421387 -0.6981894373893738 2.472041368484497
12.82880687713623 -0.7585153579711914 2.5009660720825195
12.833709716796875 -0.8378386497497559 2.4984068870544434
12.723857879638672 -0.9090917110443115 2.505974769592285
33.85640335083008 -2.6270806789398193 0.6267271041870117
12.84645938873291 -1.0764168500900269 2.490626573562622
13.028956413269043 -1.1722356081008911 2.4720442295074463
12.903385162353516 -1.240788459777832 2.4808788299560547
12.985555648803711 -1.3291378021240234 2.471111297607422
33.91640853881836 -3.6811933517456055 0.5903314352035522
33.91555404663086 -3.891770124435425 0.5838317275047302
33.91438293457031 -4.102596759796143 0.5772385597229004
33.930667877197266 -4.315945625305176 0.5689441561698914
33.951534271240234 -4.530440807342529 0.56010502576828
33.9493408203125 -4.742325305938721 0.5532239079475403
13.085994720458984 -1.9101595878601074 2.4436862468719482
13.119174003601074 -1.9972838163375854 2.4378347396850586
13.191119194030762 -2.0911238193511963 2.4283766746520996
13.231938362121582 -2.1809017658233643 2.4216878414154053
33.99307632446289 -5.816534042358398 0.5118982195854187
29.242603302001953 -5.18862247467041 0.9414377212524414
34.032955169677734 -6.254153728485107 0.49236351251602173
34.04539489746094 -6.472642421722412 0.4830774664878845
34.0144157409668 -6.683265209197998 0.4776790142059326
33.962608337402344 -6.889795303344727 0.4740981459617615
33.9134521484375 -7.096758842468262 0.47016072273254395
33.92143630981445 -7.315976619720459 0.46076467633247375
34.00091552734375 -7.551756381988525 0.444519579410553
34.09624481201172 -7.792779922485352 0.4266017973423004
34.083251953125 -8.010198593139648 0.4187101721763611
34.08726501464844 -8.232194900512695 0.40907448530197144
34.084999084472656 -8.453346252441406 0.39988771080970764
34.08805465698242 -8.676499366760254 0.39004990458488464
34.11662673950195 -8.90705394744873 0.3776282072067261
34.11671447753906 -9.131077766418457 0.3677678406238556
34.11821746826172 -9.356230735778809 0.35762161016464233
34.13549041748047 -9.586592674255371 0.3458046615123749
34.14164352416992 -9.814770698547363 0.3348972201347351
34.160606384277344 -10.047599792480469 0.3225899636745453
34.15415573120117 -10.273862838745117 0.3125860393047333
34.19189453125 -10.514473915100098 0.2981162965297699
34.18141555786133 -10.741310119628906 0.2881831228733063
34.16468811035156 -10.966893196105957 0.278707355260849
34.19000244140625 -11.20694351196289 0.264936238527298
34.198543548583984 -11.442663192749023 0.2526419460773468
34.15365219116211 -11.66121768951416 0.24547544121742249
34.221126556396484 -11.919278144836426 0.22698314487934113
34.140357971191406 -12.126622200012207 0.2230839878320694
34.048973083496094 -12.330037117004395 0.22013305127620697
34.17306137084961 -12.612762451171875 0.19539105892181396
34.307064056396484 -12.902029037475586 0.1693800389766693
34.303985595703125 -13.14177417755127 0.1569858342409134
34.29368591308594 -13.37979793548584 0.14514414966106415
34.22901916503906 -13.59724235534668 0.1386791616678238
33.81318283081055 -13.672959327697754 0.16807065904140472
33.760440826416016 -13.893359184265137 0.16024015843868256
33.68147659301758 -14.103248596191406 0.15497063100337982
33.60211944580078 -14.31308364868164 0.1496139019727707
33.590877532958984 -14.5525541305542 0.13703778386116028
29.494945526123047 -12.993749618530273 0.5512003898620605
30.812583923339844 -17.116153717041016 0.19839949905872345
20.56447410583496 -14.043627738952637 1.1633201837539673
19.9989070892334 -13.83825969696045 1.2183523178100586
19.892961502075195 -13.946383476257324 1.2181117534637451
19.733705520629883 -14.016273498535156 1.2243256568908691
19.63412094116211 -14.127748489379883 1.2232309579849243
19.563661575317383 -14.26021671295166 1.2184767723083496
19.553152084350586 -14.437272071838379 1.2061748504638672
19.517295837402344 -14.596857070922852 1.1968469619750977
19.549217224121094 -14.808815956115723 1.1788495779037476
19.51689910888672 -14.97386646270752 1.1687076091766357
19.503713607788086 -15.154951095581055 1.1559646129608154
29.12216567993164 -26.287242889404297 -0.3519785404205322
20.488544464111328 -18.723848342895508 0.8111588954925537
20.386810302734375 -18.861995697021484 0.8064186573028564
20.207910537719727 -18.928192138671875 0.8123341202735901
20.137975692749023 -19.09627342224121 0.8029573559761047
32.33953857421875 31.250591278076172 0.11032508313655853
30.906930923461914 29.502107620239258 0.28237617015838623
30.98970603942871 29.220333099365234 0.28905946016311646
15.516632080078125 14.45145034790039 1.9668841361999512
31.13151741027832 28.641563415527344 0.30422836542129517
31.24644660949707 28.395769119262695 0.3067484200000763
31.188907623291016 27.99647331237793 0.32734888792037964
31.261926651000977 27.718002319335938 0.33380842208862305
31.417448043823242 27.5139102935791 0.33135986328125
13.544106483459473 11.71466064453125 2.2161543369293213
13.5594482421875 11.583447456359863 2.2203240394592285
13.595027923583984 11.470488548278809 2.2222824096679688
13.614416122436523 11.34476375579834 2.2258241176605225
13.661255836486816 11.24267292022705 2.2264339923858643
13.705034255981445 11.138547897338867 2.227278232574463
13.677311897277832 10.977524757385254 2.2353532314300537
13.732500076293945 10.884138107299805 2.234846353530884
13.764294624328613 10.772668838500977 2.2366440296173096
13.80943775177002 10.672191619873047 2.2370047569274902
13.86337661743164 10.578821182250977 2.236402750015259
13.889620780944824 10.464795112609863 2.238513946533203
13.918190002441406 10.353224754333496 2.240305185317993
13.995725631713867 10.278281211853027 2.2371249198913574
14.026057243347168 10.168838500976562 2.238588571548462
14.075028419494629 10.073332786560059 2.2381224632263184
14.102191925048828 9.962655067443848 2.239743232727051
14.146512985229492 9.864563941955566 2.239590883255005
14.172101974487305 9.75387191772461 2.2412095069885254
14.218301773071289 9.657800674438477 2.240727424621582
14.257233619689941 9.557086944580078 2.2408876419067383
14.293804168701172 9.455158233642578 2.241206407546997
14.322983741760254 9.348782539367676 2.242171049118042
14.355588912963867 9.245102882385254 2.2427287101745605
14.400079727172852 9.149391174316406 2.2420647144317627
14.428735733032227 9.043953895568848 2.242861032485962
14.474443435668945 8.949515342712402 2.2419443130493164
14.523791313171387 8.857452392578125 2.2406136989593506
14.550347328186035 8.75175952911377 2.2414021492004395
14.628442764282227 8.677093505859375 2.237196922302246
14.752619743347168 8.628973007202148 2.2285521030426025
14.81632137298584 8.54479694366455 2.225626230239868
14.88994026184082 8.466073036193848 2.2217037677764893
14.956194877624512 8.382867813110352 2.2184269428253174
14.953948974609375 8.261570930480957 2.2215654850006104
15.100442886352539 8.222121238708496 2.210601806640625
27.71807861328125 14.87391185760498 1.0263283252716064
27.803180694580078 14.700821876525879 1.0233217477798462
27.919017791748047 14.543822288513184 1.0173214673995972
33.05628204345703 16.454683303833008 0.5521491765975952
32.950401306152344 16.150732040405273 0.5671178102493286
33.04397201538086 15.946152687072754 0.5633590221405029
33.011165618896484 15.681594848632812 0.571195125579834
33.0900993347168 15.471220016479492 0.5685130953788757
33.097991943359375 15.228392601013184 0.572269082069397
33.138648986816406 15.001667022705078 0.5728463530540466
33.13317108154297 14.755147933959961 0.5775386691093445
33.087581634521484 14.49246883392334 0.5857727527618408
33.12056350708008 14.265592575073242 0.5866188406944275
33.12723159790039 14.028364181518555 0.589742124080658
33.1607551574707 13.803462028503418 0.5902551412582397
33.176177978515625 13.571883201599121 0.5922906398773193
33.22235870361328 13.353639602661133 0.5913683176040649
33.0743522644043 13.059219360351562 0.608078122138977
33.10700225830078 12.838089942932129 0.6081078052520752
33.487369537353516 12.75001335144043 0.5762525796890259
33.64949417114258 12.576115608215332 0.5642333030700684
33.700355529785156 12.360218048095703 0.5622408390045166
33.72077560424805 12.133708953857422 0.5628901124000549
33.722774505615234 11.901442527770996 0.5650817155838013
33.746734619140625 11.677754402160645 0.5651391744613647
33.73053741455078 11.441094398498535 0.5687134265899658
33.74202346801758 11.214815139770508 0.5696378946304321
33.75958251953125 10.991290092468262 0.5698777437210083
33.793704986572266 10.773720741271973 0.5684847831726074
33.79219436645508 10.545458793640137 0.5701940059661865
33.792015075683594 10.318492889404297 0.5716509819030762
33.77409744262695 10.087075233459473 0.5745840668678284
33.80912780761719 9.872182846069336 0.5725924968719482
33.821720123291016 9.651225090026855 0.5725059509277344
33.829994201660156 9.429678916931152 0.5726819634437561
33.8387451171875 9.208914756774902 0.572688639163971
33.85280227661133 8.990187644958496 0.5720884203910828
33.83749008178711 8.764386177062988 0.5740196704864502
33.857383728027344 8.548378944396973 0.5726407170295715
33.876869201660156 8.332693099975586 0.5711746215820312
33.894020080566406 8.11685562133789 0.5697962641716003
33.90106201171875 7.899083614349365 0.5692073702812195
33.894081115722656 7.678667068481445 0.5697633028030396
33.91388702392578 7.464842796325684 0.5677745938301086
33.93234634399414 7.251061916351318 0.5657845735549927
33.9377555847168 7.034906387329102 0.564852774143219
33.93397903442383 6.817386150360107 0.5646305084228516
33.93956756591797 6.602266788482666 0.5634392499923706
33.93791961669922 6.386228561401367 0.5627822875976562
33.961360931396484 6.175268650054932 0.5597336888313293
33.98741912841797 5.964947700500488 0.5563272833824158
33.98761749267578 5.750381946563721 0.5551408529281616
33.99138259887695 5.536837577819824 0.5535123944282532
34.00069808959961 5.324539661407471 0.5512610077857971
34.003761291503906 5.111593723297119 0.549456775188446
34.01929473876953 4.900796413421631 0.5464015603065491
34.0275993347168 4.689182758331299 0.5438822507858276
34.0405158996582 4.478428840637207 0.540824294090271
34.049163818359375 4.2673187255859375 0.5380343198776245
34.06836700439453 4.057682991027832 0.5341649055480957
33.5884895324707 3.7917566299438477 0.5756178498268127
33.47010040283203 3.570655107498169 0.5840783715248108
33.489990234375 3.365191698074341 0.5798287987709045
33.534400939941406 3.162047863006592 0.5732231736183167
33.56071090698242 2.956996440887451 0.5681467652320862
33.575836181640625 2.7509257793426514 0.5639724135398865
33.53110885620117 2.540337324142456 0.5651564598083496
33.608253479003906 2.338977098464966 0.555067777633667
33.60567092895508 2.131779432296753 0.552158534526825
15.748075485229492 0.9013773202896118 2.188293933868408
15.782959938049316 0.8062922954559326 2.183504343032837
15.790410041809082 0.709602952003479 2.1811766624450684
15.78731632232666 0.6124646067619324 2.1797635555267334
15.796563148498535 0.5158131718635559 2.1771576404571533
15.82114315032959 0.4194939136505127 2.173078775405884
15.82821273803711 0.3225451111793518 2.1705572605133057
15.809794425964355 0.22516776621341705 2.1703381538391113
33.72029113769531 0.2748217284679413 0.5079459547996521
33.719947814941406 0.06798355281352997 0.5036405920982361
33.72032165527344 -0.13885053992271423 0.4991494119167328
33.739341735839844 -0.3458925485610962 0.4928019344806671
12.940155029296875 -0.212825208902359 2.427460193634033
11.981858253479004 -0.2706826329231262 2.515101909637451
12.072389602661133 -0.3468204438686371 2.5048794746398926
12.857966423034668 -0.44825980067253113 2.429473876953125
33.769527435302734 -1.382688045501709 0.46526235342025757
33.726192474365234 -1.5882035493850708 0.46402379870414734
13.148327827453613 -0.7007983326911926 2.3960673809051514
12.816648483276367 -0.7620248794555664 2.4251863956451416
12.731110572814941 -0.8353523015975952 2.4311115741729736
11.95103645324707 -0.8579056859016418 2.50276255607605
12.721585273742676 -0.9916183352470398 2.427588701248169
12.88871955871582 -1.0842176675796509 2.40942645072937
12.25107192993164 -1.1063696146011353 2.4677672386169434
12.54118537902832 -1.2101492881774902 2.437804937362671
33.89344024658203 -3.4783575534820557 0.3946962356567383
33.89479446411133 -3.688768148422241 0.38797351717948914
33.900779724121094 -3.9000113010406494 0.3806758522987366
33.91434097290039 -4.112547397613525 0.3725166916847229
33.91570281982422 -4.324014186859131 0.36539575457572937
33.92758560180664 -4.537238121032715 0.3571263551712036
33.93910598754883 -4.750909805297852 0.34875303506851196
33.946327209472656 -4.9644646644592285 0.340657502412796
33.958106994628906 -5.179189682006836 0.33198025822639465
33.95378112792969 -5.39190673828125 0.3247314989566803
33.98740768432617 -5.6112518310546875 0.3136407434940338
33.97153854370117 -5.822977066040039 0.30724164843559265
29.222858428955078 -5.193968296051025 0.7653148174285889
13.29550552368164 -2.4480409622192383 2.3256261348724365
34.0225830078125 -6.478522300720215 0.27751970291137695
34.00129699707031 -6.690926551818848 0.2710999548435211
33.944549560546875 -6.896381378173828 0.26806405186653137
33.90214157104492 -7.104660511016846 0.26348555088043213
33.92850875854492 -7.327807426452637 0.2519296705722809
33.94465637207031 -7.549602031707764 0.24123190343379974
34.039886474609375 -7.790298938751221 0.22245225310325623
34.03945541381836 -8.010337829589844 0.2130838930606842
34.03179931640625 -8.229265213012695 0.2042917013168335
34.0130729675293 -8.446003913879395 0.19646988809108734
34.08940887451172 -8.687396049499512 0.1788700520992279
34.09954071044922 -8.913186073303223 0.16779924929141998
34.100486755371094 -9.137367248535156 0.15750019252300262
34.09900665283203 -9.361635208129883 0.14728961884975433
34.07688903808594 -9.580842971801758 0.13903607428073883
34.116485595703125 -9.818299293518066 0.12428496032953262
34.08952331542969 -10.03748893737793 0.1162128746509552
34.0716438293457 -10.259878158569336 0.10705292224884033
29.61271095275879 -12.83963680267334 0.3572564125061035
29.45831871032715 -12.988118171691895 0.36158761382102966
33.35419464111328 -19.080923080444336 -0.35107943415641785
33.28762435913086 -19.315092086791992 -0.361772745847702
33.33857727050781 -19.61928367614746 -0.3868370056152344
33.371673583984375 -19.9156494140625 -0.4100702404975891
20.338916778564453 -13.535603523254395 1.069057583808899
20.06634521484375 -13.532766342163086 1.0902377367019653
19.739572525024414 -13.489507675170898 1.1184900999069214
19.58744239807129 -13.562772750854492 1.1246109008789062
19.51820945739746 -13.692935943603516 1.1200644969940186
19.461889266967773 -13.832555770874023 1.1137398481369019
19.4635066986084 -14.014415740966797 1.0997461080551147
19.431821823120117 -14.357291221618652 1.0757209062576294
19.41391372680664 -14.529231071472168 1.063694715499878
19.328842163085938 -14.65163516998291 1.0604180097579956
19.302160263061523 -14.818957328796387 1.0492289066314697
19.285137176513672 -14.995049476623535 1.0365527868270874
19.39870834350586 -15.275450706481934 1.005980372428894
19.43724822998047 -15.500151634216309 0.9852158427238464
28.757282257080078 -23.811607360839844 -0.356020987033844
28.722923278808594 -24.082082748413086 -0.37569722533226013
28.668886184692383 -24.338233947753906 -0.3929370939731598
28.746999740600586 -24.709989547729492 -0.42915642261505127
28.76386260986328 -25.033355712890625 -0.4572049677371979
28.65025520324707 -25.245454788208008 -0.4670214056968689
20.937557220458984 -18.679452896118164 0.6176877021789551
20.76241683959961 -18.753538131713867 0.6234800219535828
20.314208984375 -18.576595306396484 0.6691396832466125
20.11631202697754 -18.62384033203125 0.6785680055618286
19.867103576660156 -18.621089935302734 0.6956498622894287
19.703075408935547 -18.696056365966797 0.7002186179161072
19.55465316772461 -18.784866333007812 0.7024504542350769
15.511246681213379 14.431318283081055 1.84907066822052
13.102964401245117 11.60444450378418 2.1529815196990967
13.110723495483398 11.468744277954102 2.1584508419036865
13.139179229736328 11.352279663085938 2.161475419998169
13.165945053100586 11.235250473022461 2.1645851135253906
13.21614933013916 11.138871192932129 2.164985418319702
13.249587059020996 11.028909683227539 2.167161226272583
13.283714294433594 10.920223236083984 2.1691665649414062
13.323969841003418 10.817185401916504 2.170405626296997
13.351802825927734 10.704713821411133 2.1729183197021484
13.388134002685547 10.599732398986816 2.1744091510772705
13.433882713317871 10.502684593200684 2.1747894287109375
13.44976806640625 10.382944107055664 2.178323984146118
13.49480152130127 10.286358833312988 2.1786139011383057
13.539952278137207 10.190211296081543 2.1788136959075928
13.571637153625488 10.084386825561523 2.18038010597229
13.615388870239258 9.98798656463623 2.180572986602783
13.639102935791016 9.877402305603027 2.1828222274780273
13.689530372619629 9.786604881286621 2.182149648666382
13.714123725891113 9.677749633789062 2.184138774871826
13.75343132019043 9.579780578613281 2.1844911575317383
13.78466510772705 9.476613998413086 2.1856164932250977
13.822572708129883 9.378458976745605 2.1859631538391113
13.863932609558105 9.282967567443848 2.1858739852905273
13.901318550109863 9.1851224899292 2.186127185821533
13.943033218383789 9.090432167053223 2.185857057571411
13.967354774475098 8.984795570373535 2.1873183250427246
14.018660545349121 8.896819114685059 2.1859118938446045
14.056748390197754 8.800620079040527 2.1858036518096924
14.092489242553711 8.703240394592285 2.185865640640259
14.136072158813477 8.610937118530273 2.1850528717041016
14.191007614135742 8.52560806274414 2.1830122470855713
14.23171615600586 8.431802749633789 2.1823623180389404
14.319111824035645 8.365460395812988 2.1768932342529297
14.422030448913574 8.190162658691406 2.1731016635894775
14.48485279083252 8.108848571777344 2.169964551925659
14.642278671264648 8.07953929901123 2.157228708267212
15.070265769958496 8.195682525634766 2.1172425746917725
15.80220890045166 8.468762397766113 2.046816825866699
27.308168411254883 14.421932220458984 0.8964976072311401
27.643184661865234 14.382909774780273 0.8682898879051208
27.733198165893555 14.214447975158691 0.8645271062850952
27.838191986083984 14.053502082824707 0.8591563105583191
32.25044250488281 15.30105209350586 0.44133061170578003
32.64470291137695 15.243719100952148 0.40744683146476746
33.008689880371094 15.167977333068848 0.3765094578266144
33.12882614135742 14.977949142456055 0.36954599618911743
33.0904426574707 14.716984748840332 0.37805378437042236
33.09025955200195 14.474620819091797 0.3826351463794708
33.12769317626953 14.249734878540039 0.3833659589290619
33.128761291503906 14.010190963745117 0.3875119388103485
33.15940475463867 13.784168243408203 0.388607382774353
33.172855377197266 13.551891326904297 0.3912357985973358
33.213356018066406 13.331467628479004 0.3910721242427826
33.06803512573242 13.038350105285645 0.4088890254497528
33.10333251953125 12.818370819091797 0.4089263379573822
33.51603698730469 12.742511749267578 0.3720892369747162
33.63140869140625 12.550973892211914 0.3640943765640259
33.68958282470703 12.337944984436035 0.3615279793739319
33.718292236328125 12.114569664001465 0.3616836667060852
33.71641540527344 11.88104248046875 0.3646630048751831
33.73459243774414 11.655473709106445 0.3655521869659424
33.729583740234375 11.422778129577637 0.3685453534126282
33.73716354370117 11.195287704467773 0.3701747953891754
33.74891662597656 10.969978332519531 0.3712606728076935
33.7809944152832 10.75189208984375 0.37024110555648804
33.7859992980957 10.525824546813965 0.37169957160949707
33.78379821777344 10.298355102539062 0.37371474504470825
33.76003646850586 10.06533145904541 0.3776688277721405
33.7996940612793 9.851938247680664 0.37536856532096863
33.80353546142578 9.62861156463623 0.3763865530490875
33.81741714477539 9.408809661865234 0.3763006925582886
33.8250732421875 9.18789291381836 0.3766801655292511
33.83995819091797 8.969531059265137 0.3762282431125641
33.82741165161133 8.744599342346191 0.3782833516597748
33.845237731933594 8.52818775177002 0.37728163599967957
33.8626594543457 8.312121391296387 0.3761869966983795
33.85932922363281 8.091530799865723 0.3769555985927582
33.87105941772461 7.875125885009766 0.3761446475982666
33.87461471557617 7.657341957092285 0.37598878145217896
33.89427185058594 7.443653583526611 0.37415215373039246
33.91453552246094 7.2304253578186035 0.372128427028656
33.9188346862793 7.0142011642456055 0.3715101480484009
33.924686431884766 6.79878044128418 0.37061259150505066
33.92624282836914 6.582981109619141 0.3699992895126343
33.92153549194336 6.366497993469238 0.36986029148101807
33.948753356933594 6.1563591957092285 0.36652040481567383
33.98350143432617 5.947668552398682 0.36232683062553406
33.97572708129883 5.731822490692139 0.36209800839424133
33.9793701171875 5.518369674682617 0.360643595457077
33.983642578125 5.305391788482666 0.35900139808654785
33.98558807373047 5.092419624328613 0.3574550449848175
34.00098419189453 4.881743907928467 0.35448557138442993
34.009159088134766 4.670255184173584 0.3520854413509369
34.016021728515625 4.458847522735596 0.3496856391429901
34.02354049682617 4.247775554656982 0.34709432721138
34.035682678222656 4.03748083114624 0.34393006563186646
32.58353805541992 3.662649393081665 0.48228004574775696
32.719810485839844 3.4749245643615723 0.4669429063796997
32.364723205566406 3.236602783203125 0.4990616738796234
32.856285095214844 3.082404375076294 0.44903936982154846
32.86920166015625 2.8803813457489014 0.44525691866874695
32.586246490478516 2.654294967651367 0.47008126974105835
33.03821563720703 2.487276315689087 0.42340919375419617
32.6483039855957 2.256624460220337 0.45842763781547546
32.883636474609375 2.0703506469726562 0.4325219690799713
15.747122764587402 0.8934355974197388 2.0994479656219482
15.78193473815918 0.7983431220054626 2.0944905281066895
15.791308403015137 0.7017481327056885 2.091952323913574
15.783186912536621 0.6044173240661621 2.091064214706421
15.79236888885498 0.5077894926071167 2.088425397872925
15.82185173034668 0.4116167426109314 2.0837368965148926
15.825874328613281 0.31460249423980713 2.081480026245117
15.803425788879395 0.21719421446323395 2.081763982772827
32.74402618408203 0.251370906829834 0.4136279225349426
32.75946044921875 0.050548944622278214 0.4078874886035919
32.789588928222656 -0.15052752196788788 0.4005725383758545
12.509414672851562 -0.1354425996541977 2.398782968521118
12.502222061157227 -0.2120686173439026 2.397740364074707
12.550274848937988 -0.2898901402950287 2.391181230545044
12.840543746948242 -0.37536585330963135 2.360536575317383
12.865683555603027 -0.4550991952419281 2.3560919761657715
12.825702667236328 -0.5324833393096924 2.358070135116577
32.921932220458984 -1.5659229755401611 0.35346224904060364
13.103056907653809 -0.7050769925117493 2.326251745223999
12.853971481323242 -0.7708202004432678 2.348966121673584
12.828980445861816 -0.8483378887176514 2.3492720127105713
12.547470092773438 -0.9071102738380432 2.3752713203430176
12.815298080444336 -1.0054923295974731 2.3461110591888428
12.235652923583984 -1.0356688499450684 2.4021315574645996
13.560722351074219 -1.2314345836639404 2.2661843299865723
33.20415496826172 -3.2177209854125977 0.278374046087265
33.19127655029297 -3.4221391677856445 0.27321532368659973
33.21967315673828 -3.631169080734253 0.2637415826320648
33.21907043457031 -3.8374831676483154 0.2570684254169464
