# .PCD v0.7 - Point Cloud Data file format
VERSION 0.7
FIELDS x y z
SIZE 4 4 4
TYPE F F F
COUNT 1 1 1
WIDTH 855
HEIGHT 1
VIEWPOINT 0 0 0 1 0 0 0
POINTS 855
DATA ascii
40.85831832885742 12.67995834350586 3.597174882888794
40.77936553955078 12.381719589233398 3.5920958518981934
40.658992767333984 12.073258399963379 3.5870890617370605
40.55366516113281 11.771759033203125 3.5820984840393066
40.44232177734375 11.470917701721191 3.577147960662842
40.332679748535156 11.172955513000488 3.5722270011901855
40.01625442504883 10.821432113647461 3.567673683166504
39.74346160888672 10.486459732055664 3.563127279281616
40.89849090576172 10.523276329040527 3.555976390838623
41.34638214111328 10.368507385253906 3.549952745437622
41.79000473022461 10.207684516906738 3.543828010559082
42.24681854248047 10.045044898986816 3.537564992904663
42.70319747924805 9.877181053161621 3.531189203262329
43.20103454589844 9.71352481842041 3.5245981216430664
43.704322814941406 9.545409202575684 3.5178675651550293
44.182701110839844 9.36629581451416 3.5110812187194824
44.717315673828125 9.193347930908203 3.504013776779175
44.904273986816406 8.945034980773926 3.4978549480438232
44.94061279296875 8.665995597839355 3.492119550704956
44.97227096557617 8.386296272277832 3.486389398574829
44.86637878417969 8.082070350646973 3.481114387512207
45.01953125 7.824836730957031 3.4749562740325928
45.051876068115234 7.5460405349731445 3.4691965579986572
45.08150863647461 7.266983509063721 3.4634346961975098
45.11336135864258 6.98845911026001 3.457655191421509
45.13954162597656 6.709228515625 3.451885461807251
45.16992950439453 6.4307861328125 3.4460883140563965
45.18769836425781 6.150739669799805 3.4403326511383057
45.20869064331055 5.871361255645752 3.434553861618042
45.24383544921875 5.5939202308654785 3.4286999702453613
45.2743034362793 5.31591796875 3.422853708267212
45.30007553100586 5.037421226501465 3.4170148372650146
45.31717300415039 4.758077621459961 3.4112071990966797
45.35344314575195 4.480778694152832 3.405290365219116
45.37905502319336 4.202383041381836 3.399412155151367
45.405948638916016 3.924099922180176 3.3935134410858154
45.43113327026367 3.6456456184387207 3.387608528137207
45.45561599731445 3.367103099822998 3.38169264793396
12.561697006225586 0.8533570766448975 3.561683416366577
45.524383544921875 2.81108021736145 3.369699239730835
13.114362716674805 0.7293676733970642 3.555210590362549
13.085626602172852 0.6472749710083008 3.553704023361206
45.58330154418945 1.973494052886963 3.351839780807495
12.252168655395508 0.4554694592952728 3.5555830001831055
12.266721725463867 0.3806721866130829 3.553910970687866
19.187532424926758 0.4774135947227478 3.5070199966430664
45.6988525390625 0.8560094237327576 3.327550172805786
45.70820236206055 0.5757192969322205 3.321560859680176
12.624329566955566 0.08185791224241257 3.545074939727783
12.310595512390137 0.004313428420573473 3.545647144317627
45.819942474365234 -0.2661524713039398 3.302891969680786
12.844655990600586 -0.15311573445796967 3.5385146141052246
13.835277557373047 -0.24984821677207947 3.52944016456604
13.013740539550781 -0.3148566484451294 3.5338549613952637
11.822139739990234 -0.35856643319129944 3.54133939743042
13.662425994873047 -0.4983527362346649 3.5253210067749023
13.78298568725586 -0.5874384641647339 3.522545099258423
12.9011869430542 -0.6291376948356628 3.5278713703155518
13.404293060302734 -0.7361385226249695 3.5219969749450684
12.784685134887695 -0.7807838916778564 3.5253994464874268
12.891389846801758 -0.8667125701904297 3.522773265838623
12.868866920471191 -0.9445328116416931 3.5212314128875732
12.725259780883789 -1.0125088691711426 3.520754814147949
13.351451873779297 -1.1448183059692383 3.5134387016296387
46.21113967895508 -4.249107360839844 3.213799476623535
12.007820129394531 -1.1781398057937622 3.522160530090332
12.011297225952148 -1.2529205083847046 3.5204827785491943
11.923864364624023 -1.3177891969680786 3.5196597576141357
12.707131385803223 -1.4833407402038574 3.5104846954345703
12.188642501831055 -1.4986456632614136 3.513780117034912
12.340856552124023 -1.5942761898040771 3.510580062866211
12.41010570526123 -1.6806886196136475 3.508162498474121
13.623259544372559 -1.9302042722702026 3.4940853118896484
13.633901596069336 -2.0171058177948 3.492058753967285
12.524290084838867 -1.9314931631088257 3.501729965209961
12.730387687683105 -2.0433151721954346 3.497769832611084
12.601217269897461 -2.1019530296325684 3.497342586517334
43.17121505737305 -7.474713325500488 3.1629559993743896
43.1914176940918 -7.7514142990112305 3.1565284729003906
29.414827346801758 -5.465312957763672 3.3041439056396484
12.767723083496094 -2.4531428813934326 3.48819899559021
12.743593215942383 -2.5296666622161865 3.4866156578063965
12.720964431762695 -2.6063883304595947 3.485013246536255
12.679285049438477 -2.678999900817871 3.483632802963257
12.649896621704102 -2.7539639472961426 3.482109308242798
12.645432472229004 -2.834355354309082 3.4802849292755127
12.767125129699707 -2.9440083503723145 3.4769139289855957
12.747838020324707 -3.022040843963623 3.475238084793091
34.25110626220703 -8.34266471862793 3.2045767307281494
12.683577537536621 -3.171661138534546 3.472198724746704
43.549625396728516 -11.175420761108398 3.075138568878174
43.60299301147461 -11.474681854248047 3.0677809715270996
43.62342071533203 -11.766683578491211 3.060802698135376
43.635162353515625 -12.057502746582031 3.05389666557312
43.65652084350586 -12.3521728515625 3.0468204021453857
43.6893424987793 -12.65145492553711 3.0395445823669434
43.72492599487305 -12.953022003173828 3.0321812629699707
43.73548126220703 -13.248544692993164 3.0251145362854004
43.594093322753906 -13.498248100280762 3.0201399326324463
34.507110595703125 -10.916949272155762 3.142287254333496
34.23582077026367 -11.062626838684082 3.140627384185791
34.19478988647461 -11.281519889831543 3.135676383972168
34.107826232910156 -11.485328674316406 3.1313796043395996
34.18607711791992 -11.745678901672363 3.124622344970703
34.221839904785156 -11.993200302124023 3.118441581726074
34.25678253173828 -12.241937637329102 3.112226724624634
44.02216720581055 -16.03705406188965 2.9565162658691406
44.08879089355469 -16.368398666381836 2.94807505607605
44.074440002441406 -16.67144775390625 2.9408318996429443
44.16719055175781 -17.016996383666992 2.9318466186523438
44.128902435302734 -17.31390953063965 2.9248790740966797
44.09326934814453 -17.61284637451172 2.9178318977355957
44.240875244140625 -17.98731803894043 2.9077401161193848
44.22846984863281 -18.299272537231445 2.900193929672241
44.2636604309082 -18.632701873779297 2.891800880432129
44.2909049987793 -18.964885711669922 2.883474349975586
29.695823669433594 -12.931427955627441 3.1250290870666504
29.64787483215332 -13.127519607543945 3.1205034255981445
44.40822982788086 -19.990144729614258 2.8574697971343994
44.446510314941406 -20.336233139038086 2.848668336868286
44.48220443725586 -20.683544158935547 2.8398382663726807
44.47914505004883 -21.014970779418945 2.831630229949951
44.3997688293457 -21.311655044555664 2.8247485160827637
34.64723587036133 -16.892698287963867 2.9956679344177246
34.542877197265625 -17.104917526245117 2.9910190105438232
34.21479415893555 -17.20464515686035 2.99055552482605
34.102294921875 -17.411026000976562 2.986078977584839
34.04358673095703 -17.645198822021484 2.9805617332458496
34.15848922729492 -17.971487045288086 2.971654176712036
34.49909210205078 -18.421825408935547 2.9582326412200928
34.53391647338867 -18.71361541748047 2.950658082962036
34.32463836669922 -18.873559951782227 2.9478793144226074
30.533889770507812 -17.033946990966797 3.017303466796875
30.309534072875977 -17.153461456298828 3.0156166553497314
34.58082580566406 -19.851959228515625 2.9215190410614014
34.46780776977539 -20.06924819946289 2.916659116744995
34.60309982299805 -20.433338165283203 2.90657114982605
42.8310661315918 -25.647865295410156 2.724837303161621
34.843597412109375 -21.156261444091797 2.8866701126098633
34.56576919555664 -21.278926849365234 2.885148525238037
34.56086730957031 -21.569438934326172 2.877716064453125
34.530887603759766 -21.84625816345215 2.8707680702209473
34.58381271362305 -22.17803192138672 2.8619134426116943
34.5786247253418 -22.475309371948242 2.8542699813842773
34.449188232421875 -22.693050384521484 2.849379301071167
34.38240432739258 -22.95279884338379 2.843031167984009
34.29468536376953 -23.19969367980957 2.8371219635009766
43.253448486328125 -29.648754119873047 2.6192147731781006
43.270172119140625 -30.052120208740234 2.6086230278015137
30.07341766357422 -21.161182403564453 2.9137730598449707
43.344905853271484 -30.899335861206055 2.5861053466796875
43.383785247802734 -31.330299377441406 2.574620246887207
43.44401931762695 -31.78119659423828 2.5624797344207764
43.488285064697266 -32.22507858276367 2.5505943298339844
43.52073669433594 -32.66469192504883 2.538867235183716
43.56613540649414 -33.118614196777344 2.526676893234253
43.599666595458984 -33.56822204589844 2.514646530151367
43.6561164855957 -34.04037857055664 2.5018811225891113
35.074981689453125 -27.696937561035156 2.7149524688720703
34.86759948730469 -27.882226943969727 2.7111356258392334
34.653053283691406 -28.06098747253418 2.707514524459839
34.602294921875 -28.373191833496094 2.6994855403900146
34.822837829589844 -28.91319465637207 2.683983564376831
34.729637145996094 -29.19767951965332 2.6768829822540283
34.69439697265625 -29.533302307128906 2.6681079864501953
34.875953674316406 -30.05887794494629 2.653146982192993
34.90019226074219 -30.454992294311523 2.6424262523651123
34.934356689453125 -30.86444854736328 2.631284475326538
34.77330017089844 -31.104158401489258 2.6256494522094727
34.9040641784668 -31.60881233215332 2.6114447116851807
34.854549407958984 -31.955427169799805 2.602358818054199
34.83652114868164 -32.33458709716797 2.5922279357910156
34.7852783203125 -32.68665313720703 2.5829741954803467
32.474937438964844 23.19959831237793 3.576289415359497
32.77845764160156 23.114051818847656 3.571929693222046
32.881874084472656 22.886259078979492 3.5679030418395996
32.70993423461914 19.632516860961914 3.5268759727478027
32.803924560546875 19.416210174560547 3.5228447914123535
32.92586135864258 19.216625213623047 3.5187010765075684
45.371665954589844 25.739532470703125 3.4653289318084717
45.037315368652344 25.185922622680664 3.4614734649658203
45.06221389770508 24.838207244873047 3.4562933444976807
44.96855926513672 24.42812728881836 3.4515914916992188
44.761375427246094 23.961143493652344 3.44738507270813
44.694339752197266 23.573673248291016 3.442634105682373
44.50977325439453 23.128448486328125 3.438415765762329
44.2778205871582 22.66405487060547 3.434454917907715
44.23830795288086 22.302427291870117 3.429666519165039
44.04555130004883 21.867429733276367 3.425610065460205
43.9389762878418 21.479557037353516 3.42118501663208
43.728389739990234 21.045255661010742 3.4172980785369873
43.67500305175781 20.690553665161133 3.4126689434051514
43.52556228637695 20.293779373168945 3.4085471630096436
43.353816986083984 19.8908634185791 3.4045774936676025
43.23985290527344 19.518388748168945 3.400336503982544
43.11472702026367 19.144412994384766 3.3961827754974365
42.98390197753906 18.77151107788086 3.3920886516571045
42.880455017089844 18.413959503173828 3.387866973876953
42.70975875854492 18.031160354614258 3.384058952331543
42.62003707885742 17.686031341552734 3.379807472229004
42.49158477783203 17.327957153320312 3.37580943107605
42.35942077636719 16.971757888793945 3.371861696243286
42.25706481933594 16.630653381347656 3.3677539825439453
42.093360900878906 16.26873207092285 3.364057779312134
41.96421813964844 15.9236421585083 3.3601717948913574
41.870849609375 15.595061302185059 3.356074333190918
41.72713851928711 15.250720977783203 3.3523337841033936
41.62126159667969 14.923246383666992 3.348362684249878
41.51105880737305 14.596983909606934 3.3444411754608154
41.42017364501953 14.280134201049805 3.3404037952423096
41.266334533691406 13.944462776184082 3.336833953857422
41.19538116455078 13.639507293701172 3.3326902389526367
41.050907135009766 13.312812805175781 3.3291008472442627
40.95163345336914 13.003538131713867 3.325199604034424
40.89404296875 12.709636688232422 3.3209967613220215
40.7655143737793 12.395986557006836 3.3173489570617676
40.65001678466797 12.088953018188477 3.313622236251831
40.51308822631836 11.77822494506836 3.3100852966308594
40.41620635986328 11.48165512084961 3.3062491416931152
40.34516143798828 11.194472312927246 3.302215814590454
40.21806716918945 10.89395523071289 3.298656940460205
40.345977783203125 10.663387298583984 3.2929720878601074
40.87538146972656 10.535490989685059 3.2838220596313477
41.33295440673828 10.383464813232422 3.275163412094116
41.76298522949219 10.219562530517578 3.266631603240967
42.2372932434082 10.061431884765625 3.2575972080230713
42.707313537597656 9.896957397460938 3.2484824657440186
43.189571380615234 9.729950904846191 3.2391364574432373
43.68895721435547 9.561243057250977 3.229509115219116
44.182987213134766 9.385730743408203 3.2198052406311035
44.707828521728516 9.210970878601074 3.2096827030181885
44.89680480957031 8.963167190551758 3.2026419639587402
44.93027114868164 8.683597564697266 3.1970527172088623
44.96593475341797 8.40468978881836 3.1914212703704834
44.83061218261719 8.095107078552246 3.1874663829803467
45.01827621459961 7.844149112701416 3.1802823543548584
45.048728942871094 7.5650248527526855 3.1746394634246826
45.080413818359375 7.286301612854004 3.1689612865448
45.10741424560547 7.007012844085693 3.1633107662200928
45.13563919067383 6.728109359741211 3.1576240062713623
45.16709899902344 6.449830055236816 3.151881694793701
45.18198013305664 6.1693878173828125 3.146293878555298
45.20602798461914 5.890427589416504 3.1405861377716064
45.236289978027344 5.612389087677002 3.1347882747650146
45.271793365478516 5.335019588470459 3.12890625
45.293670654296875 5.056094169616699 3.1231529712677
45.32178497314453 4.777939319610596 3.1173038482666016
45.34818649291992 4.499629974365234 3.1114511489868164
45.374874114990234 4.22136116027832 3.1055684089660645
45.400848388671875 3.9430203437805176 3.0996694564819336
45.426109313964844 3.664599657058716 3.093752145767212
45.45166015625 3.386166572570801 3.0878045558929443
12.542739868164062 0.8568078279495239 3.4807851314544678
45.518592834472656 2.830085039138794 3.0756378173828125
45.54500961303711 2.5513617992401123 3.0695972442626953
45.57072830200195 2.272470474243164 3.063537359237671
45.59272766113281 1.9932721853256226 3.057495594024658
13.071640968322754 0.4908668100833893 3.466142177581787
13.067392349243164 0.4104507565498352 3.4645307064056396
13.195596694946289 0.33346912264823914 3.4611916542053223
45.70260238647461 0.8754821419715881 3.032756805419922
45.72403335571289 0.5953296422958374 3.0265755653381348
12.639510154724121 0.0867234319448471 3.463527202606201
12.5997896194458 0.009155543521046638 3.4624195098876953
12.288625717163086 -0.06646542251110077 3.465019464492798
45.829559326171875 -0.5279053449630737 3.001271963119507
12.314844131469727 -0.2177182286977768 3.4614219665527344
12.036364555358887 -0.28667303919792175 3.4637019634246826
12.918877601623535 -0.386969655752182 3.4495909214019775
13.448841094970703 -0.4854189157485962 3.440281391143799
13.356678009033203 -0.5641576051712036 3.439807176589966
12.896528244018555 -0.6240127086639404 3.444714069366455
13.428583145141602 -0.7323357462882996 3.435137987136841
12.777076721191406 -0.7754672765731812 3.4429845809936523
12.87581729888916 -0.860765278339386 3.439756393432617
12.75958251953125 -0.9316556453704834 3.439744234085083
12.789490699768066 -1.0127506256103516 3.4375247955322266
46.1358642578125 -3.937173366546631 2.922173023223877
13.372495651245117 -1.2241638898849487 3.424903154373169
11.73766040802002 -1.1472071409225464 3.4486632347106934
11.99194049835205 -1.2463644742965698 3.4429845809936523
12.018835067749023 -1.323734164237976 3.4408552646636963
12.695759773254395 -1.477148413658142 3.428239583969116
42.958038330078125 -5.264452934265137 2.9346673488616943
12.837289810180664 -1.6534827947616577 3.422271251678467
13.654264450073242 -1.8439066410064697 3.406899929046631
43.04370880126953 -6.080933094024658 2.9145684242248535
12.740324020385742 -1.8799515962600708 3.4182932376861572
43.09514236450195 -6.628466606140137 2.9010493755340576
14.630602836608887 -2.342575788497925 3.382155418395996
12.752817153930664 -2.122288227081299 3.41241455078125
12.769091606140137 -2.2055835723876953 3.410219669342041
12.774981498718262 -2.28739595413208 3.408191204071045
12.742005348205566 -2.3622570037841797 3.4068379402160645
43.26139831542969 -8.294123649597168 2.8592007160186768
12.813035011291504 -2.538414716720581 3.4016566276550293
12.785443305969238 -2.614563465118408 3.400179386138916
12.78968334197998 -2.6972768306732178 3.3981144428253174
33.9384765625 -7.374507904052734 3.0048608779907227
12.747770309448242 -2.8522377014160156 3.394883155822754
33.74882888793945 -7.768123626708984 2.9977126121520996
33.91743087768555 -8.026346206665039 2.989133358001709
33.98406219482422 -8.26259994506836 2.9824154376983643
34.07234191894531 -8.505784034729004 2.9752230644226074
33.990386962890625 -8.707193374633789 2.9712789058685303
33.97106170654297 -8.9246826171875 2.966094732284546
34.114471435546875 -9.186457633972168 2.9576594829559326
34.243408203125 -9.446868896484375 2.9494261741638184
34.34444808959961 -9.701868057250977 2.9416732788085938
34.03351593017578 -9.839890480041504 2.942204713821411
34.374141693115234 -10.1672945022583 2.9294705390930176
33.98566436767578 -10.279553413391113 2.9316205978393555
34.020259857177734 -10.518256187438965 2.9250619411468506
33.984561920166016 -10.736085891723633 2.9199235439300537
33.960792541503906 -10.958171844482422 2.9145021438598633
33.985904693603516 -11.196950912475586 2.908003330230713
33.96481704711914 -11.421472549438477 2.90244460105896
33.96683883666992 -11.65459156036377 2.896347999572754
34.008792877197266 -11.902698516845703 2.889331579208374
33.951995849609375 -12.117142677307129 2.884430170059204
34.0000114440918 -12.369965553283691 2.8771727085113525
33.9974479675293 -12.605756759643555 2.8709840774536133
44.141845703125 -16.675790786743164 2.635516405105591
44.1281623840332 -16.980724334716797 2.6275899410247803
44.19525146484375 -17.31858253479004 2.617748975753784
44.17905044555664 -17.625669479370117 2.6097428798675537
44.24503707885742 -17.967437744140625 2.599757671356201
44.24103546142578 -18.282804489135742 2.591325521469116
44.310394287109375 -18.630573272705078 2.581082820892334
44.30912399291992 -18.950782775878906 2.57243275642395
29.695695877075195 -12.916921615600586 2.91625714302063
29.65055274963379 -13.11420726776123 2.9114394187927246
44.44668197631836 -19.985158920288086 2.5425753593444824
44.45859146118164 -20.319351196289062 2.533273935317993
44.482574462890625 -20.661178588867188 2.5235886573791504
44.45430374145508 -20.9805965423584 2.515127182006836
34.44808578491211 -16.517356872558594 2.759521245956421
34.39903259277344 -16.754188537597656 2.7535462379455566
34.3671875 -17.00034523010254 2.7470829486846924
34.27732849121094 -17.218475341796875 2.742075204849243
34.15847396850586 -17.42205810546875 2.7377982139587402
34.08457946777344 -17.64873504638672 2.7323179244995117
34.140159606933594 -17.943998336791992 2.7233519554138184
34.437721252441406 -18.370941162109375 2.707792043685913
34.36646270751953 -18.604692459106445 2.702017068862915
34.26383590698242 -18.8218936920166 2.697056293487549
30.561182022094727 -17.032915115356445 2.7911977767944336
30.302852630615234 -17.133468627929688 2.7913331985473633
34.330169677734375 -19.689449310302734 2.6715283393859863
34.41168975830078 -20.01779556274414 2.661165952682495
34.41641616821289 -20.3041934967041 2.6528711318969727
34.5167121887207 -20.649913787841797 2.6417481899261475
34.453369140625 -20.900146484375 2.6352314949035645
34.40101623535156 -21.158231735229492 2.628340244293213
34.3976936340332 -21.448200225830078 2.6199448108673096
34.287315368652344 -21.672687530517578 2.6146411895751953
34.43557357788086 -22.06327247619629 2.601557970046997
34.48976516723633 -22.39768409729004 2.5911495685577393
34.423404693603516 -22.656097412109375 2.5842926502227783
34.43334197998047 -22.966678619384766 2.5750300884246826
34.50286865234375 -23.320215225219727 2.5638198852539062
34.67574691772461 -23.74833106994629 2.5492444038391113
34.70749282836914 -24.08426284790039 2.5389227867126465
30.077497482299805 -21.14606285095215 2.6766622066497803
34.812984466552734 -24.795900344848633 2.516569137573242
34.803565979003906 -25.112518310546875 2.507197380065918
34.83595657348633 -25.462392807006836 2.4963574409484863
34.862937927246094 -25.81182098388672 2.4855639934539795
34.88454055786133 -26.160734176635742 2.4748198986053467
34.87211608886719 -26.4872989654541 2.465085029602051
34.916412353515625 -26.86040496826172 2.4533214569091797
34.89987564086914 -27.19019889831543 2.4434831142425537
34.876670837402344 -27.5177001953125 2.43375825881958
34.81795120239258 -27.81972885131836 2.425152063369751
34.67212677001953 -28.053537368774414 2.4194998741149902
34.6732063293457 -28.40823745727539 2.408620595932007
34.85356140136719 -28.915266036987305 2.3912198543548584
34.88050079345703 -29.300832748413086 2.379079818725586
34.86821746826172 -29.657377243041992 2.3682024478912354
34.88013458251953 -30.038349151611328 2.3563036918640137
34.88566207885742 -30.417951583862305 2.3444857597351074
34.932804107666016 -30.838436126708984 2.330961227416992
34.83671569824219 -31.13607406616211 2.3226373195648193
34.94952392578125 -31.624835968017578 2.306293487548828
34.899898529052734 -31.97164535522461 2.2959303855895996
34.86125183105469 -32.331947326660156 2.2850139141082764
34.88798522949219 -32.75728988647461 2.2714040279388428
32.36404037475586 24.01618003845215 3.3486125469207764
32.49378967285156 23.804779052734375 3.3447232246398926
32.5184440612793 23.517683029174805 3.3417460918426514
32.4488410949707 23.16552734375 3.339609146118164
32.60910415649414 22.979284286499023 3.3353803157806396
32.728904724121094 22.76453971862793 3.3314902782440186
32.73682403564453 22.47334861755371 3.32861065864563
32.70018768310547 22.154315948486328 3.326141595840454
32.60019302368164 21.796009063720703 3.324270725250244
32.61222457885742 21.515764236450195 3.3213396072387695
32.781272888183594 21.339853286743164 3.316884994506836
33.042781829833984 21.2226619720459 3.3114938735961914
32.68410110473633 20.710193634033203 3.3121345043182373
33.127620697021484 20.707542419433594 3.304889440536499
32.88032913208008 20.273529052734375 3.3044562339782715
32.665714263916016 19.865678787231445 3.303729295730591
32.7723503112793 19.65617561340332 3.2997663021087646
32.644405364990234 19.308151245117188 3.2981817722320557
32.74319076538086 19.096446990966797 3.2942657470703125
32.7686653137207 18.84288787841797 3.2910890579223633
32.693965911865234 18.53400421142578 3.288951873779297
32.892547607421875 18.380905151367188 3.2839198112487793
32.768165588378906 18.048519134521484 3.2822976112365723
33.38969039916992 18.12482452392578 3.2726430892944336
44.780052185058594 23.95380210876465 3.1457340717315674
44.696983337402344 23.557889938354492 3.1425869464874268
44.45900344848633 23.08510398864746 3.1411545276641846
44.329978942871094 22.67396354675293 3.138537645339966
44.206520080566406 22.269777297973633 3.1358678340911865
44.06276321411133 21.859521865844727 3.1334376335144043
43.91654586791992 21.452308654785156 3.1310477256774902
43.75438690185547 21.04165267944336 3.128854274749756
43.67019271850586 20.672304153442383 3.125771999359131
43.530548095703125 20.280288696289062 3.123340129852295
43.344120025634766 19.87076759338379 3.121471643447876
43.25275802612305 19.508705139160156 3.1184937953948975
43.101924896240234 19.123371124267578 3.1162309646606445
42.98374557495117 18.756221771240234 3.113586664199829
42.856258392333984 18.38848876953125 3.1110641956329346
42.7369499206543 18.02768898010254 3.108450174331665
42.59265899658203 17.65985870361328 3.106152296066284
42.489925384521484 17.312593460083008 3.103349208831787
42.32883834838867 16.944955825805664 3.101282835006714
42.27652359008789 16.623863220214844 3.097856044769287
42.087547302246094 16.252178192138672 3.096165418624878
41.99190902709961 15.91995620727539 3.093296766281128
41.839439392089844 15.569293022155762 3.0911664962768555
41.77348327636719 15.253686904907227 3.0879218578338623
41.650634765625 14.919920921325684 3.0854201316833496
41.49980545043945 14.579286575317383 3.083298444747925
41.419166564941406 14.266144752502441 3.0802524089813232
41.28509521484375 13.93726921081543 3.0779244899749756
41.17039108276367 13.61780071258545 3.075343132019043
41.07044982910156 13.305813789367676 3.0725667476654053
40.97586441040039 12.997987747192383 3.0697197914123535
40.844669342041016 12.681148529052734 3.067380905151367
40.71879959106445 12.368735313415527 3.0649771690368652
40.65485763549805 12.077425003051758 3.061711311340332
40.528385162353516 11.769798278808594 3.0593249797821045
40.435264587402344 11.47427749633789 3.056471824645996
40.31788635253906 11.174201965332031 3.053967237472534
40.22248840332031 10.882529258728027 3.0511510372161865
40.414100646972656 10.668766021728516 3.0441548824310303
40.879600524902344 10.523863792419434 3.0330827236175537
41.30118179321289 10.362696647644043 3.0225415229797363
41.756309509277344 10.205058097839355 3.011392116546631
42.22367858886719 10.045231819152832 2.9999423027038574
42.67311096191406 9.875991821289062 2.988642454147339
43.17763900756836 9.714122772216797 2.9763879776000977
43.659305572509766 9.541521072387695 2.96435284614563
44.1649055480957 9.368559837341309 2.951821804046631
44.638675689697266 9.183300971984863 2.9396519660949707
44.88431930541992 8.947225570678711 2.9309234619140625
44.91667556762695 8.667551040649414 2.925475835800171
44.96302032470703 8.390751838684082 2.9197752475738525
44.85414505004883 8.08603286743164 2.9165186882019043
45.01117706298828 7.829580783843994 2.9089863300323486
45.037559509277344 7.5498456954956055 2.9035086631774902
45.06121826171875 7.269923686981201 2.8980438709259033
45.09400939941406 6.9916791915893555 2.8923985958099365
45.13397979736328 6.714630603790283 2.886601448059082
45.15641403198242 6.435096740722656 2.8810603618621826
45.17314910888672 6.154998779296875 2.8755834102630615
45.199058532714844 5.876357078552246 2.8699207305908203
45.23515701293945 5.599101543426514 2.8640518188476562
45.24074935913086 5.318238735198975 2.858668088912964
45.29130935668945 5.042718410491943 2.852480411529541
45.326263427734375 4.765313148498535 2.846524715423584
45.346588134765625 4.486388683319092 2.840785503387451
45.36320114135742 4.207208633422852 2.8350789546966553
45.387062072753906 3.928769111633301 2.829209804534912
45.3643684387207 3.6465885639190674 2.8241355419158936
45.4545783996582 3.3733468055725098 2.817009925842285
45.479305267333984 3.0947885513305664 2.8110153675079346
12.589784622192383 0.7782697081565857 3.4037673473358154
45.527618408203125 2.537374496459961 2.7989349365234375
45.54422378540039 2.258143663406372 2.7929773330688477
45.58308029174805 1.9798458814620972 2.7865700721740723
19.528959274291992 0.727522075176239 3.2678041458129883
19.23320960998535 0.598364531993866 3.270902633666992
19.236478805541992 0.48037001490592957 3.268397808074951
13.041254997253418 0.245229572057724 3.3840909004211426
45.732791900634766 0.5824369192123413 2.7547452449798584
12.587321281433105 0.08219332993030548 3.389503240585327
12.62155532836914 0.004993427079170942 3.387200117111206
12.261396408081055 -0.07040131837129593 3.392604351043701
12.304696083068848 -0.14613376557826996 3.390136480331421
12.318534851074219 -0.2218809574842453 3.3882322311401367
12.144000053405762 -0.29328453540802 3.3900794982910156
12.066995620727539 -0.3655119836330414 3.3900012969970703
11.855679512023926 -0.43194201588630676 3.392653703689575
11.968652725219727 -0.5095822215080261 3.3887407779693604
13.57802963256836 -0.661405622959137 3.3540680408477783
13.214300155639648 -0.7250014543533325 3.3597187995910645
12.8343505859375 -0.7831878662109375 3.365795135498047
46.098209381103516 -3.0937929153442383 2.6673502922058105
12.783829689025879 -0.9376647472381592 3.3632752895355225
46.114341735839844 -3.6637020111083984 2.6540486812591553
12.94264030456543 -1.1090975999832153 3.356264591217041
13.303927421569824 -1.2222802639007568 3.346644163131714
11.818565368652344 -1.1591087579727173 3.3768935203552246
12.111509323120117 -1.26286780834198 3.3687965869903564
12.443358421325684 -1.3746510744094849 3.3597490787506104
11.781245231628418 -1.3747773170471191 3.372549533843994
11.735845565795898 -1.4425125122070312 3.3718183040618896
13.612641334533691 -1.7578355073928833 3.328056812286377
13.541132926940918 -1.833130955696106 3.3276290893554688
12.75154972076416 -1.80604088306427 3.3435006141662598
12.789647102355957 -1.8915377855300903 3.340693950653076
13.567248344421387 -2.0915956497192383 3.320858955383301
13.555113792419434 -2.174940347671509 3.3190500736236572
13.520771026611328 -2.2545998096466064 3.3177473545074463
12.782597541809082 -2.2122583389282227 3.3329508304595947
13.26175594329834 -2.3790225982666016 3.3196239471435547
13.655776023864746 -2.536235809326172 3.308154344558716
13.119572639465332 -2.5200557708740234 3.318807363510132
29.581111907958984 -5.868875026702881 2.9200711250305176
33.72160720825195 -6.905457973480225 2.814845323562622
33.69709396362305 -7.116110801696777 2.809938907623291
33.75039291381836 -7.343937397003174 2.8030874729156494
33.739723205566406 -7.5587005615234375 2.7977585792541504
12.736197471618652 -2.9362385272979736 3.315459728240967
33.73762130737305 -7.9941864013671875 2.786501407623291
33.89473342895508 -8.251351356506348 2.7768142223358154
33.89283752441406 -8.471477508544922 2.771071434020996
33.847869873046875 -8.68121337890625 2.766386032104492
33.87991714477539 -8.911312103271484 2.7596871852874756
34.07353591918945 -9.186100959777832 2.7487375736236572
34.057865142822266 -9.406388282775879 2.7431397438049316
34.00999069213867 -9.618124008178711 2.7383456230163574
33.965599060058594 -9.831015586853027 2.733428955078125
33.944801330566406 -10.051104545593262 2.727849006652832
33.93788528442383 -10.275943756103516 2.7218544483184814
33.93425750732422 -10.50255298614502 2.7157225608825684
33.91864013671875 -10.726189613342285 2.7098660469055176
33.96623992919922 -10.97092056274414 2.7022321224212646
34.012107849121094 -11.216638565063477 2.6945743560791016
33.953914642333984 -11.428893089294434 2.689735174179077
34.059844970703125 -11.697674751281738 2.6802737712860107
34.00053405761719 -11.91101360321045 2.6753690242767334
33.996368408203125 -12.144240379333496 2.6688671112060547
34.05636978149414 -12.40180492401123 2.66047739982605
34.151031494140625 -12.674125671386719 2.6510090827941895
34.335262298583984 -12.98271656036377 2.6388509273529053
34.33600997924805 -13.224349021911621 2.631906747817993
34.322044372558594 -13.461366653442383 2.6253325939178467
34.338958740234375 -13.711685180664062 2.6177878379821777
34.3670539855957 -13.967988014221191 2.6098403930664062
34.366493225097656 -14.214067459106445 2.602675437927246
34.338417053222656 -14.449812889099121 2.596275806427002
34.378570556640625 -14.715641021728516 2.5877463817596436
29.69748878479004 -12.928264617919922 2.7236640453338623
34.413639068603516 -15.232991218566895 2.571826934814453
34.44611740112305 -15.50082015991211 2.563286542892456
34.43296813964844 -15.749664306640625 2.5560877323150635
34.41986846923828 -15.999770164489746 2.548820734024048
34.36883544921875 -16.233232498168945 2.5426886081695557
34.38652801513672 -16.50040054321289 2.5343093872070312
34.37617492675781 -16.755693435668945 2.5267481803894043
34.35860061645508 -17.008821487426758 2.519348621368408
34.284732818603516 -17.23497772216797 2.513716220855713
34.200477600097656 -17.456321716308594 2.50838041305542
34.10858154296875 -17.67406463623047 2.50325608253479
34.130306243896484 -17.951824188232422 2.4943039417266846
34.31214904785156 -18.317121505737305 2.47987699508667
34.314125061035156 -18.589624404907227 2.4713644981384277
34.25623321533203 -18.83106231689453 2.46480393409729
30.69692039489746 -17.12071418762207 2.578448534011841
30.250158309936523 -17.115753173828125 2.5861124992370605
34.32823944091797 -19.702030181884766 2.436199188232422
34.28519058227539 -19.95799446105957 2.428809881210327
34.467529296875 -20.348312377929688 2.413374185562134
34.455963134765625 -20.627641677856445 2.4046566486358643
34.454219818115234 -20.914854049682617 2.395493984222412
34.47748565673828 -21.219579696655273 2.3853261470794678
34.399932861328125 -21.464004516601562 2.378718614578247
34.46427917480469 -21.799104690551758 2.3668372631073
34.43828582763672 -22.079694747924805 2.35815691947937
34.54508590698242 -22.448463439941406 2.344431161880493
34.422420501708984 -22.670392990112305 2.3391571044921875
34.44049835205078 -22.986539840698242 2.3285107612609863
34.6820068359375 -23.456619262695312 2.309213638305664
34.672508239746094 -23.761581420898438 2.2993099689483643
34.69586944580078 -24.091821670532227 2.288017749786377
30.05765151977539 -21.145912170410156 2.4586806297302246
34.822208404541016 -24.818458557128906 2.2618885040283203
34.79798126220703 -25.124622344970703 2.2520437240600586
34.82131576538086 -25.46799659729004 2.2401816844940186
34.84976577758789 -25.818553924560547 2.227965831756592
34.851234436035156 -26.152416229248047 2.216693162918091
34.86264419555664 -26.49694061279297 2.2048749923706055
34.89488983154297 -26.860872268676758 2.192047595977783
34.880615234375 -27.192398071289062 2.1809911727905273
34.90751266479492 -27.55943489074707 2.168069362640381
34.82347106933594 -27.84169578552246 2.159672498703003
34.68601608276367 -28.082456588745117 2.153459310531616
34.74168395996094 -28.482250213623047 2.1388823986053467
34.838348388671875 -28.920806884765625 2.1223301887512207
34.65090560913086 -29.12624740600586 2.1179654598236084
34.845855712890625 -29.656946182250977 2.0967154502868652
34.7910270690918 -29.98039436340332 2.0862555503845215
34.91579055786133 -30.463281631469727 2.067612409591675
34.925804138183594 -30.851560592651367 2.0538854598999023
34.79751968383789 -31.120513916015625 2.0462749004364014
34.93247985839844 -31.62919807434082 2.0264735221862793
34.99176025390625 -32.07586669921875 2.0098865032196045
34.85419845581055 -32.34564971923828 2.0022666454315186
34.92951202392578 -32.81682205200195 1.9845149517059326
36.940338134765625 28.815017700195312 3.042632579803467
32.60197448730469 24.1679744720459 3.105515956878662
32.18474197387695 23.554128646850586 3.1106131076812744
32.29533767700195 23.332242965698242 3.1071345806121826
32.445125579833984 23.138917922973633 3.1029787063598633
32.3828125 22.796123504638672 3.1022579669952393
32.383209228515625 22.5006160736084 3.10048770904541
32.5015983581543 22.28853416442871 3.0967469215393066
32.44554138183594 21.958709716796875 3.0958571434020996
32.47148132324219 21.687063217163086 3.0935862064361572
32.4727668762207 21.40106964111328 3.0916993618011475
32.4960823059082 21.131689071655273 3.0894200801849365
32.63008499145508 20.93518829345703 3.085256814956665
32.58970642089844 20.62820053100586 3.0839903354644775
32.69776153564453 20.416772842407227 3.0801963806152344
32.61885452270508 20.090473175048828 3.079537868499756
32.48249053955078 19.732690811157227 3.079843759536743
32.59771728515625 19.52997398376465 3.0758445262908936
32.68929672241211 19.313364028930664 3.0722124576568604
32.738834381103516 19.07270622253418 3.069269895553589
32.43552017211914 18.63045883178711 3.0723953247070312
32.6204719543457 18.471538543701172 3.0670676231384277
32.55587387084961 18.172147750854492 3.0660383701324463
32.697330474853516 17.98896598815918 3.0613934993743896
32.85622024536133 17.814739227294922 3.056401252746582
33.27875900268555 17.780614852905273 3.046720266342163
44.63753128051758 23.499462127685547 2.8435733318328857
44.509151458740234 23.084321975708008 2.842750072479248
44.39250183105469 22.67937660217285 2.8417046070098877
44.193973541259766 22.237184524536133 2.842111110687256
44.074127197265625 21.839136123657227 2.8411011695861816
43.933990478515625 21.43506622314453 2.8404452800750732
43.79958724975586 21.037870407104492 2.839674949645996
43.64299011230469 20.634159088134766 2.8392980098724365
43.544742584228516 20.261850357055664 2.8378493785858154
43.32903289794922 19.83907699584961 2.8385393619537354
43.26567840576172 19.489944458007812 2.8364274501800537
43.09363555908203 19.09535026550293 2.8363044261932373
42.996299743652344 18.737560272216797 2.834791898727417
42.86220169067383 18.367111206054688 2.8339502811431885
42.73624801635742 18.00367546081543 2.8329477310180664
42.61946487426758 17.647451400756836 2.8317627906799316
42.4786262512207 17.28467559814453 2.831022262573242
42.344234466552734 16.92800521850586 2.830152750015259
42.25733184814453 16.593372344970703 2.828371286392212
42.110084533691406 16.238140106201172 2.8277294635772705
41.94324493408203 15.878968238830566 2.827458620071411
41.846702575683594 15.549625396728516 2.8258304595947266
41.76554870605469 15.228575706481934 2.823892116546631
41.63873291015625 14.89361572265625 2.8228261470794678
41.53203582763672 14.568732261657715 2.821359872817993
41.541107177734375 14.286370277404785 2.8176109790802
41.28299331665039 13.915013313293457 2.8190979957580566
41.19089126586914 13.60318374633789 2.817314386367798
41.05562210083008 13.27977466583252 2.816376209259033
40.966552734375 12.973936080932617 2.8145108222961426
40.86954879760742 12.667915344238281 2.8127903938293457
40.731117248535156 12.351677894592285 2.8118937015533447
40.62773132324219 12.048704147338867 2.810283899307251
40.531768798828125 11.750249862670898 2.8085126876831055
40.45484924316406 11.459424018859863 2.8063406944274902
40.31229019165039 11.152386665344238 2.8055007457733154
40.20900344848633 10.85874080657959 2.8038489818573
40.432342529296875 10.653411865234375 2.795421600341797
40.86866760253906 10.500744819641113 2.7824900150299072
41.29008102416992 10.339478492736816 2.76975679397583
41.75960159301758 10.185279846191406 2.755901575088501
42.206390380859375 10.020392417907715 2.742403507232666
42.66732406616211 9.853779792785645 2.728487491607666
43.159000396728516 9.68889331817627 2.713792562484741
43.63656234741211 9.515357971191406 2.6992695331573486
44.140010833740234 9.341915130615234 2.6840615272521973
44.6370849609375 9.161442756652832 2.668855667114258
44.893333435058594 8.927435874938965 2.6587400436401367
44.914737701416016 8.645639419555664 2.6536574363708496
44.95894241333008 8.368492126464844 2.6480350494384766
44.88533020019531 8.070244789123535 2.6449625492095947
44.998878479003906 7.806033611297607 2.6377296447753906
45.02804183959961 7.526881694793701 2.632312297821045
45.05744934082031 7.247982501983643 2.626847505569458
45.08710861206055 6.969310760498047 2.62133526802063
45.11404800415039 6.69040060043335 2.615839719772339
45.1402587890625 6.411562442779541 2.610318183898926
45.16870880126953 6.1331915855407715 2.604703903198242
45.20237350463867 5.855612277984619 2.5989248752593994
45.21846389770508 5.575891017913818 2.593505859375
45.24671936035156 5.297820568084717 2.5877630710601807
33.39132308959961 3.701681137084961 2.8578171730041504
33.40237045288086 3.495633602142334 2.8537437915802
33.4171142578125 3.290079355239868 2.8495519161224365
45.35359191894531 4.185279369354248 2.564486026763916
45.38127136230469 3.90724515914917 2.558530569076538
45.354427337646484 3.624805212020874 2.5538249015808105
12.691868782043457 0.9345718622207642 3.329418897628784
45.472015380859375 3.0733025074005127 2.540194511413574
12.543655395507812 0.7690399885177612 3.329951524734497
12.609989166259766 0.6955021619796753 3.3268184661865234
45.52943801879883 2.2364518642425537 2.5222346782684326
45.56813049316406 1.9582359790802002 2.515674591064453
19.467815399169922 0.7158260345458984 3.1531684398651123
19.2409610748291 0.5892972350120544 3.156350612640381
12.04956340789795 0.2943095862865448 3.3329381942749023
12.236019134521484 0.22380124032497406 3.326741933822632
12.70394229888916 0.1544893980026245 3.3134076595306396
12.655632019042969 0.07625356316566467 3.3129897117614746
12.676817893981934 -0.0013802906032651663 3.3108057975769043
12.758504867553711 -0.07964228838682175 3.307058334350586
12.967655181884766 -0.1604698747396469 3.300004243850708
12.956392288208008 -0.2398308962583542 3.298569440841675
12.58987045288086 -0.31037163734436035 3.30633807182312
12.761551856994629 -0.39292100071907043 3.3001604080200195
12.486140251159668 -0.4611686170101166 3.3056399822235107
12.135479927062988 -0.5228382349014282 3.313164234161377
12.9287691116333 -0.6363620162010193 3.290475606918335
12.889647483825684 -0.7137300372123718 3.2897138595581055
12.847071647644043 -0.7904587388038635 3.289041042327881
12.848923683166504 -0.8697230815887451 3.2871711254119873
12.849287986755371 -0.9489665031433105 3.2853264808654785
12.001174926757812 -0.9605230093002319 3.3065390586853027
13.239954948425293 -1.141240119934082 3.270932674407959
13.266507148742676 -1.225557565689087 3.268266439437866
12.056960105895996 -1.1886454820632935 3.299731731414795
12.25122356414795 -1.2836971282958984 3.2925429344177246
12.719974517822266 -1.4116748571395874 3.2776153087615967
33.93486785888672 -3.973578929901123 2.679964065551758
33.930564880371094 -4.184237480163574 2.6749184131622314
12.734344482421875 -1.651026725769043 3.2713961601257324
12.774450302124023 -1.7359683513641357 3.268280267715454
13.801681518554688 -1.9617022275924683 3.2368078231811523
12.670036315917969 -1.8803918361663818 3.267289400100708
14.15285873413086 -2.1890370845794678 3.222257614135742
34.016380310058594 -5.472326755523682 2.640510082244873
13.337098121643066 -2.230862617492676 3.241640567779541
13.261066436767578 -2.301873207092285 3.241713762283325
13.23779582977295 -2.381585121154785 3.2402286529541016
13.19340991973877 -2.457258462905884 3.2393627166748047
12.7942533493042 -2.4642856121063232 3.249133825302124
12.725911140441895 -2.5321972370147705 3.249042510986328
12.61805248260498 -2.5913264751434326 3.250154495239258
33.69520568847656 -7.132102012634277 2.605090618133545
33.76007080078125 -7.362509727478027 2.5972847938537598
33.77558135986328 -7.583254814147949 2.590927839279175
33.75459289550781 -7.796371936798096 2.5856480598449707
33.88299560546875 -8.045300483703613 2.575662136077881
33.90473175048828 -8.270520210266113 2.568924903869629
33.89104080200195 -8.487812042236328 2.5632450580596924
33.69395446777344 -8.658488273620605 2.563337802886963
33.90972900390625 -8.936059951782227 2.5502662658691406
34.05485153198242 -9.198101043701172 2.5393290519714355
34.05063247680664 -9.42148494720459 2.533104419708252
34.033409118652344 -9.641895294189453 2.5272469520568848
34.032039642333984 -9.867457389831543 2.5208194255828857
34.00426483154297 -10.085978507995605 2.5152018070220947
33.93013381958008 -10.290897369384766 2.511068105697632
33.942596435546875 -10.52251148223877 2.5040230751037598
34.08308410644531 -10.795703887939453 2.492628574371338
34.05126190185547 -11.015954971313477 2.4869155883789062
34.04743194580078 -11.24593734741211 2.480203628540039
33.97386932373047 -11.453302383422852 2.4758050441741943
34.0899658203125 -11.725850105285645 2.464873790740967
34.044593811035156 -11.944337844848633 2.4593942165374756
34.024173736572266 -12.172136306762695 2.4530012607574463
34.06796646118164 -12.424100875854492 2.4443092346191406
34.2008171081543 -12.71082878112793 2.432403326034546
34.30618667602539 -12.990097045898438 2.4213414192199707
34.308692932128906 -13.232297897338867 2.413818120956421
34.32719039916992 -13.481958389282227 2.405648708343506
34.33184814453125 -13.727520942687988 2.3978960514068604
34.353294372558594 -13.981181144714355 2.3894588947296143
34.364601135253906 -14.232179641723633 2.381305456161499
34.36675262451172 -14.480738639831543 2.3734066486358643
34.35979080200195 -14.72670841217041 2.3657631874084473
34.393245697021484 -14.991504669189453 2.356544017791748
34.38087463378906 -15.237829208374023 2.348940134048462
34.428741455078125 -15.512480735778809 2.338996171951294
34.42000198364258 -15.763324737548828 2.3310866355895996
34.41490936279297 -16.017175674438477 2.322958469390869
34.438716888427734 -16.286081314086914 2.3136391639709473
34.39204025268555 -16.522993087768555 2.306938409805298
34.35992431640625 -16.767831802368164 2.2996065616607666
34.329673767089844 -17.014673233032227 2.292128801345825
34.32178497314453 -17.273906707763672 2.2836949825286865
34.20432662963867 -17.478660583496094 2.279508113861084
34.08652877807617 -17.683086395263672 2.2753005027770996
34.20538330078125 -18.0119686126709 2.2615723609924316
34.293270111083984 -18.327899932861328 2.248934268951416
34.37153244018555 -18.64177131652832 2.236539840698242
34.25547409057617 -18.85177993774414 2.2319495677948
30.68795394897461 -17.1348819732666 2.3694186210632324
30.212533950805664 -17.113492965698242 2.3806023597717285
34.2548942565918 -19.681547164916992 2.203434944152832
34.35523986816406 -20.020605087280273 2.189492702484131
34.48109436035156 -20.378408432006836 2.1743040084838867
34.348388671875 -20.585424423217773 2.1699421405792236
34.453575134277344 -20.936885833740234 2.1553423404693604
34.45277404785156 -21.226980209350586 2.145139694213867
34.41071701049805 -21.493501663208008 2.1366138458251953
34.416500091552734 -21.791847229003906 2.1258974075317383
34.54016876220703 -22.16824722290039 2.109855890274048
34.52731704711914 -22.460344314575195 2.099674940109253
34.429569244384766 -22.698667526245117 2.0931711196899414
34.46148681640625 -23.024343490600586 2.0807600021362305
34.655364990234375 -23.462738037109375 2.0608484745025635
34.7306022644043 -23.825801849365234 2.046095371246338
34.69272232055664 -24.11424446105957 2.0363612174987793
30.030574798583984 -21.14849853515625 2.2408573627471924
34.79246520996094 -24.822399139404297 2.0083470344543457
34.78835678100586 -25.143049240112305 1.9966096878051758
34.80096435546875 -25.478748321533203 1.9839321374893188
34.832427978515625 -25.83161163330078 1.9701942205429077
34.819313049316406 -26.154613494873047 1.9584217071533203
34.86079788208008 -26.52198028564453 1.9438539743423462
34.88007736206055 -26.876201629638672 1.930178165435791
34.85691833496094 -27.20091438293457 1.9184088706970215
34.8938102722168 -27.575918197631836 1.9035123586654663
34.82987594604492 -27.87434959411621 1.8934509754180908
34.67197799682617 -28.098798751831055 1.8879919052124023
34.71733474731445 -28.49032974243164 1.8721674680709839
34.83142852783203 -28.943496704101562 1.852611780166626
34.859439849853516 -29.330297470092773 1.8372128009796143
34.84064483642578 -29.68159294128418 1.8240300416946411
34.848350524902344 -30.059206008911133 1.809280514717102
34.8956298828125 -30.47549057006836 1.7922377586364746
34.90391540527344 -30.86237335205078 1.7770254611968994
34.878971099853516 -31.22384262084961 1.7633775472640991
34.91753387451172 -31.64655113220215 1.746106505393982
34.9882926940918 -32.104000091552734 1.7268314361572266
34.90172576904297 -32.421382904052734 1.7159093618392944
34.94797134399414 -32.866214752197266 1.6974843740463257
32.34047317504883 30.085609436035156 2.8653974533081055
32.49267578125 29.857566833496094 2.8621580600738525
32.82542037963867 29.794095993041992 2.8545825481414795
32.3575553894043 29.00951385498047 2.865933895111084
32.42851638793945 28.716354370117188 2.864452362060547
32.71234893798828 28.61167335510254 2.8578720092773438
37.019874572753906 28.571353912353516 2.7541956901550293
37.32316589355469 28.44189453125 2.7465226650238037
32.724735260009766 24.622005462646484 2.85528302192688
32.395103454589844 24.06427574157715 2.8626155853271484
32.218711853027344 23.628009796142578 2.8662664890289307
