# .PCD v0.7 - Point Cloud Data file format
VERSION 0.7
FIELDS x y z
SIZE 4 4 4
TYPE F F F
COUNT 1 1 1
WIDTH 847
HEIGHT 1
VIEWPOINT 0 0 0 1 0 0 0
POINTS 847
DATA ascii
14.172101974487305 9.75387191772461 2.2412095069885254
14.218301773071289 9.657800674438477 2.240727424621582
14.25475025177002 9.555420875549316 2.2411303520202637
14.282998085021973 9.448009490966797 2.2422592639923096
14.322983741760254 9.348782539367676 2.242171049118042
14.372347831726074 9.25589656829834 2.2411046028137207
14.38493824005127 9.139769554138184 2.243528366088867
14.432957649230957 9.046600341796875 2.2424540519714355
14.476139068603516 8.950563430786133 2.241781234741211
14.517834663391113 8.853818893432617 2.241185188293457
14.550347328186035 8.75175952911377 2.2414021492004395
14.638728141784668 8.683197021484375 2.2362146377563477
14.77154541015625 8.640045166015625 2.2267489433288574
14.841357231140137 8.559237480163574 2.2232463359832764
14.906399726867676 8.475433349609375 2.2201426029205322
15.007486343383789 8.411620140075684 2.2135720252990723
14.982733726501465 8.277477264404297 2.218846321105957
15.103068351745605 8.223551750183105 2.2103545665740967
27.733007431030273 14.88192367553711 1.0249239206314087
27.81110954284668 14.705015182495117 1.0225774049758911
27.90841293334961 14.538296699523926 1.018315315246582
33.046470642089844 16.449798583984375 0.5530641674995422
32.915504455566406 16.13362693786621 0.5703662633895874
33.00089645385742 15.925363540649414 0.5673620104789734
33.053466796875 15.701692581176758 0.567269504070282
33.084686279296875 15.46868896484375 0.5690146088600159
33.097991943359375 15.228392601013184 0.572269082069397
33.13047790527344 14.997967720031738 0.5736013650894165
33.12224578857422 14.750283241271973 0.5785459280014038
33.07206726074219 14.485671043395996 0.5872021317481995
33.11507034301758 14.263227462768555 0.5871235132217407
33.13274002075195 14.030695915222168 0.5892355442047119
33.14971923828125 13.798866271972656 0.5912684798240662
33.172489166259766 13.570374488830566 0.5926288366317749
33.21126937866211 13.349180221557617 0.5923843383789062
33.071571350097656 13.058121681213379 0.6083323359489441
33.11722183227539 12.842053413391113 0.6071740388870239
33.49668502807617 12.753559112548828 0.5754027962684631
33.659759521484375 12.57995319366455 0.5632961392402649
33.70222854614258 12.3609037399292 0.562069833278656
33.71702575683594 12.132359504699707 0.5632315874099731
33.73311233520508 11.90509033203125 0.564140796661377
33.74014663696289 11.6754732131958 0.5657382011413574
33.74752426147461 11.446855545043945 0.5671699047088623
33.763771057128906 11.22204303741455 0.56766277551651
33.77000427246094 10.994683265686035 0.5689323544502258
33.765228271484375 10.764640808105469 0.5710681080818176
33.78173065185547 10.542193412780762 0.5711426138877869
33.78725051879883 10.317037582397461 0.5720826983451843
33.791282653808594 10.092206954956055 0.5730274319648743
33.80147933959961 9.869949340820312 0.5732855796813965
33.81501007080078 9.649311065673828 0.5731131434440613
33.83287048339844 9.43048095703125 0.5724219679832458
33.84162902832031 9.209699630737305 0.5724273920059204
33.841251373291016 8.9871187210083 0.5731332302093506
33.841346740722656 8.765385627746582 0.5736704468727112
33.86994171142578 8.551549911499023 0.5715056657791138
33.884605407714844 8.334596633911133 0.5704746842384338
33.886268615722656 8.114999771118164 0.5704969167709351
33.892330169677734 7.897048473358154 0.56999671459198
33.896995544433594 7.679327487945557 0.5694995522499084
33.90513229370117 7.462915420532227 0.5685661435127258
33.92455291748047 7.249396324157715 0.5664889216423035
33.94068145751953 7.035512924194336 0.564588725566864
33.95448684692383 6.821506977081299 0.5627750754356384
33.95227813720703 6.604740142822266 0.5622898936271667
33.94673156738281 6.3878865242004395 0.5619850158691406
33.96724319458008 6.176337718963623 0.5592015385627747
33.97858810424805 5.96339750289917 0.5571268796920776
33.991546630859375 5.751046657562256 0.5547850728034973
33.988433837890625 5.5363569259643555 0.5537796020507812
33.98298645019531 5.321765422821045 0.5528675317764282
33.99292755126953 5.109964847564697 0.5504392385482788
34.014366149902344 4.900085926055908 0.5468488931655884
34.029571533203125 4.689454555511475 0.5437023639678955
34.0424919128418 4.478688716888428 0.5406448245048523
34.049163818359375 4.2673187255859375 0.5380343198776245
34.06144332885742 4.056858539581299 0.534794270992279
33.63401412963867 3.7968974113464355 0.5714722275733948
33.47307205200195 3.570972442626953 0.5838079452514648
33.475128173828125 3.3636975288391113 0.5811850428581238
33.52151107788086 3.160831928253174 0.574399471282959
33.548805236816406 2.9559473991394043 0.5692349076271057
33.55201721191406 2.7489733695983887 0.5661506056785583
33.5321044921875 2.5404129028320312 0.5650658011436462
33.620174407958984 2.3398070335388184 0.5539753437042236
33.604679107666016 2.13171648979187 0.5522502064704895
15.749069213867188 0.9014343023300171 2.1882026195526123
15.776994705200195 0.8059870004653931 2.1840527057647705
15.784440040588379 0.7093341946601868 2.1817259788513184
15.782340049743652 0.6122711300849915 2.1802217960357666
15.801539421081543 0.515976071357727 2.176698684692383
15.82114315032959 0.4194939136505127 2.173078775405884
15.831199645996094 0.3226062059402466 2.170281410217285
15.807802200317383 0.22513926029205322 2.170522689819336
33.72029113769531 0.2748217284679413 0.5079459547996521
33.705013275146484 0.06795290112495422 0.5050269961357117
33.710365295410156 -0.1388099193572998 0.5000750422477722
33.71843338012695 -0.3456789553165436 0.49474918842315674
12.93019962310791 -0.21266242861747742 2.4283883571624756
11.971902847290039 -0.27045875787734985 2.516031503677368
12.17888069152832 -0.34986868500709534 2.4949190616607666
11.974367141723633 -0.41754189133644104 2.5122506618499756
33.77350616455078 -1.3828508853912354 0.46488818526268005
33.70033264160156 -1.586986780166626 0.46645408868789673
13.160258293151855 -0.7014330625534058 2.394944190979004
12.826587677001953 -0.7626147866249084 2.424248695373535
12.803632736206055 -0.8401036262512207 2.4242591857910156
33.8651008605957 -2.428694486618042 0.4284210205078125
12.755331993103027 -0.9942455291748047 2.4243884086608887
12.912528991699219 -1.0862181186676025 2.4071640968322754
33.82334899902344 -3.0522942543029785 0.41416823863983154
12.566949844360352 -1.2126327753067017 2.435347557067871
33.89046859741211 -3.478052854537964 0.3949801027774811
33.89479446411133 -3.688768148422241 0.38797351717948914
33.89682388305664 -3.8995563983917236 0.38105523586273193
33.90149688720703 -4.110990047454834 0.3737521469593048
33.91866683959961 -4.3243913650512695 0.36511051654815674
33.93745040893555 -4.5385565757751465 0.35617300868034363
33.93910598754883 -4.750909805297852 0.34875303506851196
33.95322036743164 -4.965473175048828 0.3399878740310669
33.94925308227539 -5.177839279174805 0.33284154534339905
33.959678649902344 -5.392843246459961 0.32415705919265747
33.99919128417969 -5.613197326660156 0.3124898374080658
33.975460052490234 -5.823649883270264 0.3068573772907257
13.305537223815918 -2.365572690963745 2.327861785888672
33.99652862548828 -6.257644176483154 0.28846609592437744
34.03040313720703 -6.480011463165283 0.2767484486103058
34.00325012207031 -6.691310882568359 0.2709069550037384
33.94649887084961 -6.896777629852295 0.2678699493408203
33.90311813354492 -7.104864597320557 0.26338857412338257
33.95088195800781 -7.332638740539551 0.24969853460788727
33.94854736328125 -7.550466537475586 0.24084331095218658
34.03406524658203 -7.788966655731201 0.22303549945354462
34.03945541381836 -8.010337829589844 0.2130838930606842
34.038570404052734 -8.230901718139648 0.20360982418060303
34.039154052734375 -8.452478408813477 0.19383439421653748
34.09712219238281 -8.689361572265625 0.17808838188648224
34.10820388793945 -8.915451049804688 0.16691800951957703
34.11106491088867 -9.1402006149292 0.15642201900482178
34.09516906738281 -9.360580444335938 0.14768245816230774
34.07976531982422 -9.58165168762207 0.13874156773090363
34.09353256225586 -9.811694145202637 0.12664613127708435
34.06374740600586 -10.029900550842285 0.11887280642986298
34.06877899169922 -10.259017944335938 0.10734841972589493
29.49291229248047 -13.003368377685547 0.35774463415145874
33.374053955078125 -19.092283248901367 -0.35345152020454407
33.31343460083008 -19.330066680908203 -0.36487019062042236
33.27000427246094 -19.578927993774414 -0.37856584787368774
33.19401931762695 -19.809633255004883 -0.38854098320007324
20.32484245300293 -13.526237487792969 1.07083261013031
20.02841567993164 -13.50718879699707 1.095045804977417
19.739572525024414 -13.489507675170898 1.1184900999069214
19.577632904052734 -13.555980682373047 1.1258679628372192
19.500295639038086 -13.680371284484863 1.1223715543746948
19.46432113647461 -13.834283828735352 1.1134247779846191
19.466733932495117 -14.016739845275879 1.0993257761001587
19.381431579589844 -14.320064544677734 1.0823546648025513
19.430633544921875 -14.541742324829102 1.0614807605743408
19.272974014282227 -14.796553611755371 1.0531368255615234
19.349489212036133 -15.23669719696045 1.0126484632492065
19.427141189575195 -15.49209213256836 0.9865932464599609
28.739686965942383 -24.09613800048828 -0.3780372142791748
28.681015014648438 -24.348527908325195 -0.3946407735347748
28.727394104003906 -24.693138122558594 -0.4263850152492523
28.784862518310547 -25.051631927490234 -0.4601920545101166
28.64950942993164 -25.244796752929688 -0.46691471338272095
20.904911041259766 -18.65032958984375 0.6223906874656677
20.780864715576172 -18.770198822021484 0.620805025100708
20.328886032104492 -18.59001350402832 0.6669980883598328
20.084209442138672 -18.594120025634766 0.6832841038703918
19.87653160095215 -18.629928588867188 0.6942554116249084
19.70379638671875 -18.696741104125977 0.7001113295555115
19.54676628112793 -18.777292251586914 0.7036325335502625
15.511246681213379 14.431318283081055 1.84907066822052
13.102964401245117 11.60444450378418 2.1529815196990967
13.1024751663208 11.461526870727539 2.159379243850708
13.139932632446289 11.352931022644043 2.161390781402588
13.168218612670898 11.237190246582031 2.1643311977386475
13.21614933013916 11.138871192932129 2.164985418319702
13.249587059020996 11.028909683227539 2.167161226272583
13.282174110412598 10.918957710266113 2.1693363189697266
13.317781448364258 10.81216049194336 2.1710853576660156
13.350248336791992 10.70346736907959 2.173088312149048
13.386571884155273 10.598494529724121 2.174579381942749
13.42367935180664 10.494706153869629 2.1758978366851807
13.463963508605957 10.393904685974121 2.1767873764038086
13.500347137451172 10.29058837890625 2.17801570892334
13.535176277160645 10.186615943908691 2.1793272495269775
13.570037841796875 10.083198547363281 2.180551528930664
13.606552124023438 9.981502532958984 2.181516408920288
13.642330169677734 9.879739761352539 2.182478666305542
13.684667587280273 9.783127784729004 2.1826653480529785
13.705170631408691 9.671429634094238 2.1850852966308594
13.746891021728516 9.575224876403809 2.185180425643921
13.787128448486328 9.478307723999023 2.1853578090667725
13.822572708129883 9.378458976745605 2.1859631538391113
13.863104820251465 9.2824125289917 2.185960531234741
13.90215015411377 9.18567180633545 2.1860406398773193
13.939695358276367 9.088254928588867 2.186203956604004
13.979084014892578 8.992341995239258 2.186103343963623
14.022024154663086 8.898955345153809 2.1855645179748535
14.052526473999023 8.797977447509766 2.1862387657165527
14.095879554748535 8.705334663391113 2.1855175495147705
14.145429611206055 8.616639137268066 2.184093713760376
14.19442367553711 8.527660369873047 2.1826629638671875
14.241142272949219 8.437389373779297 2.1814005374908447
14.3251314163208 8.368978500366211 2.1762804985046387
14.426361083984375 8.192623138427734 2.1726632118225098
14.48746109008789 8.110309600830078 2.169700860977173
14.665824890136719 8.092535972595215 2.154853582382202
15.058891296386719 8.189494132995605 2.118387460708618
15.812742233276367 8.474410057067871 2.0457589626312256
27.981082916259766 14.777363777160645 0.8290375471115112
27.674110412597656 14.399003028869629 0.8651953935623169
27.71990203857422 14.20763111114502 0.86585533618927
27.80440330505371 14.036441802978516 0.8625243306159973
32.74137496948242 15.780571937561035 0.3873978555202484
32.3485221862793 15.347594261169434 0.43162083625793457
32.72050857543945 15.279121398925781 0.39995431900024414
32.9842529296875 15.156746864318848 0.37892067432403564
33.12065887451172 14.974255561828613 0.3703506886959076
33.102272033691406 14.722248077392578 0.3768889307975769
33.09025955200195 14.474620819091797 0.3826351463794708
33.09476089477539 14.235566139221191 0.38659799098968506
33.12692642211914 14.009415626525879 0.38769251108169556
33.15940475463867 13.784168243408203 0.388607382774353
33.16271209716797 13.547746658325195 0.39222702383995056
33.203189849853516 13.327385902404785 0.39206480979919434
33.06896209716797 13.038715362548828 0.40879884362220764
33.090335845947266 12.813335418701172 0.41019320487976074
33.50300598144531 12.737556457519531 0.3733578622341156
33.64167404174805 12.554803848266602 0.3630962073802948
33.69425964355469 12.339656829833984 0.36107414960861206
33.70610809326172 12.110191345214844 0.36286619305610657
33.718292236328125 11.881704330444336 0.3644809126853943
33.7270622253418 11.652871131896973 0.366282194852829
33.73807144165039 11.425653457641602 0.3677233159542084
33.75040054321289 11.199679374694824 0.3688947558403015
33.74323272705078 10.968132019042969 0.37180960178375244
33.75917053222656 10.74494457244873 0.37235045433044434
33.773643493652344 10.521973609924316 0.37289270758628845
33.79141616821289 10.300678253173828 0.3729791045188904
33.7867546081543 10.073299407958984 0.3750918507575989
33.794918060302734 9.850544929504395 0.3758297860622406
33.800662994384766 9.627793312072754 0.3766639232635498
33.8126220703125 9.407474517822266 0.3767629861831665
33.82795715332031 9.188676834106445 0.3764018714427948
33.83803176879883 8.96902084350586 0.37641364336013794
33.835121154785156 8.746593475341797 0.37754154205322266
33.85393142700195 8.530378341674805 0.37644508481025696
33.871360778808594 8.314258575439453 0.3753494322299957
33.86126708984375 8.09199333190918 0.37676963210105896
33.87009048461914 7.8749003410339355 0.3762374818325043
33.88432312011719 7.6595377922058105 0.37505388259887695
33.89719009399414 7.444294452667236 0.37387222051620483
33.9125862121582 7.230010032653809 0.37231528759002686
33.93345642089844 7.017225742340088 0.3701029121875763
33.9276123046875 6.799367904663086 0.3703310489654541
33.936012268066406 6.584878444671631 0.36905959248542786
33.93523025512695 6.369069576263428 0.368541955947876
33.95169448852539 6.1568922996521 0.36623722314834595
33.9619255065918 5.943891525268555 0.3644035756587982
33.98064041137695 5.732651233673096 0.36162489652633667
33.984283447265625 5.519167900085449 0.36017003655433655
33.983642578125 5.305391788482666 0.35900139808654785
33.979679107666016 5.091534614562988 0.3580246567726135
33.99802780151367 4.881319046020508 0.35477086901664734
34.008174896240234 4.670119285583496 0.3521804213523865
34.0239143371582 4.459882736206055 0.34892308712005615
34.02847671508789 4.248392581939697 0.3466169536113739
34.03865051269531 4.037832736968994 0.3436434268951416
32.60332107543945 3.664874315261841 0.480366587638855
32.719810485839844 3.4749245643615723 0.4669429063796997
32.364723205566406 3.236602783203125 0.4990616738796234
32.82258987426758 3.0792412757873535 0.4523051679134369
32.82061767578125 2.8761205673217773 0.44997018575668335
32.465213775634766 2.6444287300109863 0.48183318972587585
32.92804718017578 2.478975296020508 0.4341164529323578
32.66915512084961 2.2580666542053223 0.4563993215560913
32.86674880981445 2.069286346435547 0.43416598439216614
15.747122764587402 0.8934355974197388 2.0994479656219482
15.778952598571777 0.7981919050216675 2.0947813987731934
15.785344123840332 0.7014822363853455 2.0925347805023193
15.78219223022461 0.6043790578842163 2.0911614894866943
15.798337936401367 0.5079821348190308 2.087841272354126
15.82284927368164 0.41164273023605347 2.083638906478882
15.829854011535645 0.31468212604522705 2.081089973449707
15.804420471191406 0.21720802783966064 2.0816662311553955
32.74700927734375 0.25139397382736206 0.41333436965942383
32.757469177246094 0.05054572969675064 0.40808433294296265
32.777645111083984 -0.1504734605550766 0.4017494022846222
12.520360946655273 -0.1355592906475067 2.397702217102051
12.52908706665039 -0.21251988410949707 2.3950836658477783
12.52739143371582 -0.28936538100242615 2.3934473991394043
12.842533111572266 -0.37542369961738586 2.3603391647338867
12.854744911193848 -0.45471397042274475 2.3571789264678955
12.848569869995117 -0.533428966999054 2.35579514503479
32.9189453125 -1.5657813549041748 0.35375869274139404
13.093120574951172 -0.704543948173523 2.3272430896759033
12.842052459716797 -0.7701073288917542 2.3501577377319336
12.815079689025879 -0.8474209904670715 2.3506643772125244
12.565335273742676 -0.9083988070487976 2.373479127883911
12.827201843261719 -1.0064244270324707 2.344914674758911
12.236645698547363 -1.035752534866333 2.402031660079956
13.560722351074219 -1.2314345836639404 2.2661843299865723
12.022655487060547 -1.1664081811904907 2.4190409183502197
33.16752624511719 -3.419691562652588 0.27562060952186584
33.098018646240234 -3.6178791522979736 0.27608439326286316
33.163719177246094 -3.8310928344726562 0.26269567012786865
33.47100830078125 -4.074814319610596 0.2245354801416397
33.054141998291016 -4.230049133300781 0.2600293457508087
33.862335205078125 -4.544754981994629 0.17025083303451538
33.92302703857422 -4.764956474304199 0.15660761296749115
33.93011474609375 -4.978424549102783 0.14830262959003448
33.888648986816406 -5.184942245483398 0.1448502242565155
33.787960052490234 -5.381911277770996 0.1473848670721054
33.76367950439453 -5.590677738189697 0.14192058145999908
33.86261749267578 -5.820746898651123 0.12354761362075806
29.2471866607666 -5.212632179260254 0.5948718190193176
33.78383255004883 -6.234977722167969 0.11503463983535767
33.68586730957031 -6.430888652801514 0.11670056730508804
33.7380485534668 -6.655669212341309 0.10255120694637299
29.437570571899414 -12.99585247039795 0.18126246333122253
20.540788650512695 -13.503264427185059 0.9170247316360474
20.462182998657227 -13.63230037689209 0.9135820269584656
19.541234970092773 -13.368288040161133 1.0089894533157349
19.326274871826172 -13.572715759277344 1.0103225708007812
19.397804260253906 -13.801608085632324 0.9864749312400818
19.97681999206543 -14.399127006530762 0.8926679491996765
19.579805374145508 -14.481765747070312 0.9175122380256653
19.510929107666016 -14.617073059082031 0.9119622111320496
19.37541389465332 -14.702227592468262 0.9156366586685181
19.322336196899414 -14.849851608276367 0.9076600074768066
19.23130989074707 -14.968692779541016 0.9049144983291626
19.2144775390625 -15.146031379699707 0.8914856314659119
19.29314422607422 -15.59609317779541 0.847745418548584
19.301334381103516 -15.799728393554688 0.8299150466918945
27.48151206970215 -22.778179168701172 -0.38256704807281494
27.251684188842773 -22.871564865112305 -0.37323030829429626
27.07097053527832 -23.00481605529785 -0.3711339831352234
26.888898849487305 -23.13606834411621 -0.36889785528182983
26.72871208190918 -23.285537719726562 -0.37000057101249695
26.540132522583008 -23.409597396850586 -0.3669244050979614
20.79886817932129 -18.57451057434082 0.47851818799972534
20.56913948059082 -18.597776412963867 0.49322059750556946
20.31572723388672 -18.596786499023438 0.5116862654685974
20.0623836517334 -18.592721939086914 0.5303168296813965
19.843198776245117 -18.61752700805664 0.543807864189148
19.64824867248535 -18.66292953491211 0.5536147952079773
19.447044372558594 -18.7004451751709 0.5644751787185669
15.50993824005127 14.460034370422363 1.7173895835876465
12.973034858703613 11.801239967346191 2.045694351196289
12.99979305267334 11.6808443069458 2.0495998859405518
13.024077415466309 11.559245109558105 2.053687334060669
13.072072982788086 11.459449768066406 2.054790735244751
13.105785369873047 11.347766876220703 2.0575201511383057
13.149972915649414 11.245809555053711 2.0588886737823486
13.193406105041504 11.143738746643066 2.060253858566284
13.214670181274414 11.02369499206543 2.064159631729126
13.261861801147461 10.925972938537598 2.0648844242095947
13.298310279846191 10.819913864135742 2.0667881965637207
13.3355131149292 10.715067863464355 2.0685079097747803
13.372710227966309 10.61078929901123 2.070134162902832
13.40129280090332 10.500317573547363 2.072671890258789
13.441627502441406 10.399641990661621 2.0737464427948
13.479650497436523 10.29765796661377 2.0750010013580322
13.518518447875977 10.196797370910645 2.0760695934295654
13.547872543334961 10.08930492401123 2.0781445503234863
13.580430030822754 9.984785079956055 2.0797598361968994
13.623498916625977 9.888432502746582 2.0800862312316895
13.662660598754883 9.789607048034668 2.080777168273926
13.694618225097656 9.686074256896973 2.0822014808654785
13.73561954498291 9.58935546875 2.0825178623199463
13.774311065673828 9.49136734008789 2.083014726638794
13.804908752441406 9.388226509094238 2.084340810775757
13.849642753601074 9.295053482055664 2.083998918533325
13.873827934265137 9.18848991394043 2.085875988006592
13.917234420776367 9.095049858093262 2.085527181625366
13.941606521606445 8.989553451538086 2.087216377258301
13.98453426361084 8.896390914916992 2.0867674350738525
14.024311065673828 8.801450729370117 2.086592674255371
14.062604904174805 8.705833435058594 2.0865070819854736
14.10195255279541 8.611113548278809 2.086230754852295
14.140668869018555 8.51623821258545 2.0859508514404297
14.179607391357422 8.421717643737793 2.085573196411133
14.217061042785645 8.3265380859375 2.085284948348999
14.259054183959961 8.234200477600098 2.084430694580078
14.302179336547852 8.142646789550781 2.083383560180664
14.34992790222168 8.053793907165527 2.0817675590515137
14.591394424438477 8.072127342224121 2.0591750144958496
14.976089477539062 8.165472984313965 2.021181344985962
15.829888343811035 8.505534172058105 1.9328581094741821
27.52457618713379 14.572114944458008 0.6821175813674927
27.569820404052734 14.380456924438477 0.6832668781280518
27.611093521118164 14.18742561340332 0.6846981644630432
27.659032821655273 13.998473167419434 0.6852759718894958
27.693220138549805 13.803248405456543 0.6871782541275024
27.781465530395508 13.635322570800781 0.6831957101821899
27.906333923339844 13.485020637512207 0.6752082705497742
28.16434669494629 13.39741039276123 0.6530202031135559
28.44846534729004 13.319376945495605 0.6280124187469482
32.910518646240234 15.163188934326172 0.1621849685907364
33.10038375854492 15.0054292678833 0.1476934850215912
33.13954162597656 14.779013633728027 0.148938849568367
33.06322479248047 14.502700805664062 0.16215020418167114
33.10268020629883 14.278735160827637 0.16302621364593506
33.11772537231445 14.04511547088623 0.16630135476589203
33.14033889770508 13.815675735473633 0.1686200350522995
33.176124572753906 13.592522621154785 0.16940410435199738
33.20949935913086 13.369077682495117 0.17028380930423737
33.06829833984375 13.077285766601562 0.18919511139392853
33.108482360839844 12.859076499938965 0.18903522193431854
33.459720611572266 12.760024070739746 0.15639463067054749
33.59284591674805 12.575490951538086 0.1463194638490677
33.63621139526367 12.357194900512695 0.14542396366596222
33.642581939697266 12.126014709472656 0.1482122242450714
33.655826568603516 11.898205757141113 0.15013264119625092
33.677894592285156 11.674274444580078 0.150986909866333
33.690948486328125 11.447955131530762 0.15262165665626526
33.70438003540039 11.222541809082031 0.15406587719917297
33.70685577392578 10.994306564331055 0.15649020671844482
33.718231201171875 10.769792556762695 0.15784510970115662
33.72812271118164 10.545550346374512 0.1592043936252594
33.721309661865234 10.316930770874023 0.16213493049144745
33.737754821777344 10.096208572387695 0.16252318024635315
33.74893569946289 9.874552726745605 0.16330686211585999
33.754852294921875 9.652042388916016 0.16448672115802765
33.76026153564453 9.430096626281738 0.16557173430919647
33.7757453918457 9.211586952209473 0.1654786467552185
33.785011291503906 8.991961479187012 0.16588109731674194
33.787078857421875 8.771064758300781 0.16687935590744019
33.802181243896484 8.554142951965332 0.16639815270900726
33.81782531738281 8.337838172912598 0.16571979224681854
33.811771392822266 8.116783142089844 0.16712543368339539
33.825592041015625 7.90109395980835 0.16635237634181976
33.846778869628906 7.687520503997803 0.1646844744682312
33.85107421875 7.47055196762085 0.16460956633090973
33.863712310791016 7.255902290344238 0.1635405719280243
33.869144439697266 7.0401611328125 0.16307158768177032
33.873207092285156 6.824623107910156 0.1626051366329193
33.88371276855469 6.610822677612305 0.16134069859981537
33.88603210449219 6.395855903625488 0.16077865660190582
33.88894271850586 6.181463718414307 0.16001899540424347
33.90617752075195 5.970034599304199 0.15765361487865448
33.89561080932617 5.754128456115723 0.15800350904464722
33.91510009765625 5.543709754943848 0.15513592958450317
33.934261322021484 5.333419322967529 0.152165487408638
33.93539047241211 5.120576858520508 0.15090936422348022
33.94306945800781 4.909058094024658 0.14884649217128754
33.95436096191406 4.698317527770996 0.14627711474895477
33.97124481201172 4.488531589508057 0.14299771189689636
33.98880386352539 4.278961658477783 0.13951368629932404
34.00704574584961 4.069579124450684 0.13582299649715424
32.44837951660156 3.681389093399048 0.2943088412284851
32.3957405090332 3.4743380546569824 0.29774370789527893
32.354644775390625 3.269369125366211 0.29986757040023804
32.370697021484375 3.0705740451812744 0.29597774147987366
32.36174011230469 2.8695943355560303 0.29453885555267334
32.359466552734375 2.669491767883301 0.292283833026886
32.35298156738281 2.469295024871826 0.2903378903865814
32.388916015625 2.2723388671875 0.2838774621486664
32.41968536376953 2.074777364730835 0.27781882882118225
15.7623291015625 0.9119163155555725 2.0009043216705322
15.779337882995605 0.8158347606658936 1.997618317604065
15.786819458007812 0.719170331954956 1.9952565431594849
15.790727615356445 0.6223260760307312 1.9932020902633667
15.797018051147461 0.5255588889122009 1.990836501121521
15.82558822631836 0.42935654520988464 1.9860872030258179
15.82870864868164 0.3323008716106415 1.9839218854904175
15.812336921691895 0.2349415421485901 1.983728051185608
32.51070785522461 0.2832168936729431 0.23667968809604645
32.67947769165039 0.08423442393541336 0.2148527055978775
32.61827087402344 -0.11599431186914444 0.21694563329219818
32.52998352050781 -0.3152208626270294 0.22176559269428253
32.41065216064453 -0.5128989219665527 0.22974061965942383
32.427337646484375 -0.7121427059173584 0.22331207990646362
32.42490005493164 -0.9111100435256958 0.21876150369644165
32.42521667480469 -1.110213041305542 0.21379010379314423
12.899799346923828 -0.5206941366195679 2.2714695930480957
32.515560150146484 -1.5128799676895142 0.19396090507507324
13.065881729125977 -0.6880527138710022 2.2496793270111084
12.845820426940918 -0.7555051445960999 2.2708334922790527
12.861610412597656 -0.8356369733810425 2.2669365406036377
12.858052253723145 -0.9146506786346436 2.265040874481201
12.8738374710083 -0.9951866865158081 2.2610297203063965
13.26765251159668 -1.1075619459152222 2.2165651321411133
11.994711875915527 -1.0754005908966064 2.3503124713897705
12.881769180297852 -1.876283884048462 2.2309188842773438
29.24462127685547 -5.180739879608154 0.4129829704761505
19.55465316772461 -6.939971446990967 1.3111646175384521
19.491790771484375 -7.052678108215332 1.3108996152877808
19.40217399597168 -7.155249118804932 1.3137668371200562
19.33064079284668 -7.263979911804199 1.3144184350967407
19.28356170654297 -7.381697177886963 1.31206476688385
19.258914947509766 -7.508135795593262 1.3069193363189697
19.23712921142578 -7.636018753051758 1.3013249635696411
19.242143630981445 -7.775086879730225 1.2923654317855835
19.318767547607422 -7.944360733032227 1.2745293378829956
20.61054039001465 -13.159117698669434 0.7861341834068298
20.342273712158203 -13.164397239685059 0.8092854022979736
20.041507720947266 -13.145095825195312 0.8371337056159973
19.819515228271484 -13.174295425415039 0.8541441559791565
19.612754821777344 -13.211260795593262 0.8691118359565735
19.46782112121582 -13.288187026977539 0.875403881072998
19.381500244140625 -13.404513359069824 0.8733446002006531
19.36362075805664 -13.568732261657715 0.8613956570625305
19.33148956298828 -13.724037170410156 0.851304292678833
19.314306259155273 -13.891057014465332 0.8388753533363342
19.29659652709961 -14.058968544006348 0.8263206481933594
19.294330596923828 -14.239568710327148 0.8113027811050415
19.30249786376953 -14.429590225219727 0.7945172786712646
19.29875946044922 -14.61245346069336 0.7792387008666992
19.283252716064453 -14.787957191467285 0.7654715180397034
19.274154663085938 -14.969913482666016 0.7505213618278503
19.297109603881836 -15.17871379852295 0.7305091023445129
19.28636932373047 -15.362988471984863 0.7152968645095825
19.27486228942871 -15.54832649230957 0.6999554634094238
19.31255531311035 -15.77556324005127 0.6768292784690857
19.305326461791992 -15.968401908874512 0.6602799296379089
19.320810317993164 -16.182147979736328 0.639941930770874
19.338176727294922 -16.39989471435547 0.6189944744110107
19.453784942626953 -16.70450210571289 0.5823072195053101
20.806060791015625 -18.542774200439453 0.3083175718784332
20.572803497314453 -18.562938690185547 0.32455629110336304
20.292438507080078 -18.537410736083984 0.34855782985687256
20.059099197387695 -18.551626205444336 0.36513394117355347
19.83867645263672 -18.575220108032227 0.37973538041114807
19.63458251953125 -18.611841201782227 0.3917619585990906
19.44440269470215 -18.659727096557617 0.40156424045562744
15.511322975158691 14.461713790893555 1.57914137840271
12.919114112854004 11.897781372070312 1.9306845664978027
12.950410842895508 11.78081226348877 1.9345015287399292
13.021479606628418 11.700495719909668 1.9329984188079834
14.423016548156738 12.801063537597656 1.7583723068237305
14.466606140136719 12.682178497314453 1.761046051979065
14.559694290161133 12.606891632080078 1.757218360900879
13.126021385192871 11.225529670715332 1.9493176937103271
13.169332504272461 11.123615264892578 1.9508980512619019
13.220294952392578 11.028607368469238 1.9514051675796509
13.258296966552734 10.92326545715332 1.9534646272659302
13.2947359085083 10.817242622375488 1.9556195735931396
13.337356567382812 10.716794967651367 1.9568945169448853
13.365212440490723 10.605096817016602 1.959924340248108
13.395337104797363 10.4959135055542 1.9625630378723145
13.439580917358398 10.398331642150879 1.9633418321609497
13.481551170349121 10.29939079284668 1.9643125534057617
13.505337715148926 10.187142372131348 1.9674370288848877
13.551401138305664 10.092227935791016 1.9677157402038574
13.589593887329102 9.991825103759766 1.9688740968704224
13.626259803771973 9.890748023986816 1.970128059387207
13.65572738647461 9.784958839416504 1.972166895866394
13.692536354064941 9.684926986694336 1.9732195138931274
13.731897354125977 9.587088584899902 1.973874807357788
13.770574569702148 9.48913288116455 1.9745265245437622
13.80856704711914 9.391061782836914 1.975174903869629
13.844222068786621 9.29177188873291 1.9760181903839111
13.875033378601074 9.189648628234863 1.9773539304733276
13.910943984985352 9.091307640075684 1.9779937267303467
13.955371856689453 8.99880313873291 1.9775390625
13.980716705322266 8.894343376159668 1.9792652130126953
14.014578819274902 8.795729637145996 1.979896903038025
14.065523147583008 8.708035469055176 1.9784342050552368
14.095539093017578 8.607597351074219 1.979357361793518
14.13337516784668 8.512252807617188 1.979280710220337
14.17485237121582 8.419307708740234 1.9787006378173828
14.216578483581543 8.326675415039062 1.9780157804489136
14.249948501586914 8.229369163513184 1.978227138519287
14.288711547851562 8.135411262512207 1.9777336120605469
14.332932472229004 8.044696807861328 1.9765336513519287
14.524577140808105 8.035626411437988 1.9582493305206299
15.88365364074707 8.535017013549805 1.8095934391021729
27.464284896850586 14.54190731048584 0.4859984517097473
27.4952335357666 14.343269348144531 0.4890850782394409
27.5000057220459 14.132064819335938 0.49500128626823425
27.53518295288086 13.937516212463379 0.4972853362560272
27.460386276245117 13.688916206359863 0.5119207501411438
27.660430908203125 13.577657699584961 0.49516555666923523
27.772357940673828 13.422030448913574 0.48831161856651306
28.091827392578125 13.36469554901123 0.457872211933136
28.44225311279297 13.318283081054688 0.423902690410614
15.75049114227295 0.9119033217430115 1.8991875648498535
15.75556755065918 0.8152791857719421 1.8971394300460815
19.294729232788086 0.7613489031791687 1.5030230283737183
19.264989852905273 0.641862690448761 1.5042458772659302
12.901086807250977 -0.599621593952179 2.1849775314331055
13.033928871154785 -0.685942530632019 2.167881488800049
12.883462905883789 -0.7573073506355286 2.182607889175415
12.892273902893066 -0.837215781211853 2.179354429244995
12.848053932189941 -0.9135283827781677 2.1820356845855713
12.730544090270996 -1.0623091459274292 2.1905736923217773
12.825543403625488 -1.1495057344436646 2.177324056625366
12.827957153320312 -1.2290977239608765 2.174516439437866
12.812529563903809 -1.3864699602127075 2.1710379123687744
12.806559562683105 -1.4653689861297607 2.1690168380737305
12.794182777404785 -1.5435343980789185 2.1676740646362305
12.798907279968262 -1.8637988567352295 2.1555018424987793
29.23566246032715 -5.1771321296691895 0.21999309957027435
19.914592742919922 -6.520663738250732 1.161877989768982
19.45099449157715 -6.501343727111816 1.2119001150131226
19.22433090209961 -6.557051181793213 1.2325636148452759
19.123409271240234 -6.65395450592041 1.2375291585922241
19.135269165039062 -6.790050029754639 1.2282752990722656
19.11349105834961 -6.914719104766846 1.2231357097625732
19.09649085998535 -7.041439533233643 1.217287302017212
19.100963592529297 -7.176594257354736 1.2086035013198853
19.05719566345215 -7.29396915435791 1.205938458442688
19.108924865722656 -7.448582172393799 1.1909751892089844
19.129011154174805 -7.59201717376709 1.1798986196517944
20.358715057373047 -8.225071907043457 1.0129207372665405
19.058591842651367 -7.836287021636963 1.1715927124023438
19.114267349243164 -7.996717929840088 1.1555042266845703
19.108386993408203 -8.132466316223145 1.1472417116165161
28.40937042236328 -16.229949951171875 -0.360025554895401
28.3980770111084 -16.455644607543945 -0.3764708638191223
28.38079833984375 -16.679296493530273 -0.39232146739959717
28.376333236694336 -16.911998748779297 -0.4102492928504944
28.308908462524414 -17.108308792114258 -0.41943293809890747
27.993860244750977 -17.153526306152344 -0.39318132400512695
27.795686721801758 -17.26780891418457 -0.3836795687675476
27.672760009765625 -17.427913665771484 -0.38511985540390015
20.50070571899414 -13.087705612182617 0.6421833038330078
20.20882797241211 -13.076784133911133 0.6703295707702637
19.921192169189453 -13.064958572387695 0.6980539560317993
19.727054595947266 -13.111631393432617 0.7121297121047974
19.534746170043945 -13.1575288772583 0.7260012030601501
19.395090103149414 -13.237371444702148 0.7320613265037537
19.306617736816406 -13.3515625 0.7304125428199768
19.260547637939453 -13.495348930358887 0.7222616672515869
19.24742889404297 -13.663201332092285 0.7089453935623169
19.229745864868164 -13.829084396362305 0.6961121559143066
19.22197723388672 -14.003442764282227 0.681545615196228
19.236740112304688 -14.195904731750488 0.6632688641548157
19.241907119750977 -14.383133888244629 0.6462088227272034
19.228879928588867 -14.558380126953125 0.6317286491394043
19.227020263671875 -14.743670463562012 0.6152599453926086
19.242412567138672 -14.944091796875 0.5958077311515808
19.233440399169922 -15.12746524810791 0.5799300670623779
19.21750259399414 -15.306964874267578 0.5649080872535706
19.249509811401367 -15.526707649230957 0.54193514585495
19.2457218170166 -15.719797134399414 0.5244036316871643
19.261688232421875 -15.931132316589355 0.50337815284729
19.233938217163086 -16.10821533203125 0.48917514085769653
19.224411010742188 -16.3022403717041 0.47172778844833374
19.261396408081055 -16.538122177124023 0.44629350304603577
20.82586097717285 -18.55906105041504 0.12251859903335571
20.555734634399414 -18.546205520629883 0.14603734016418457
20.32098960876465 -18.56218910217285 0.16373269259929657
20.08391571044922 -18.57330322265625 0.18197554349899292
19.861967086791992 -18.595775604248047 0.19776023924350739
19.632585525512695 -18.60872459411621 0.21496810019016266
19.441024780273438 -18.65528678894043 0.2256944328546524
12.861703872680664 11.987105369567871 1.8251482248306274
12.931838989257812 11.905299186706543 1.8239712715148926
12.988945007324219 11.811704635620117 1.8245280981063843
12.959549903869629 11.6407470703125 1.836984395980835
14.385364532470703 12.76327133178711 1.6483176946640015
14.470617294311523 12.681356430053711 1.645509958267212
13.12726879119873 11.36257553100586 1.8381177186965942
13.119382858276367 11.215914726257324 1.846997857093811
13.164913177490234 11.115985870361328 1.8484646081924438
13.2127685546875 11.01846694946289 1.8495146036148071
13.251477241516113 10.913822174072266 1.8516963720321655
13.29017448425293 10.809744834899902 1.8537724018096924
13.323442459106445 10.701863288879395 1.8564667701721191
13.35822582244873 10.595837593078613 1.8588494062423706
13.396910667419434 10.4934663772583 1.8606085777282715
13.431696891784668 10.388583183288574 1.862780213356018
13.466490745544434 10.284272193908691 1.8648462295532227
13.508456230163574 10.1859130859375 1.865870714187622
13.542539596557617 10.08207893371582 1.8678280115127563
13.576662063598633 9.978799819946289 1.8696794509887695
13.59473705291748 9.864380836486816 1.8735102415084839
13.636173248291016 9.767492294311523 1.8742120265960693
13.685054779052734 9.676206588745117 1.8738654851913452
13.723544120788574 9.577857971191406 1.8747678995132446
13.757247924804688 9.476578712463379 1.8761905431747437
13.792693138122559 9.376922607421875 1.8772966861724854
13.829089164733887 9.278295516967773 1.8781903982162476
13.865621566772461 9.18012523651123 1.8789763450622559
13.907299995422363 9.085660934448242 1.8790236711502075
13.925774574279785 8.976480484008789 1.8819067478179932
13.963574409484863 8.88022518157959 1.8822640180587769
14.007454872131348 8.788069725036621 1.881774663925171
14.046503067016602 8.693093299865723 1.881807804107666
14.083218574523926 8.596930503845215 1.8820477724075317
14.125245094299316 8.504233360290527 1.881544589996338
14.165809631347656 8.410837173461914 1.8811421394348145
14.213483810424805 8.321784019470215 1.879781723022461
14.240791320800781 8.221023559570312 1.8808536529541016
14.280362129211426 8.127619743347168 1.880332350730896
14.329728126525879 8.039878845214844 1.8785309791564941
14.472525596618652 8.003814697265625 1.8652350902557373
14.963747024536133 8.156190872192383 1.8094244003295898
27.42835807800293 14.733993530273438 0.29677626490592957
27.454524993896484 14.531991958618164 0.30099207162857056
27.499526977539062 14.34079647064209 0.3027547299861908
27.45831871032715 14.105976104736328 0.3147795796394348
27.5314884185791 13.931011199951172 0.3128029704093933
27.50387954711914 13.706005096435547 0.3228171467781067
27.60664939880371 13.5466890335083 0.316973477602005
27.740726470947266 13.40219497680664 0.30724748969078064
27.9288330078125 13.282612800598145 0.29093989729881287
28.29568862915039 13.245105743408203 0.2531810402870178
28.69562339782715 13.218565940856934 0.21146069467067719
44.86866760253906 8.182302474975586 -1.537179708480835
19.288803100585938 0.7585436105728149 1.3876839876174927
19.258058547973633 0.639065682888031 1.3892242908477783
12.89797306060791 -0.680776834487915 2.105541467666626
12.865601539611816 -0.7582408785820007 2.1071484088897705
12.857542037963867 -0.8369448781013489 2.1058175563812256
12.754634857177734 -1.3030760288238525 2.1031887531280518
12.722514152526855 -1.3787171840667725 2.1043641567230225
12.710662841796875 -1.4563860893249512 2.1030502319335938
12.650080680847168 -1.606943130493164 2.1047146320343018
12.67226791381836 -1.6888272762298584 2.0991170406341553
12.658525466918945 -1.766109585762024 2.097808837890625
12.625643730163574 -1.8405686616897583 2.0987730026245117
12.574657440185547 -1.912007451057434 2.1018967628479004
20.139923095703125 -6.597402095794678 1.0062060356140137
18.943822860717773 -6.4642486572265625 1.1469926834106445
19.062816619873047 -6.635767459869385 1.1234855651855469
19.01301383972168 -6.749575138092041 1.1220601797103882
20.22315788269043 -7.319190502166748 0.9535260796546936
19.087594985961914 -7.443263530731201 1.0702019929885864
19.07168197631836 -7.5722761154174805 1.063552737236023
19.017974853515625 -7.822629928588867 1.0528608560562134
20.290979385375977 -8.492191314697266 0.8702740669250488
18.999094009399414 -8.227191925048828 1.0275146961212158
19.045997619628906 -8.386740684509277 1.011467456817627
19.054527282714844 -8.530558586120605 1.0005321502685547
28.332338333129883 -13.74258804321289 -0.3578428626060486
28.315507888793945 -13.949856758117676 -0.37133798003196716
28.286550521850586 -14.152112007141113 -0.3833294212818146
28.218141555786133 -14.335219383239746 -0.3899029493331909
28.184696197509766 -14.536665916442871 -0.4016474783420563
28.06195068359375 -14.69223403930664 -0.4007594883441925
27.640527725219727 -14.688589096069336 -0.35684579610824585
27.524940490722656 -14.844656944274902 -0.35701897740364075
27.403257369995117 -14.997005462646484 -0.3564143776893616
20.51531219482422 -13.101072311401367 0.49305546283721924
20.201026916503906 -13.07576847076416 0.5261492729187012
19.930133819580078 -13.074851036071777 0.5527767539024353
19.71535873413086 -13.107898712158203 0.5708664059638977
19.502586364746094 -13.139914512634277 0.5887454748153687
19.338497161865234 -13.202808380126953 0.5990850925445557
19.26245880126953 -13.325115203857422 0.5955610871315002
19.224626541137695 -13.474306106567383 0.5858635902404785
19.213176727294922 -13.643056869506836 0.5717815160751343
19.206817626953125 -13.816804885864258 0.556658148765564
19.207857131958008 -13.997413635253906 0.540103554725647
19.21297836303711 -14.1826753616333 0.522631049156189
19.22051239013672 -14.37149715423584 0.5044971704483032
19.21933364868164 -14.55555534362793 0.48751309514045715
19.225265502929688 -14.74677848815918 0.4690907895565033
19.220169067382812 -14.931321144104004 0.45220842957496643
19.223655700683594 -15.124327659606934 0.4336276948451996
19.227815628051758 -15.31978988647461 0.4146416187286377
19.243412017822266 -15.526456832885742 0.393431156873703
19.22416877746582 -15.706916809082031 0.37779471278190613
19.198081970214844 -15.883298873901367 0.36306050419807434
19.346120834350586 -16.2070255279541 0.3182235062122345
19.29088592529297 -16.56841278076172 0.28762558102607727
19.30142593383789 -16.784645080566406 0.26526299118995667
12.819390296936035 12.090896606445312 1.7200183868408203
12.888711929321289 12.007978439331055 1.7190864086151123
13.826444625854492 12.72451114654541 1.589623212814331
12.936013221740723 11.759363174438477 1.7304050922393799
14.034987449645996 12.602445602416992 1.5782878398895264
14.314044952392578 12.695568084716797 1.5470526218414307
14.452698707580566 12.661255836486816 1.5363808870315552
13.140743255615234 11.370196342468262 1.7353602647781372
13.120084762573242 11.212522506713867 1.7466715574264526
13.158757209777832 11.106832504272461 1.749289631843567
13.211897850036621 11.013821601867676 1.7497268915176392
13.243673324584961 10.90351390838623 1.7531019449234009
13.283851623535156 10.80075740814209 1.75516676902771
13.312417984008789 10.689202308654785 1.7587580680847168
13.338561058044434 10.576469421386719 1.7625681161880493
13.370083808898926 10.468719482421875 1.765503168106079
13.414942741394043 10.371925354003906 1.766466498374939
13.463858604431152 10.278593063354492 1.7667678594589233
13.497848510742188 10.17427921295166 1.7690386772155762
13.52867603302002 10.068153381347656 1.7716368436813354
13.570723533630371 9.97086238861084 1.7725861072540283
13.599217414855957 9.864092826843262 1.7752914428710938
13.639033317565918 9.766030311584473 1.7763445377349854
13.676536560058594 9.666701316833496 1.7776148319244385
13.713336944580078 9.567279815673828 1.7788821458816528
13.749431610107422 9.467768669128418 1.7801464796066284
13.782357215881348 9.366497993469238 1.7817399501800537
13.819513320922852 9.268500328063965 1.782667636871338
13.855155944824219 9.16985034942627 1.7837027311325073
13.88594913482666 9.068392753601074 1.7852892875671387
13.910173416137695 8.963133811950684 1.7876508235931396
13.958789825439453 8.873915672302246 1.7866814136505127
14.0026273727417 8.7817964553833 1.7862613201141357
14.045012474060059 8.688948631286621 1.7859472036361694
14.06643009185791 8.583484649658203 1.7883003950119019
14.1160306930542 8.495511054992676 1.7868651151657104
14.154827117919922 8.401161193847656 1.7867614030838013
14.195570945739746 8.308161735534668 1.7863185405731201
14.230542182922363 8.211995124816895 1.78654146194458
14.275232315063477 8.121610641479492 1.7854188680648804
14.308951377868652 8.02514934539795 1.7856340408325195
14.428112983703613 7.9761857986450195 1.7747485637664795
14.943330764770508 8.141948699951172 1.712897777557373
15.879534721374512 8.52641773223877 1.5972352027893066
27.46278190612793 14.531509399414062 0.11908648908138275
27.50690269470215 14.339825630187988 0.12124108523130417
27.533796310424805 14.139972686767578 0.12542156875133514
27.577009201049805 13.949300765991211 0.12734942138195038
27.532655715942383 13.715646743774414 0.14022396504878998
27.597984313964844 13.537765502929688 0.13899637758731842
27.70779800415039 13.381637573242188 0.13199278712272644
27.989009857177734 13.306587219238281 0.10323352366685867
19.276609420776367 0.7554255723953247 1.2764335870742798
19.24585723876953 0.6360273957252502 1.2781753540039062
19.328472137451172 0.520115852355957 1.2659422159194946
12.87593936920166 -0.6816441416740417 2.0328152179718018
12.862396240234375 -0.7600800395011902 2.032240867614746
12.862239837646484 -0.8392791748046875 2.0299391746520996
12.71325397491455 -1.458714246749878 2.027930736541748
12.632939338684082 -1.5280957221984863 2.0352392196655273
19.996225357055664 -6.282580375671387 0.917841911315918
20.112764358520508 -6.455094814300537 0.8939560055732727
20.149709701538086 -6.603649616241455 0.880721926689148
20.14420509338379 -6.739062786102295 0.8731439113616943
18.979692459106445 -6.479429721832275 1.024796485900879
18.958919525146484 -6.602563381195068 1.0195581912994385
18.93921661376953 -6.726351737976074 1.0140610933303833
18.9522705078125 -6.862298011779785 1.0039032697677612
19.100479125976562 -7.3165669441223145 0.9572770595550537
19.038265228271484 -7.427093982696533 0.9570676684379578
19.009510040283203 -7.550675392150879 0.952056348323822
18.91541290283203 -8.33243179321289 0.9082733392715454
18.976694107055664 -8.498930931091309 0.8893810510635376
19.01137351989746 -8.654995918273926 0.874132513999939
19.151016235351562 -8.860919952392578 0.8433929681777954
19.321130752563477 -9.084061622619629 0.8078829050064087
20.693050384521484 -13.040440559387207 0.33740097284317017
20.39090919494629 -13.025749206542969 0.3700343370437622
20.114702224731445 -13.024005889892578 0.3987230360507965
19.840126037597656 -13.019915580749512 0.4273398816585541
19.648893356323242 -13.067827224731445 0.44261395931243896
19.457826614379883 -13.113884925842285 0.4579281806945801
19.298860549926758 -13.179891586303711 0.4680449962615967
