# .PCD v0.7 - Point Cloud Data file format
VERSION 0.7
FIELDS x y z
SIZE 4 4 4
TYPE F F F
COUNT 1 1 1
WIDTH 856
HEIGHT 1
VIEWPOINT 0 0 0 1 0 0 0
POINTS 856
DATA ascii
29.71678352355957 -12.926094055175781 2.9157485961914062
29.645980834960938 -13.11218547821045 2.911550283432007
44.443946838378906 -19.983930587768555 2.542642593383789
44.45676803588867 -20.318519592285156 2.5333187580108643
44.49980163574219 -20.669179916381836 2.523158550262451
44.482330322265625 -20.993824005126953 2.5144224166870117
34.42645263671875 -16.506982803344727 2.7600700855255127
34.3549919128418 -16.732736587524414 2.754671573638916
34.40123748779297 -17.01719093322754 2.7462053298950195
34.29072952270508 -17.22520637512207 2.7417263984680176
34.17005157470703 -17.427963256835938 2.737494945526123
34.10055923461914 -17.65700912475586 2.7318954467773438
34.14281463623047 -17.94539451599121 2.7232816219329834
34.443016052246094 -18.37376594543457 2.7076504230499268
34.37613296508789 -18.609928131103516 2.7017550468444824
34.26734161376953 -18.82381820678711 2.696960210800171
30.56817054748535 -17.036808013916016 2.7910051345825195
30.31242561340332 -17.138879776000977 2.7910678386688232
34.334503173828125 -19.691936492919922 2.671407461166382
34.42810821533203 -20.027345657348633 2.6607022285461426
34.40608215332031 -20.298099517822266 2.653165340423584
34.496124267578125 -20.637596130371094 2.6423394680023193
34.464481353759766 -20.906885147094727 2.6349098682403564
34.41038513183594 -21.16399383544922 2.6280670166015625
34.4146614074707 -21.45878028869629 2.6194443702697754
34.319427490234375 -21.69298553466797 2.613687753677368
34.459983825683594 -22.07891273498535 2.6008269786834717
34.51156997680664 -22.411840438842773 2.590491771697998
34.436763763427734 -22.66489028930664 2.5838851928710938
34.43583679199219 -22.968341827392578 2.574954032897949
34.48216247558594 -23.30621910095215 2.5644612312316895
34.710384368896484 -23.77205467224121 2.5481619834899902
34.70585250854492 -24.0831241607666 2.5389742851257324
30.105302810668945 -21.165611267089844 2.6757781505584717
34.79100036621094 -24.780242919921875 2.5172736644744873
34.854637145996094 -25.149368286132812 2.5055456161499023
34.82304382324219 -25.45295524597168 2.496778726577759
34.872581481933594 -25.818958282470703 2.4852473735809326
34.86774826049805 -26.14813995361328 2.475377082824707
34.8928108215332 -26.503019332885742 2.4643917083740234
34.90373611450195 -26.85065269470215 2.453749656677246
34.94166946411133 -27.222761154174805 2.4420580863952637
34.859405517578125 -27.504077911376953 2.434351921081543
34.826541900634766 -27.82659149169922 2.424854278564453
34.67989730834961 -28.059823989868164 2.4192280769348145
34.64614486694336 -28.386064529418945 2.409576654434204
34.86971664428711 -28.92867088317871 2.3906445503234863
34.88432693481445 -29.304048538208008 2.3789420127868652
34.87050247192383 -29.659320831298828 2.368119716644287
34.88998031616211 -30.046829223632812 2.3559436798095703
34.909019470214844 -30.438316345214844 2.3436224460601807
34.93355178833008 -30.83909797668457 2.3309340476989746
34.84714889526367 -31.145401000976562 2.3222451210021973
34.936180114746094 -31.612762451171875 2.30679988861084
34.90210723876953 -31.973670959472656 2.2958462238311768
34.851722717285156 -32.32311248779297 2.2853822708129883
34.85737991333008 -32.728553771972656 2.2725987434387207
32.36404037475586 24.01618003845215 3.3486125469207764
32.531700134277344 23.832555770874023 3.3443872928619385
32.529788970947266 23.525888442993164 3.341644287109375
32.438262939453125 23.157974243164062 3.3397042751312256
32.61564254760742 22.9838924407959 3.3353207111358643
32.696067810058594 22.741701126098633 3.331791877746582
32.73682403564453 22.47334861755371 3.32861065864563
32.6463737487793 22.11785888671875 3.326646327972412
32.57857894897461 21.781557083129883 3.324474811553955
32.616397857666016 21.51852035522461 3.3212995529174805
32.74607849121094 21.316938400268555 3.3172237873077393
33.047828674316406 21.22590446472168 3.311445474624634
32.67396545410156 20.70376968383789 3.3122336864471436
33.107269287109375 20.694822311401367 3.3050901889801025
32.84968948364258 20.254634857177734 3.304762363433838
32.672550201416016 19.869836807250977 3.3036601543426514
32.8006477355957 19.67315101623535 3.2994792461395264
32.650428771972656 19.31171417236328 3.2981202602386475
32.738006591796875 19.093425750732422 3.2943198680877686
32.78947067260742 18.8548526763916 3.2908713817596436
32.70614242553711 18.540908813476562 3.288823366165161
32.883819580078125 18.376026153564453 3.2840120792388916
32.77166748046875 18.05044937133789 3.282259941101074
33.4626350402832 18.16442108154297 3.2718563079833984
44.79680252075195 23.9627628326416 3.1455509662628174
44.63505935668945 23.525253295898438 3.143265962600708
44.451900482177734 23.081417083740234 3.141232967376709
44.383392333984375 22.701284408569336 3.137941598892212
44.19758987426758 22.265277862548828 3.1359684467315674
44.04395294189453 21.850187301635742 3.133650779724121
43.87432098388672 21.43168067932129 3.1315300464630127
43.76249694824219 21.045551300048828 3.1287615299224854
43.66205978393555 20.668453216552734 3.125866651535034
43.509700775146484 20.27057647705078 3.123584270477295
43.3377571105957 19.86785125732422 3.121547222137451
43.240909576416016 19.503358840942383 3.1186347007751465
43.076332092285156 19.112014770507812 3.11653733253479
42.97366714477539 18.751821517944336 3.113708734512329
42.855342864990234 18.388093948364258 3.1110751628875732
42.760902404785156 18.03779411315918 3.108156204223633
42.542781829833984 17.639177322387695 3.106769323348999
42.45566177368164 17.29863166809082 3.103775978088379
42.35112380981445 16.953874588012695 3.1010031700134277
42.18998336791992 16.58983039855957 3.0989508628845215
42.11273193359375 16.261905670166016 3.0958447456359863
41.984432220458984 15.917119026184082 3.093392848968506
41.84037780761719 15.569643020629883 3.0911543369293213
41.733097076416016 15.238938331604004 3.0884480476379395
41.548973083496094 14.883501052856445 3.086757183074951
41.508296966552734 14.582270622253418 3.0831851959228516
41.44280242919922 14.274285316467285 3.079937219619751
41.26519775390625 13.93055248260498 3.0781915187835693
41.16279602050781 13.615288734436035 3.075446128845215
41.07330322265625 13.306739807128906 3.072528123855591
40.951080322265625 12.990126609802246 3.0700607299804688
40.860904693603516 12.686188697814941 3.0671558380126953
40.74941635131836 12.378036499023438 3.064549446105957
40.67019271850586 12.081981658935547 3.061495304107666
40.49765396118164 11.760872840881348 3.059760093688965
40.39486312866211 11.462812423706055 3.057047128677368
40.36125183105469 11.1862211227417 3.053344249725342
40.220558166503906 10.882006645202637 3.0511791706085205
40.43150329589844 10.673360824584961 3.0439016819000244
40.897029876708984 10.528351783752441 3.032827138900757
41.35549545288086 10.376323699951172 3.0217390060424805
41.7718505859375 10.208857536315918 3.0111608505249023
42.2353515625 10.04800796508789 2.999767541885376
42.70428466796875 9.883206367492676 2.9881722927093506
43.203975677490234 9.720049858093262 2.975987195968628
43.654422760009766 9.540453910827637 2.9644274711608887
44.16197204589844 9.367937088012695 2.95186710357666
44.68960189819336 9.193779945373535 2.93886137008667
44.883338928222656 8.947030067443848 2.930938959121704
44.92158508300781 8.668498039245605 2.925398349761963
44.952205657958984 8.388733863830566 2.9199464321136475
44.82167053222656 8.080178260803223 2.917037010192871
45.0032958984375 7.82820987701416 2.9091126918792725
45.037559509277344 7.5498456954956055 2.9035086631774902
45.069114685058594 7.27119779586792 2.8979148864746094
45.08808135986328 6.99075984954834 2.892496109008789
45.119144439697266 6.712423324584961 2.8868463039398193
45.148494720458984 6.433967590332031 2.8811917304992676
45.1771125793457 6.155539512634277 2.8755173683166504
45.20500564575195 5.877130508422852 2.8698208332061768
45.22920227050781 5.59836483001709 2.8641529083251953
45.27550506591797 5.322324752807617 2.8580729961395264
45.27839279174805 5.0412797927856445 2.852703332901001
45.31035232543945 4.7636399269104 2.8468000888824463
45.34260940551758 4.485994815826416 2.840855121612549
45.3681755065918 4.207670211791992 2.834991455078125
45.39702224731445 3.9296317100524902 2.829033851623535
45.35439682006836 3.645787477493286 2.824312925338745
45.453582763671875 3.3732728958129883 2.8170270919799805
12.568838119506836 0.8543990254402161 3.405691385269165
12.588787078857422 0.7782079577445984 3.4037857055664062
45.54059600830078 2.538098096847534 2.798696517944336
45.55420684814453 2.258639097213745 2.792792558670044
45.58008575439453 1.9797158241271973 2.7866249084472656
19.51896858215332 0.727149248123169 3.2679903507232666
19.24320411682129 0.5986760854721069 3.270714521408081
13.035534858703613 0.32512474060058594 3.3858656883239746
45.69948196411133 0.8624192476272583 2.7612576484680176
45.70779800415039 0.5821179747581482 2.755225419998169
12.58932113647461 0.082206591963768 3.3894643783569336
12.60955810546875 0.004987511783838272 3.3874335289001465
12.254398345947266 -0.07036184519529343 3.3927414417266846
12.320691108703613 -0.1463221311569214 3.3898210525512695
12.321534156799316 -0.22193467617034912 3.3881728649139404
12.192975997924805 -0.2944623827934265 3.3891005516052246
12.008034706115723 -0.3637320399284363 3.3911874294281006
11.882657051086426 -0.4329220652580261 3.3921072483062744
12.068541526794434 -0.5138248205184937 3.3867039680480957
13.57802963256836 -0.661405622959137 3.3540680408477783
13.17636489868164 -0.7229238152503967 3.3605024814605713
12.825369834899902 -0.7826406359672546 3.3659820556640625
46.07027816772461 -3.0919189453125 2.667935609817505
12.795796394348145 -0.9385412335395813 3.363023042678833
46.11135482788086 -3.6634645462036133 2.654111623764038
12.906779289245605 -1.1060279607772827 3.3570308685302734
13.339768409729004 -1.225569725036621 3.3458733558654785
11.804635047912598 -1.1577439308166504 3.377194881439209
12.010082244873047 -1.2523024082183838 3.3710074424743652
12.471181869506836 -1.377722144126892 3.3591384887695312
11.860688209533691 -1.384039282798767 3.3707945346832275
12.84226131439209 -1.5783907175064087 3.3472137451171875
13.600743293762207 -1.7563000917434692 3.3283231258392334
13.525280952453613 -1.8309866189956665 3.327986717224121
12.766397476196289 -1.8081424236297607 3.3431639671325684
12.792613983154297 -1.8919763565063477 3.3406260013580322
13.604795455932617 -2.0973806381225586 3.319995641708374
13.609406471252441 -2.1836464405059814 3.317793369293213
13.555285453796387 -2.2603516578674316 3.3169431686401367
13.609100341796875 -2.3552188873291016 3.3135628700256348
13.313908576965332 -2.388373613357544 3.318392276763916
13.631202697753906 -2.531674385070801 3.3087387084960938
13.104846000671387 -2.517228364944458 3.319159746170044
29.592878341674805 -5.871209144592285 2.9197871685028076
33.739234924316406 -6.909067630767822 2.814417839050293
33.72252655029297 -7.121480464935303 2.8093180656433105
33.75332260131836 -7.344574928283691 2.8030149936676025
33.74264907836914 -7.559356212615967 2.7976865768432617
12.798543930053711 -2.950606107711792 3.313906192779541
33.772640228271484 -8.002483367919922 2.7856228351593018
33.88890838623047 -8.249933242797852 2.7769615650177
33.88604736328125 -8.469781875610352 2.7712440490722656
33.848838806152344 -8.681461334228516 2.766361713409424
33.885719299316406 -8.912837982177734 2.7595374584198
34.06870651245117 -9.184800148010254 2.7488625049591064
34.06172180175781 -9.407451629638672 2.7430386543273926
33.994598388671875 -9.613771438598633 2.7387514114379883
33.9454345703125 -9.825180053710938 2.7339630126953125
33.95151138305664 -10.053091049194336 2.727670431137085
33.92448806762695 -10.27188777923584 2.7222139835357666
33.92470932006836 -10.499597549438477 2.7159810066223145
33.92912292480469 -10.729503631591797 2.709581136703491
34.00143814086914 -10.982287406921387 2.7012672424316406
34.02729797363281 -11.221646308898926 2.694155216217041
33.96528244018555 -11.432720184326172 2.6894195079803467
34.053226470947266 -11.695402145385742 2.6804587841033936
34.02223205566406 -11.918614387512207 2.674757957458496
34.00766372680664 -12.148275375366211 2.6685469150543213
34.05449295043945 -12.401121139526367 2.660531520843506
34.16227722167969 -12.678297996520996 2.650686264038086
34.35676956176758 -12.99084758758545 2.638228416442871
34.33787536621094 -13.225067138671875 2.631852149963379
34.333213806152344 -13.465746879577637 2.625004291534424
34.32596206665039 -13.706496238708496 2.6181719303131104
34.35501480102539 -13.963094711303711 2.610198497772217
34.35818099975586 -14.2106294631958 2.6029248237609863
34.367897033691406 -14.462218284606934 2.5953853130340576
34.353755950927734 -14.705020904541016 2.588500499725342
29.713071823120117 -12.935046195983887 2.7231874465942383
34.4218635559082 -15.236632347106934 2.571573257446289
34.43244552612305 -15.494667053222656 2.563711404800415
34.43296813964844 -15.749664306640625 2.5560877323150635
34.42258834838867 -16.001033782958984 2.548734664916992
34.38962936401367 -16.243051528930664 2.54202938079834
34.39554214477539 -16.504724502563477 2.5340213775634766
34.371681213378906 -16.75350570678711 2.526893138885498
34.35591506958008 -17.007490158081055 2.5194356441497803
34.26329803466797 -17.224201202392578 2.5144152641296387
34.17644119262695 -17.44405174255371 2.5091700553894043
34.11656951904297 -17.678203582763672 2.5029914379119873
34.140037536621094 -17.956941604614258 2.4939792156219482
34.315673828125 -18.31900405883789 2.4797580242156982
34.34049606323242 -18.603906631469727 2.470471143722534
34.23871612548828 -18.82143211364746 2.4654011726379395
30.655017852783203 -17.09734344482422 2.5798871517181396
30.20926856994629 -17.092618942260742 2.587527275085449
34.32130432128906 -19.698049545288086 2.4364407062530518
34.2808723449707 -19.95547866821289 2.4289615154266357
34.49851608276367 -20.36660385131836 2.412277936935425
34.4791145324707 -20.641502380371094 2.403831720352173
34.474727630615234 -20.92730140686035 2.394757032394409
34.47748565673828 -21.219579696655273 2.3853261470794678
34.399932861328125 -21.464004516601562 2.378718614578247
34.454139709472656 -21.792692184448242 2.3672091960906982
34.460166931152344 -22.093719482421875 2.357347011566162
34.535865783691406 -22.442472457885742 2.3447747230529785
34.44245529174805 -22.68358612060547 2.3384039402008057
34.4521369934082 -22.994308471679688 2.3280701637268066
34.64723587036133 -23.433101654052734 2.3105406761169434
34.70054244995117 -23.780790328979492 2.298231363296509
34.7007942199707 -24.095243453979492 2.2878270149230957
30.069095611572266 -21.15396499633789 2.458233594894409
34.78721237182617 -24.793516159057617 2.26326584815979
34.823909759521484 -25.14334487915039 2.2510147094726562
34.826961517333984 -25.47212791442871 2.2399559020996094
34.84253692626953 -25.81319808959961 2.228257417678833
34.8640251159668 -26.16201400756836 2.2161736488342285
34.86662292480469 -26.499963760375977 2.204711675643921
34.891719818115234 -26.858436584472656 2.19217848777771
34.912933349609375 -27.21759033203125 2.179645299911499
34.89260482788086 -27.54766845703125 2.1686949729919434
34.83674621582031 -27.852304458618164 2.159111261367798
34.70310592651367 -28.096290588378906 2.15273118019104
34.71231460571289 -28.458173751831055 2.1401453018188477
34.84757614135742 -28.928466796875 2.12192964553833
34.66620635986328 -29.139108657836914 2.1172966957092285
34.85271072387695 -29.66277503967285 2.0964133739471436
34.76679992675781 -29.959514617919922 2.0873329639434814
34.9459114074707 -30.489561080932617 2.06626296043396
34.901832580566406 -30.83038902282715 2.054969072341919
34.82881164550781 -31.148494720458984 2.044848680496216
34.92136764526367 -31.619136810302734 2.026984930038452
34.9792366027832 -32.064388275146484 2.010467529296875
34.83808517456055 -32.33069610595703 2.003021001815796
34.931697845458984 -32.81887435913086 1.9844117164611816
32.48469543457031 30.160825729370117 3.1328070163726807
36.90249252319336 28.78549575805664 3.0432369709014893
37.0513801574707 28.5378360748291 3.039073944091797
37.516109466552734 28.16938591003418 3.0279204845428467
32.55378341674805 24.132244110107422 3.1062958240509033
32.221858978271484 23.581296920776367 3.1100103855133057
32.2442741394043 23.295351028442383 3.1079654693603516
32.39546203613281 23.103498458862305 3.103789806365967
32.35664367675781 22.7777042388916 3.102686882019043
32.38977813720703 22.50518035888672 3.1003799438476562
32.50572204589844 22.29136085510254 3.096679449081421
32.443058013916016 21.957027435302734 3.0958974361419678
32.48561477661133 21.696504592895508 3.093351364135742
32.47026062011719 21.399417877197266 3.091740846633911
32.52374267578125 21.149677276611328 3.0889580249786377
32.646915435791016 20.945985794067383 3.084974527359009
32.580413818359375 20.6223201751709 3.084146738052368
32.694366455078125 20.414653778076172 3.080254316329956
32.63162612915039 20.09834098815918 3.0793216228485107
32.49445343017578 19.739959716796875 3.0796401500701904
32.59600067138672 19.528947830200195 3.075873613357544
32.677242279052734 19.306241989135742 3.0724196434020996
32.72241973876953 19.06314468383789 3.069552421569824
32.413841247558594 18.618005752563477 3.072770118713379
32.61699295043945 18.469568252563477 3.0671284198760986
32.586429595947266 18.189205169677734 3.0655059814453125
32.70083236694336 17.990894317626953 3.061332941055298
32.88258743286133 17.82904052734375 3.055938959121704
33.2884635925293 17.785799026489258 3.046549081802368
44.590641021728516 23.474773406982422 2.844402551651001
44.472755432128906 23.065444946289062 2.843395948410034
44.41297912597656 22.68984031677246 2.8413403034210205
44.19129180908203 22.235837936401367 2.8421595096588135
44.06158447265625 21.832918167114258 2.841326951980591
43.883670806884766 21.410512924194336 2.8413524627685547
43.851863861083984 21.06298065185547 2.838728427886963
43.63485336303711 20.630311965942383 2.8394460678100586
43.536582946777344 20.258052825927734 2.837999105453491
43.349029541015625 19.848234176635742 2.838172197341919
43.2064208984375 19.4632511138916 2.8375179767608643
43.13019561767578 19.111555099487305 2.8356285095214844
42.9752197265625 18.728370666503906 2.8351831436157227
42.874149322509766 18.372230529785156 2.8337273597717285
42.752830505371094 18.010663986206055 2.832636833190918
42.54741287231445 17.617612838745117 2.833117961883545
42.47029113769531 17.281282424926758 2.831179618835449
42.35537338256836 16.932458877563477 2.829941511154175
42.272220611572266 16.599220275878906 2.8280880451202393
42.073699951171875 16.224109649658203 2.828425168991089
41.975040435791016 15.891005516052246 2.8268485069274902
41.861698150634766 15.555198669433594 2.8255412578582764
41.73173522949219 15.2162446975708 2.8245468139648438
41.58789825439453 14.8754301071167 2.823815107345581
41.51127624511719 14.561450004577637 2.821765422821045
41.41819381713867 14.244094848632812 2.82002329826355
41.25078201293945 13.904153823852539 2.819733142852783
41.155765533447266 13.591581344604492 2.818009614944458
41.08320999145508 13.28869915008545 2.8158280849456787
40.93605422973633 12.964275360107422 2.815119743347168
40.86477279663086 12.666435241699219 2.8128859996795654
40.722503662109375 12.349066734313965 2.812067747116089
40.710166931152344 12.07315444946289 2.808614730834961
40.48952102661133 11.73799991607666 2.8093719482421875
40.42021942138672 11.449612617492676 2.8070478439331055
40.31132507324219 11.152119636535645 2.8055202960968018
40.210933685302734 10.859261512756348 2.8038089275360107
40.44974136352539 10.657997131347656 2.7950613498687744
40.86866760253906 10.500744819641113 2.7824900150299072
41.34729766845703 10.353809356689453 2.7685606479644775
41.768341064453125 10.18741226196289 2.755718231201172
42.21709060668945 10.022933959960938 2.742177963256836
42.690704345703125 9.859180450439453 2.7279913425445557
43.17753601074219 9.693055152893066 2.7133982181549072
43.651214599609375 9.518553733825684 2.69895601272583
44.13805389404297 9.341500282287598 2.6841037273406982
44.6772346496582 9.169686317443848 2.6679880619049072
44.90509796142578 8.929776191711426 2.65848445892334
44.914737701416016 8.645639419555664 2.6536574363708496
44.95304870605469 8.367393493652344 2.6481640338897705
44.88533020019531 8.070244789123535 2.6449625492095947
44.998878479003906 7.806033611297607 2.6377296447753906
45.03494644165039 7.528035640716553 2.632159948348999
45.06336975097656 7.248935222625732 2.6267154216766357
45.084144592285156 6.968852519989014 2.621401786804199
45.10514831542969 6.689080238342285 2.6160404682159424
45.13629913330078 6.410999774932861 2.610408306121826
45.17068862915039 6.133460521697998 2.604658365249634
45.201385498046875 5.8554840087890625 2.5989480018615723
45.222434997558594 5.576380729675293 2.593414545059204
45.25864028930664 5.299216270446777 2.5874879360198975
33.386356353759766 3.701129913330078 2.8579320907592773
33.40336227416992 3.4957377910614014 2.85371994972229
33.41313552856445 3.289687156677246 2.8496451377868652
45.362552642822266 4.1861066818237305 2.5642755031585693
45.396217346191406 3.9085323810577393 2.5581767559051514
45.35641860961914 3.6249639987945557 2.553776979446411
45.442474365234375 3.3514487743377686 2.5463383197784424
45.460044860839844 3.072493076324463 2.540482997894287
12.549642562866211 0.7694079875946045 3.3298068046569824
12.610987663269043 0.6955573558807373 3.326794385910034
45.56538391113281 2.2382192611694336 2.521357774734497
45.56613540649414 1.9581499099731445 2.51572322845459
19.456825256347656 0.7154208421707153 3.1534390449523926
12.067548751831055 0.3688342571258545 3.334012269973755
12.03457260131836 0.2939409017562866 3.3333113193511963
12.319978713989258 0.22535090148448944 3.324641227722168
12.670954704284668 0.15408295392990112 3.314237594604492
12.678624153137207 0.07639579474925995 3.312408685684204
45.76313781738281 0.0003491354000288993 2.470184564590454
12.78549575805664 -0.07980645447969437 3.3063690662384033
12.960657119750977 -0.1603843867778778 3.3001842498779297
12.957391738891602 -0.2398492693901062 3.298543691635132
12.532906532287598 -0.30897659063339233 3.3078155517578125
12.914427757263184 -0.39760348200798035 3.2961742877960205
12.499127388000488 -0.4616461396217346 3.3052995204925537
13.146198272705078 -0.5662130117416382 3.2865359783172607
12.9287691116333 -0.6363620162010193 3.290475606918335
12.908612251281738 -0.7147771716117859 3.2892088890075684
12.835098266601562 -0.7897239327430725 3.2893617153167725
46.04133987426758 -3.111171245574951 2.3941028118133545
12.852278709411621 -0.9491869211196899 3.285245418548584
11.987224578857422 -0.9594088792800903 3.3069186210632324
13.246928215026855 -1.1418399810791016 3.2707419395446777
13.288406372070312 -1.2275772094726562 3.267664670944214
12.02811050415039 -1.185806155204773 3.3005287647247314
12.209466934204102 -1.2793289422988892 3.2937028408050537
12.72394847869873 -1.4121150970458984 3.2775042057037354
33.92890930175781 -3.972882032394409 2.680131435394287
33.94247055053711 -4.185704708099365 2.674582004547119
12.733352661132812 -1.6508984565734863 3.2714242935180664
12.800203323364258 -1.7394640445709229 3.267544984817505
13.813558578491211 -1.963388442993164 3.236467123031616
12.704643249511719 -1.8855223655700684 3.2662909030914307
14.056048393249512 -2.1740775108337402 3.2250664234161377
14.255569458007812 -2.2945408821105957 3.2169971466064453
13.351885795593262 -2.2333338260650635 3.241206645965576
13.306371688842773 -2.309730291366577 3.240377187728882
13.303711891174316 -2.3934335708618164 3.2382733821868896
13.188496589660645 -2.4563441276550293 3.239509105682373
12.808976173400879 -2.467118740081787 3.248692035675049
12.740615844726562 -2.535120725631714 3.248599052429199
12.652321815490723 -2.5983588695526123 3.249115228652954
33.72063064575195 -7.137482166290283 2.6043145656585693
33.741512298583984 -7.358464241027832 2.5978541374206543
33.799964904785156 -7.5887274742126465 2.5901763439178467
33.75946044921875 -7.797496795654297 2.5854969024658203
33.8664665222168 -8.041376113891602 2.5761775970458984
33.898902893066406 -8.269099235534668 2.5691077709198
33.88230895996094 -8.485627174377441 2.563521146774292
33.69588851928711 -8.65898609161377 2.5632758140563965
33.88556671142578 -8.929694175720215 2.551037311553955
34.06160354614258 -9.19992446899414 2.5391123294830322
34.05255889892578 -9.422018051147461 2.5330424308776855
34.0459098815918 -9.64543628692627 2.5268406867980957
34.03779602050781 -9.86912727355957 2.5206308364868164
34.009056091308594 -10.08739948272705 2.515044689178467
33.89187240600586 -10.279295921325684 2.5123331546783447
33.934959411621094 -10.52014446258545 2.504276990890503
34.07736587524414 -10.793892860412598 2.4928202629089355
34.058868408203125 -11.018415451049805 2.486659526824951
34.05502700805664 -11.248445510864258 2.479947090148926
33.99186706542969 -11.459369659423828 2.4751923084259033
34.10036087036133 -11.729424476623535 2.46451735496521
34.05685043334961 -11.948637962341309 2.4589717388153076
34.01947021484375 -12.170453071594238 2.453164577484131
34.075477600097656 -12.426839828491211 2.44404673576355
34.18489074707031 -12.704910278320312 2.432962417602539
34.32207489013672 -12.996112823486328 2.4207799434661865
34.32081604003906 -13.23697280883789 2.413386821746826
34.34021759033203 -13.48707389831543 2.4051835536956787
34.311431884765625 -13.719359397888184 2.3986308574676514
34.35699462890625 -13.982687950134277 2.3893253803253174
34.35444641113281 -14.227973937988281 2.3816757202148438
34.3557014465332 -14.476082801818848 2.3738112449645996
34.34784698486328 -14.721590042114258 2.366203546524048
34.37308883666992 -14.982720375061035 2.3572921752929688
34.38544464111328 -15.239853858947754 2.348769426345825
34.40960693359375 -15.503859519958496 2.339715003967285
34.425453186035156 -15.76582145690918 2.3308804035186768
34.42396926879883 -16.021392822265625 2.32261323928833
34.424259185791016 -16.279245376586914 2.3141932487487793
34.389339447021484 -16.521696090698242 2.307041883468628
34.34914779663086 -16.7625732421875 2.300025224685669
34.33415222167969 -17.01689338684082 2.2919535636901855
34.30571746826172 -17.265819549560547 2.2843265533447266
34.18118667602539 -17.466838836669922 2.280423164367676
34.08564376831055 -17.68262481689453 2.2753360271453857
34.178855895996094 -17.99799919128418 2.2626359462738037
34.3153076171875 -18.33967399597168 2.248044967651367
34.36626052856445 -18.638912200927734 2.2367539405822754
34.23796463012695 -18.842144012451172 2.232665538787842
30.667011260986328 -17.123188018798828 2.3702809810638428
30.202098846435547 -17.107582092285156 2.3810348510742188
34.1829719543457 -19.640228271484375 2.2064361572265625
34.40704345703125 -20.050792694091797 2.1873159408569336
34.479373931884766 -20.377389907836914 2.1743767261505127
34.39125061035156 -20.61111068725586 2.168117046356201
34.47321701049805 -20.948820114135742 2.1544997692108154
34.46468734741211 -21.234317779541016 2.144624948501587
34.42173767089844 -21.500385284423828 2.136134624481201
34.34895324707031 -21.749082565307617 2.1288540363311768
34.55278396606445 -22.17634391784668 2.109300136566162
34.513912200927734 -22.45162582397461 2.1002707481384277
34.4554328918457 -22.71571922302246 2.0920145511627197
34.46148681640625 -23.024343490600586 2.0807600021362305
34.63798904418945 -23.45097541809082 2.061636447906494
34.71165084838867 -23.81279945373535 2.046962022781372
34.69354248046875 -24.114816665649414 2.0363235473632812
30.038745880126953 -21.15424919128418 2.240478754043579
34.78595733642578 -24.81775665283203 2.008650541305542
34.78349685668945 -25.139535903930664 1.9968376159667969
34.813865661621094 -25.488191604614258 1.983321189880371
34.8252067565918 -25.826255798339844 1.9705389738082886
34.82490539550781 -26.158815383911133 1.9581525325775146
34.86079788208008 -26.52198028564453 1.9438539743423462
34.85237121582031 -26.854854583740234 1.9315303564071655
34.87819290161133 -27.217512130737305 1.917363166809082
34.87499237060547 -27.56104850769043 1.9044451713562012
34.84703826904297 -27.888084411621094 1.8925937414169312
34.68672561645508 -28.11075210571289 1.8872488737106323
34.69338607788086 -28.470680236816406 1.8733817338943481
34.82374572753906 -28.937110900878906 1.853005290031433
34.86020278930664 -29.330942153930664 1.8371734619140625
34.83531951904297 -29.67705726623535 1.8243067264556885
34.8377571105957 -30.05006980895996 1.809834361076355
34.91745376586914 -30.494552612304688 1.7910867929458618
34.91813659667969 -30.874948501586914 1.7762686014175415
34.86185073852539 -31.208515167236328 1.7642953395843506
34.92715835571289 -31.6552734375 1.7455867528915405
34.97430419921875 -32.09116744995117 1.727593183517456
34.95224380493164 -32.46830368041992 1.7131352424621582
34.943599700927734 -32.86211013793945 1.6977261304855347
32.15321731567383 30.2813720703125 2.8694138526916504
32.34047317504883 30.085609436035156 2.8653974533081055
32.51108169555664 29.874479293823242 2.8617212772369385
32.84096908569336 29.808208465576172 2.8542141914367676
32.349365234375 29.002172470092773 2.8661282062530518
32.42552185058594 28.713703155517578 2.864523410797119
32.72062683105469 28.61891746520996 2.8576762676239014
36.35475158691406 28.776409149169922 2.7707462310791016
37.00087356567383 28.55669403076172 2.7546467781066895
37.33986282348633 28.454620361328125 2.746127128601074
32.696773529052734 24.600967407226562 2.855947732925415
32.3341064453125 24.018964767456055 2.8640658855438232
32.204200744628906 23.617366790771484 2.866611957550049
32.21232223510742 23.320871353149414 2.865830421447754
32.322959899902344 23.100160598754883 2.8625614643096924
32.289127349853516 22.778114318847656 2.8626914024353027
32.39369583129883 22.555622100830078 2.8594751358032227
32.34843063354492 22.23077392578125 2.8597934246063232
32.33433151245117 21.93034553527832 2.859325885772705
32.3310661315918 21.639827728271484 2.858557939529419
32.388023376464844 21.391502380371094 2.8563055992126465
32.289031982421875 21.04285430908203 2.8577537536621094
32.41405487060547 20.84222412109375 2.8537814617156982
32.50405502319336 20.61943244934082 2.8506059646606445
32.5188102722168 20.350175857543945 2.84919810295105
32.565521240234375 20.102523803710938 2.8469796180725098
32.42340087890625 19.74120330810547 2.849282741546631
32.27808380126953 19.38238525390625 2.851635217666626
32.23884963989258 19.090797424316406 2.851388454437256
32.373390197753906 18.903261184692383 2.8468873500823975
32.415863037109375 18.662416458129883 2.8445780277252197
32.48964309692383 18.44051742553711 2.8414649963378906
32.399635314941406 18.12761688232422 2.8423070907592773
32.53114318847656 17.940114974975586 2.8377044200897217
32.7669792175293 17.80896759033203 2.830498695373535
32.989200592041016 17.668519973754883 2.8235692977905273
33.101287841796875 17.468154907226562 2.819291591644287
44.45813751220703 23.113693237304688 2.5380053520202637
44.394283294677734 22.7357234954834 2.5374321937561035
44.17840576171875 22.284223556518555 2.5405759811401367
44.050899505615234 21.88204002380371 2.541504383087158
43.89678192138672 21.470844268798828 2.543060064315796
43.79603958129883 21.089693069458008 2.5432565212249756
43.56489944458008 20.650211334228516 2.5466690063476562
43.51576232910156 20.301010131835938 2.5455124378204346
43.36222457885742 19.906475067138672 2.5469307899475098
43.153564453125 19.491138458251953 2.5497050285339355
43.13787841796875 19.166383743286133 2.547602653503418
42.967769622802734 18.776107788085938 2.549351692199707
42.85605239868164 18.415088653564453 2.549600601196289
33.18137741088867 14.017582893371582 2.79215931892395
42.58913803100586 17.68474006652832 2.5511133670806885
33.274749755859375 13.578475952148438 2.785635232925415
33.17822265625 13.302303314208984 2.7859690189361572
33.096317291259766 13.034421920776367 2.7859082221984863
33.151302337646484 12.82178020477295 2.782311201095581
41.933170318603516 15.92320442199707 2.5541439056396484
41.85194396972656 15.599336624145508 2.5533859729766846
41.72795486450195 15.26230239868164 2.5537023544311523
41.624000549316406 14.935480117797852 2.5534756183624268
41.52326965332031 14.612502098083496 2.5531375408172607
41.4267692565918 14.293603897094727 2.552661418914795
41.255001068115234 13.951783180236816 2.554126739501953
41.177406311035156 13.644681930541992 2.5531063079833984
41.06907272338867 13.329800605773926 2.5528640747070312
40.95939254760742 13.017067909240723 2.5526340007781982
40.839786529541016 12.703805923461914 2.5526413917541504
40.70928192138672 12.389883995056152 2.5529162883758545
40.656951904296875 12.101999282836914 2.5510904788970947
33.84233093261719 9.848077774047852 2.729727029800415
33.85680389404297 9.627443313598633 2.726597309112549
33.863101959228516 9.405130386352539 2.7236502170562744
33.86311721801758 9.181794166564941 2.720836639404297
33.884864807128906 8.964946746826172 2.717402935028076
33.897491455078125 8.746180534362793 2.7141788005828857
33.914520263671875 8.529059410095215 2.710798501968384
33.90782928466797 8.306587219238281 2.7080273628234863
33.91038513183594 8.087068557739258 2.7049708366394043
33.923213958740234 7.870542049407959 2.7015979290008545
33.92588424682617 7.652182102203369 2.6984670162200928
33.92129135131836 7.432802200317383 2.6955032348632812
33.933868408203125 7.21771764755249 2.692028284072876
33.94312286376953 7.002354145050049 2.6886091232299805
33.954933166503906 6.787931442260742 2.68508243560791
33.957542419433594 6.572107791900635 2.681777000427246
33.96173095703125 6.357059001922607 2.6783907413482666
33.96652603149414 6.142561435699463 2.6749515533447266
33.97980880737305 5.929961681365967 2.6712355613708496
33.990787506103516 5.717264175415039 2.6675474643707275
34.00437545776367 5.505294322967529 2.6637468338012695
33.99293899536133 5.289682388305664 2.660623788833618
34.012760162353516 5.07928991317749 2.656569719314575
34.02534866333008 4.868002891540527 2.652684450149536
34.0445442199707 4.657836437225342 2.6485681533813477
34.049556732177734 4.445934295654297 2.6448237895965576
34.05424118041992 4.234268665313721 2.6410508155822754
34.0655517578125 4.023650169372559 2.6370460987091064
33.55304718017578 3.7545886039733887 2.6483750343322754
33.527610778808594 3.5436525344848633 2.6454310417175293
33.59235763549805 3.342272996902466 2.6397900581359863
33.64693832397461 3.1393954753875732 2.6343984603881836
33.679378509521484 2.9341516494750977 2.629617214202881
33.6737060546875 2.72564435005188 2.6259312629699707
33.66773223876953 2.517390727996826 2.6222167015075684
33.68740463256836 2.311159133911133 2.6176929473876953
33.70082092285156 2.104468822479248 2.6133153438568115
33.70798110961914 1.8974189758300781 2.6090855598449707
33.71186447143555 1.6902599334716797 2.6049153804779053
33.71847915649414 1.4832996129989624 2.6006219387054443
33.726810455322266 1.276434302330017 2.596234083175659
19.279016494750977 0.6114076972007751 3.037991523742676
33.73667526245117 0.8624932169914246 2.5875439643859863
33.751190185546875 0.6557220816612244 2.5828378200531006
33.753448486328125 0.44865861535072327 2.57846999168396
12.853252410888672 0.09224321693181992 3.2298085689544678
12.54068374633789 0.013080053962767124 3.2379872798919678
12.711393356323242 -0.06472357362508774 3.230944871902466
33.802730560302734 -0.3801517188549042 2.559303045272827
33.800628662109375 -0.5875158309936523 2.5548579692840576
12.252267837524414 -0.28790315985679626 3.2405622005462646
12.435046195983887 -0.36853981018066406 3.233015775680542
12.404537200927734 -0.4438110291957855 3.2322943210601807
13.020663261413574 -0.5458701848983765 3.210584878921509
33.72209930419922 -1.621666669845581 2.5342087745666504
12.76638126373291 -0.6921963095664978 3.2152459621429443
12.803746223449707 -0.7730265259742737 3.212197780609131
33.87461471557617 -2.254481792449951 2.5147500038146973
12.896867752075195 -0.9375873804092407 3.2054076194763184
33.89692687988281 -2.6740589141845703 2.5041184425354004
13.219891548156738 -1.1242899894714355 3.1908016204833984
12.361709594726562 -1.1277034282684326 3.217663049697876
12.2132568359375 -1.1897473335266113 3.2208092212677
33.91398620605469 -3.514580488204956 2.4831838607788086
12.76490592956543 -1.4018055200576782 3.198284387588501
12.773883819580078 -1.4821560382843018 3.1959969997406006
33.95820617675781 -4.152130126953125 2.465878486633301
13.382102012634277 -1.7193961143493652 3.170975923538208
12.762116432189941 -1.7193684577941895 3.1903469562530518
33.98148727416992 -4.791244029998779 2.4488070011138916
13.295625686645508 -1.9576407670974731 3.1675362586975098
13.435433387756348 -2.0625200271606445 3.160435438156128
34.015403747558594 -5.436252593994141 2.430870771408081
12.488198280334473 -2.0742218494415283 3.1895968914031982
12.420034408569336 -2.141278028488159 3.1899194717407227
12.515810012817383 -2.236945629119873 3.1843678951263428
29.383268356323242 -5.438447952270508 2.574629783630371
34.039024353027344 -6.5164666175842285 2.401007652282715
33.94825744628906 -6.7152557373046875 2.3983352184295654
33.80149841308594 -6.901980876922607 2.397684335708618
33.650794982910156 -7.086541175842285 2.3971729278564453
33.85459518432617 -7.3466620445251465 2.383573055267334
33.8184814453125 -7.556373596191406 2.3787384033203125
33.928138732910156 -7.799729824066162 2.3684239387512207
33.89505386352539 -8.011383056640625 2.3633551597595215
33.95193099975586 -8.24509334564209 2.3548500537872314
33.94805908203125 -8.465052604675293 2.348560333251953
34.01247024536133 -8.70311450958252 2.339611530303955
34.05783462524414 -8.937716484069824 2.3313026428222656
34.079402923583984 -9.16723346710205 2.3238251209259033
34.09365463256836 -9.395757675170898 2.316556215286255
34.095794677734375 -9.621816635131836 2.3096842765808105
34.0820426940918 -9.844097137451172 2.303365707397461
34.08792495727539 -10.072799682617188 2.2962121963500977
34.05784606933594 -10.291539192199707 2.2904064655303955
34.07410430908203 -10.525035858154297 2.2827062606811523
34.089725494384766 -10.759421348571777 2.2749533653259277
34.13323211669922 -11.003898620605469 2.266005754470825
34.15033721923828 -11.241190910339355 2.258028268814087
34.14592361450195 -11.47242259979248 2.2508416175842285
34.12955093383789 -11.700459480285645 2.244068145751953
34.173919677734375 -11.9504976272583 2.2347404956817627
34.12237548828125 -12.167957305908203 2.229261875152588
34.10137939453125 -12.396842002868652 2.2224643230438232
34.24751663208008 -12.68841552734375 2.208645820617676
34.3333854675293 -12.960367202758789 2.197199821472168
34.33325958251953 -13.201571464538574 2.1892483234405518
34.32959747314453 -13.442533493041992 2.181363344192505
34.36604309082031 -13.700599670410156 2.1716902256011963
34.357086181640625 -13.9419584274292 2.163855791091919
34.36215591430664 -14.190206527709961 2.1553351879119873
34.37468338012695 -14.442911148071289 2.1464009284973145
34.38447570800781 -14.695910453796387 2.1374905109405518
34.42361068725586 -14.963116645812988 2.127200126647949
34.38216018676758 -15.196615219116211 2.1203436851501465
34.42845153808594 -15.470304489135742 2.1095309257507324
34.421775817871094 -15.721883773803711 2.1009562015533447
34.448646545410156 -15.990371704101562 2.090787172317505
34.44007873535156 -16.244007110595703 2.0821011066436768
34.398155212402344 -16.483028411865234 2.074831008911133
34.38243865966797 -16.735702514648438 2.0662872791290283
34.40611267089844 -17.009170532226562 2.05584454536438
34.35092544555664 -17.245006561279297 2.0489189624786377
34.22737503051758 -17.4467716217041 2.045091390609741
34.13192367553711 -17.662826538085938 2.0399129390716553
34.26243591308594 -17.997783660888672 2.0240683555603027
34.148529052734375 -18.20620346069336 2.0195858478546143
34.26886749267578 -18.54132843017578 2.0039212703704834
34.271629333496094 -18.815622329711914 1.9936957359313965
34.315948486328125 -19.11495590209961 1.9813505411148071
34.40137481689453 -19.44011688232422 1.9668699502944946
34.40087890625 -19.71933937072754 1.956403136253357
34.28682327270508 -19.93450927734375 1.951383352279663
34.380550384521484 -20.272335052490234 1.9360530376434326
34.37108612060547 -20.55206871032715 1.9256631135940552
34.11941146850586 -20.686887741088867 1.9272583723068237
34.50487518310547 -21.21129608154297 1.8968244791030884
34.44680404663086 -21.467998504638672 1.8884679079055786
34.35477828979492 -21.70450782775879 1.8817435503005981
34.549720764160156 -22.125503540039062 1.8602161407470703
34.46590805053711 -22.371286392211914 1.8528122901916504
34.54730987548828 -22.726688385009766 1.836732029914856
34.449405670166016 -22.966440200805664 1.8298324346542358
34.64704895019531 -23.40662384033203 1.807276964187622
34.706199645996094 -23.758106231689453 1.7917755842208862
34.77546310424805 -24.120298385620117 1.775533676147461
30.04190444946289 -21.11126708984375 2.0173842906951904
34.81581497192383 -24.786718368530273 1.7477328777313232
34.82572937011719 -25.117279052734375 1.7341212034225464
34.81271743774414 -25.434154510498047 1.7215908765792847
34.83486557006836 -25.779748916625977 1.7069536447525024
34.86206817626953 -26.132556915283203 1.6918410062789917
34.86635208129883 -26.47156524658203 1.6778126955032349
34.890743255615234 -26.82926368713379 1.6624622344970703
34.897071838378906 -27.176591873168945 1.647931456565857
34.90750503540039 -27.53057098388672 1.6329690217971802
34.88132858276367 -27.858888626098633 1.6199157238006592
34.744468688964844 -28.100597381591797 1.6131203174591064
34.71028518676758 -28.427125930786133 1.6002259254455566
34.879478454589844 -28.92519187927246 1.5751559734344482
34.87324523925781 -29.283140182495117 1.5601532459259033
34.90806579589844 -29.67962646484375 1.5424818992614746
34.906005859375 -30.04895782470703 1.526782751083374
34.91653823852539 -30.433162689208984 1.510095238685608
34.87871551513672 -30.778963088989258 1.496130108833313
34.94746780395508 -31.223278045654297 1.4753856658935547
34.978721618652344 -31.639434814453125 1.4566680192947388
35.00027847290039 -32.05174255371094 1.4382811784744263
34.9851188659668 -32.434940338134766 1.421942114830017
35.005889892578125 -32.85607147216797 1.4030722379684448
32.33229064941406 30.079965591430664 2.5803635120391846
32.475589752197266 29.843860626220703 2.577690601348877
32.52690505981445 29.525156021118164 2.5779306888580322
32.44974136352539 29.09416389465332 2.5822529792785645
32.42390441894531 28.714282989501953 2.584821939468384
32.54889678955078 28.470748901367188 2.5824379920959473
32.56319046020508 28.132648468017578 2.5835530757904053
32.58292770385742 27.802587509155273 2.584413766860962
32.5937385559082 27.468191146850586 2.5854856967926025
32.61166000366211 27.143028259277344 2.586251735687256
32.62374496459961 26.816144943237305 2.587131977081299
32.64701461791992 26.501480102539062 2.587578296661377
32.65206527709961 26.17503547668457 2.588536262512207
32.673152923583984 25.864418029785156 2.588909864425659
32.67827606201172 25.544071197509766 2.5897226333618164
32.70048904418945 25.23990249633789 2.5899205207824707
32.70748519897461 24.92673683166504 2.5905346870422363
32.69669723510742 24.60301399230957 2.5916476249694824
32.27311706542969 23.975727081298828 2.605833053588867
32.18004608154297 23.601713180541992 2.6094210147857666
32.230979919433594 23.336448669433594 2.608363151550293
32.309967041015625 23.09295654296875 2.606351852416992
32.2703742980957 22.766963958740234 2.608046293258667
32.34613800048828 22.524595260620117 2.60601544380188
32.3830680847168 22.25667381286621 2.605156898498535
32.4171028137207 21.98858642578125 2.6043307781219482
32.38179016113281 21.675880432128906 2.6056466102600098
32.3230094909668 21.35066032409668 2.6076464653015137
32.28910446166992 21.044998168945312 2.6087992191314697
32.4241943359375 20.850858688354492 2.6045336723327637
32.516754150390625 20.62961196899414 2.601560115814209
32.571388244628906 20.385211944580078 2.5997326374053955
32.35716247558594 19.976024627685547 2.6063807010650635
32.33552932739258 19.689817428588867 2.606863498687744
32.38016891479492 19.445802688598633 2.605189561843872
32.4127082824707 19.195871353149414 2.603844165802002
32.32686996459961 18.878217697143555 2.606205940246582
32.43587875366211 18.676069259643555 2.6023244857788086
32.493202209472656 18.44467544555664 2.600031614303589
32.66667175292969 18.279176712036133 2.5939900875091553
32.70891189575195 18.040306091308594 2.5920684337615967
32.83903121948242 17.850303649902344 2.587294816970825
32.99007797241211 17.671180725097656 2.581799030303955
33.026123046875 17.430686950683594 2.5799126625061035
33.02676010131836 17.17289161682129 2.579104423522949
33.0512809753418 16.92896270751953 2.577483892440796
33.060672760009766 16.67862319946289 2.576295852661133
33.08076858520508 16.435035705566406 2.574716329574585
33.09104537963867 16.187875747680664 2.5734009742736816
33.10763931274414 15.945113182067871 2.571834087371826
33.10444259643555 15.694191932678223 2.5708532333374023
33.09941101074219 15.443909645080566 2.569882869720459
33.127994537353516 15.210549354553223 2.5677855014801025
33.146759033203125 14.973716735839844 2.5659546852111816
33.14925765991211 14.730729103088379 2.5646002292633057
33.162841796875 14.493882179260254 2.5628411769866943
33.185794830322266 14.262158393859863 2.560732126235962
33.189659118652344 14.023307800292969 2.559191942214966
33.182613372802734 13.781111717224121 2.557959794998169
33.20439147949219 13.551995277404785 2.5557467937469482
33.21718215942383 13.320154190063477 2.5537796020507812
33.105628967285156 13.040311813354492 2.555811882019043
33.14384841918945 12.821121215820312 2.5529282093048096
33.57588195800781 12.752074241638184 2.537142038345337
33.68705368041992 12.558441162109375 2.531756639480591
33.7276496887207 12.33851146697998 2.5286247730255127
33.72824478149414 12.10471248626709 2.526756525039673
33.750816345214844 11.879668235778809 2.524120807647705
33.77095031738281 11.654474258422852 2.5215184688568115
33.75740432739258 11.41859245300293 2.519979476928711
33.78018569946289 11.195893287658691 2.5171985626220703
33.77869415283203 10.965936660766602 2.51517391204834
33.7908935546875 10.741265296936035 2.5126497745513916
33.81019973754883 10.519529342651367 2.50984525680542
33.80032730102539 10.289518356323242 2.507964611053467
33.80902862548828 10.066014289855957 2.5054233074188232
33.83161163330078 9.847257614135742 2.502371311187744
33.84990310668945 9.627784729003906 2.499417543411255
33.85329055786133 9.40471076965332 2.4969162940979004
33.857147216796875 9.182480812072754 2.4943559169769287
33.8643913269043 8.961835861206055 2.4916369915008545
33.88471221923828 8.745192527770996 2.488430976867676
33.898807525634766 8.527419090270996 2.4853897094726562
33.8940315246582 8.305519104003906 2.482942581176758
33.9121208190918 8.08979606628418 2.47967529296875
33.91228485107422 7.870320796966553 2.47697114944458
33.911033630371094 7.651148796081543 2.4742727279663086
33.91618347167969 7.433999538421631 2.471311330795288
33.93460464477539 7.220194339752197 2.4678497314453125
33.95168685913086 7.006442070007324 2.464386463165283
33.9674186706543 6.792751312255859 2.460923433303833
33.968074798583984 6.576471328735352 2.457935333251953
33.965389251708984 6.36007022857666 2.455019474029541
33.97903060913086 6.147151470184326 2.451491355895996
33.98937225341797 5.933960437774658 2.4480319023132324
34.0042839050293 5.721867561340332 2.4443657398223877
34.01689147949219 5.509654998779297 2.4407339096069336
34.02323913574219 5.296733379364014 2.43727445602417
34.0331916809082 5.084679126739502 2.4336419105529785
34.03193664550781 4.8712849617004395 2.4303603172302246
