# .PCD v0.7 - Point Cloud Data file format
VERSION 0.7
FIELDS x y z
SIZE 4 4 4
TYPE F F F
COUNT 1 1 1
WIDTH 852
HEIGHT 1
VIEWPOINT 0 0 0 1 0 0 0
POINTS 852
DATA ascii
34.11198806762695 -9.377609252929688 1.0160770416259766
34.102439880371094 -9.600451469421387 1.0077848434448242
34.13072967529297 -9.834851264953613 0.9964514374732971
34.120113372802734 -10.05896282196045 0.9879924058914185
34.11185073852539 -10.284466743469238 0.9792289137840271
34.16499328613281 -10.529633522033691 0.9655463695526123
34.15648651123047 -10.75696849822998 0.9565353393554688
34.14741897583008 -10.984904289245605 0.9474418759346008
34.140625 -11.214378356933594 0.938041090965271
34.1578254699707 -11.452740669250488 0.9266082048416138
34.16771697998047 -11.689801216125488 0.9156093001365662
34.165626525878906 -11.923800468444824 0.9054241180419922
34.145973205566406 -12.152533531188965 0.8965080380439758
34.136985778808594 -12.385894775390625 0.8866056799888611
34.21806335449219 -12.653494834899902 0.8692882061004639
34.29060745239258 -12.92009449005127 0.8524675965309143
34.27737045288086 -13.155906677246094 0.8424371480941772
34.3182487487793 -13.41382122039795 0.8278421759605408
34.31092834472656 -13.654300689697266 0.8170262575149536
34.327816009521484 -13.905674934387207 0.8040668368339539
34.350276947021484 -14.160813331604004 0.7904788255691528
34.35066223144531 -14.408266067504883 0.7785525321960449
34.352054595947266 -14.657430648803711 0.7663832306861877
34.36265182495117 -14.911918640136719 0.7532792687416077
29.515783309936523 -13.024628639221191 1.1489137411117554
34.42017364501953 -15.44169807434082 0.7234843969345093
34.41151428222656 -15.692243576049805 0.7114806175231934
34.42729949951172 -15.955422401428223 0.6972267627716064
34.42851638793945 -16.21343994140625 0.6840359568595886
34.43145751953125 -16.473793029785156 0.6705198884010315
34.446834564208984 -16.741764068603516 0.6557468771934509
34.45306396484375 -17.007015228271484 0.6415759325027466
34.46623992919922 -17.277441024780273 0.6266093850135803
34.39564895629883 -17.507062911987305 0.6187875270843506
34.34832763671875 -17.749286651611328 0.608785092830658
34.43882369995117 -18.064754486083984 0.5864359736442566
34.385921478271484 -18.30704116821289 0.5765637755393982
34.40852737426758 -18.591062545776367 0.5597928762435913
30.82386016845703 -16.89966583251953 0.8666176795959473
30.812471389770508 -17.1402645111084 0.8540579676628113
34.56902313232422 -19.508621215820312 0.49973979592323303
34.57893371582031 -19.795074462890625 0.48317834734916687
34.55731201171875 -20.06536293029785 0.4692799150943756
34.55857849121094 -20.350797653198242 0.4530767500400543
34.59614944458008 -20.66000747680664 0.4332910478115082
34.60563659667969 -20.954946517944336 0.4158537685871124
34.617042541503906 -21.253389358520508 0.3979983925819397
34.59646224975586 -21.534324645996094 0.38290315866470337
34.553497314453125 -21.80303955078125 0.36970511078834534
34.60929489135742 -22.136486053466797 0.3469275236129761
34.6430549621582 -22.458965301513672 0.3259521424770355
34.58584976196289 -22.724674224853516 0.31342411041259766
34.38728332519531 -22.897714614868164 0.3143450617790222
30.302736282348633 -20.447715759277344 0.6923945546150208
34.657501220703125 -23.696998596191406 0.2509104013442993
34.63722610473633 -23.99654769897461 0.23382334411144257
34.72389221191406 -24.37346649169922 0.20592689514160156
29.861881256103516 -21.235774993896484 0.6689516305923462
30.080041885375977 -21.67021942138672 0.6300075054168701
29.766605377197266 -21.723291397094727 0.6439510583877563
29.660451889038086 -21.926197052001953 0.6370678544044495
29.596012115478516 -22.160879135131836 0.6258142590522766
29.558393478393555 -22.417274475097656 0.6116352081298828
29.55667495727539 -22.70318603515625 0.5935429334640503
32.329586029052734 30.807117462158203 0.9759925007820129
32.39405822753906 30.49191665649414 0.9821235537528992
32.33599853515625 30.06560707092285 0.9980310201644897
32.44449996948242 29.797822952270508 1.0001282691955566
32.511756896972656 29.49428939819336 1.005386471748352
32.472442626953125 29.097789764404297 1.0190273523330688
32.416046142578125 28.690977096557617 1.0337769985198975
32.55352783203125 28.45875358581543 1.0327680110931396
32.580596923828125 28.131977081298828 1.040403962135315
32.58666229248047 27.790393829345703 1.0494977235794067
32.617252349853516 27.472951889038086 1.0564364194869995
32.61219024658203 27.128726959228516 1.0659843683242798
32.63575744628906 26.811588287353516 1.073071002960205
32.645042419433594 26.48574447631836 1.081078052520752
32.67649459838867 26.18077278137207 1.0871585607528687
32.67491149902344 25.852258682250977 1.0956209897994995
32.682334899902344 25.53396987915039 1.1031863689422607
32.71080017089844 25.234859466552734 1.1089377403259277
32.721744537353516 24.92486572265625 1.115859031677246
32.7165641784668 24.605491638183594 1.1238353252410889
32.74236297607422 24.312114715576172 1.1292551755905151
32.777069091796875 24.027610778808594 1.133825421333313
32.565338134765625 23.56686782836914 1.1569745540618896
32.62370300292969 23.30574607849121 1.1593729257583618
32.68906784057617 23.051128387451172 1.1610939502716064
32.71404266357422 22.76978302001953 1.1657179594039917
32.70800018310547 22.469219207763672 1.1725186109542847
32.78047561645508 22.2244815826416 1.1732590198516846
32.729244232177734 21.89810562133789 1.1831254959106445
32.7577018737793 21.627641677856445 1.1868609189987183
32.776554107666016 21.352752685546875 1.1911654472351074
32.83441162109375 21.104890823364258 1.1924198865890503
32.79859924316406 20.79885482788086 1.20048987865448
32.83980178833008 20.5438175201416 1.2026951313018799
18.4255428314209 11.369054794311523 2.2726144790649414
18.416337966918945 11.20807933807373 2.2760791778564453
18.404998779296875 11.047130584716797 2.279616594314575
18.37864112854004 10.878609657287598 2.2841732501983643
32.88484191894531 19.19556999206543 1.2235063314437866
32.91258239746094 18.942214965820312 1.2258801460266113
32.928035736083984 18.68333625793457 1.2290198802947998
32.8231086730957 18.358715057373047 1.2408041954040527
32.87100601196289 18.12186050415039 1.241304874420166
32.96809768676758 17.912744522094727 1.2381101846694946
33.00843048095703 17.673439025878906 1.23892343044281
33.03030776977539 17.42546272277832 1.2409539222717285
33.04153060913086 17.173282623291016 1.2436306476593018
33.05534744262695 16.923892974853516 1.2459949254989624
33.06378936767578 16.673181533813477 1.2486246824264526
33.065040588378906 16.420339584350586 1.2516493797302246
33.079681396484375 16.175565719604492 1.253588318824768
33.08357620239258 15.926898002624512 1.2561804056167603
33.09829330444336 15.684775352478027 1.2578761577606201
33.12666320800781 15.450241088867188 1.2584753036499023
33.12710189819336 15.203878402709961 1.2609620094299316
33.16851043701172 14.97739315032959 1.2603999376296997
33.11172866821289 14.708027839660645 1.266747236251831
33.12056350708008 14.469487190246582 1.2682862281799316
33.133216857910156 14.233757019042969 1.2694398164749146
33.15342330932617 14.00229549407959 1.2699435949325562
33.16282653808594 13.76729679107666 1.2711087465286255
33.21586990356445 13.551178932189941 1.2690575122833252
33.181373596191406 13.300396919250488 1.2731291055679321
33.085636138916016 13.027148246765137 1.2814425230026245
33.127403259277344 12.809562683105469 1.2798702716827393
33.49702835083008 12.716985702514648 1.254911184310913
33.67975616455078 12.55065631866455 1.2431384325027466
33.72300720214844 12.331835746765137 1.2411673069000244
33.73103713989258 12.100824356079102 1.2415904998779297
33.73185348510742 11.86819076538086 1.2424194812774658
33.757503509521484 11.645112991333008 1.241384506225586
33.75522232055664 11.413216590881348 1.242224931716919
33.7598876953125 11.184610366821289 1.2424696683883667
33.777259826660156 10.9609956741333 1.2417117357254028
33.783653259277344 10.734563827514648 1.24163019657135
33.79044723510742 10.509057998657227 1.2414182424545288
33.81769943237305 10.290553092956543 1.2396576404571533
33.80051803588867 10.059300422668457 1.2409425973892212
33.82679748535156 9.84174633026123 1.2390506267547607
33.845924377441406 9.62260913848877 1.237565517425537
33.853057861328125 9.40066909790039 1.236830711364746
33.84334182739258 9.174824714660645 1.2371902465820312
33.85624313354492 8.955831527709961 1.2358499765396118
33.863868713378906 8.736027717590332 1.2347856760025024
33.891357421875 8.521819114685059 1.2322174310684204
33.893272399902344 8.301665306091309 1.231363296508789
33.90055847167969 8.083426475524902 1.2300313711166382
33.90935134887695 7.866087436676025 1.2284964323043823
33.90605545043945 7.646526336669922 1.2277230024337769
33.92570495605469 7.432640075683594 1.2252260446548462
33.93522644042969 7.216930389404297 1.2233511209487915
33.949241638183594 7.002591609954834 1.221061110496521
33.95603561401367 6.787177562713623 1.2191894054412842
33.95166778564453 6.570045471191406 1.2180167436599731
33.95866394042969 6.355607986450195 1.215940237045288
33.98296356201172 6.144703388214111 1.2125383615493774
33.98826217651367 5.93065071105957 1.2103934288024902
34.00303268432617 5.718583106994629 1.2074779272079468
34.00663757324219 5.504961013793945 1.2052648067474365
34.01284408569336 5.292121410369873 1.2027724981307983
34.013771057128906 5.078822135925293 1.2005623579025269
34.02521514892578 4.867404460906982 1.1975070238113403
34.0392951965332 4.656577110290527 1.1941670179367065
34.04712677001953 4.4451117515563965 1.1911811828613281
34.06057357788086 4.234586238861084 1.1876965761184692
34.075687408447266 4.024411678314209 1.1839969158172607
33.54530334472656 3.7532870769500732 1.219461441040039
33.50490188598633 3.5408449172973633 1.2196162939071655
33.56538009643555 3.339214563369751 1.212407112121582
33.625640869140625 3.13706636428833 1.2051132917404175
33.63798141479492 2.9302315711975098 1.2011808156967163
33.6500358581543 2.7234420776367188 1.197174310684204
33.64988708496094 2.515794277191162 1.1939584016799927
33.66536331176758 2.309410572052002 1.1895155906677246
33.6716194152832 2.1024317741394043 1.1856476068496704
33.673606872558594 1.895293116569519 1.1819952726364136
33.68528366088867 1.688757300376892 1.177544116973877
33.699676513671875 1.4823232889175415 1.17279851436615
33.71280288696289 1.2757741212844849 1.1680479049682617
19.262685775756836 0.6097704768180847 2.222663164138794
33.71830368041992 0.8619279265403748 1.1597802639007568
33.726627349853516 0.6551652550697327 1.1550945043563843
13.026556968688965 0.17186270654201508 2.6747488975524902
33.74943923950195 0.24150484800338745 1.1449787616729736
33.755950927734375 0.03449166938662529 1.1401355266571045
33.76517868041992 -0.17261433601379395 1.134993314743042
12.817955017089844 -0.14543752372264862 2.683403253555298
12.768843650817871 -0.22322978079319 2.6852846145629883
11.736248016357422 -0.277366578578949 2.760329484939575
12.819729804992676 -0.38147732615470886 2.677861452102661
33.80717468261719 -1.2102298736572266 1.1081091165542603
33.789817810058594 -1.4172006845474243 1.104360580444336
33.73434829711914 -1.6222357749938965 1.1033780574798584
12.740311622619629 -0.6923072338104248 2.676097869873047
12.854156494140625 -0.7775881886482239 2.66550874710083
12.863946914672852 -0.857411801815033 2.6626992225646973
33.86608123779297 -2.462641716003418 1.0718804597854614
12.535106658935547 -0.9901590943336487 2.683370351791382
13.093022346496582 -1.114999532699585 2.6388473510742188
12.76208782196045 -1.1657710075378418 2.6617839336395264
13.054287910461426 -1.27321457862854 2.6372323036193848
13.105616569519043 -1.3594272136688232 2.6309664249420166
13.116727828979492 -1.4419660568237305 2.627725839614868
13.108498573303223 -1.5225101709365845 2.625927448272705
33.90177536010742 -4.145235061645508 1.0209993124008179
33.94954299926758 -4.362632751464844 1.0108143091201782
33.94453811645508 -4.573853015899658 1.004591941833496
33.943145751953125 -4.785873889923096 0.9979812502861023
12.97510814666748 -1.9119936227798462 2.6235458850860596
12.90683364868164 -1.9829241037368774 2.626222848892212
12.99472427368164 -2.078099012374878 2.6166646480560303
33.983314514160156 -5.645242214202881 0.9668614268302917
33.992897033691406 -5.861374855041504 0.958828330039978
13.478974342346191 -2.4106833934783936 2.5701026916503906
33.99126434326172 -6.291542053222656 0.9440544843673706
34.02708053588867 -6.514350891113281 0.9335887432098389
12.647550582885742 -2.5031816959381104 2.6271955966949463
33.91654968261719 -6.9257001876831055 0.9267973303794861
33.908199310302734 -7.141002178192139 0.9195080995559692
33.916015625 -7.360269069671631 0.9108062386512756
33.952579498291016 -7.586639881134033 0.8996659517288208
33.9584846496582 -7.807037830352783 0.8908618092536926
34.041542053222656 -8.046365737915039 0.8756824731826782
34.046409606933594 -8.268425941467285 0.8666921854019165
34.047889709472656 -8.490367889404297 0.8578498959541321
34.079795837402344 -8.720794677734375 0.8463913798332214
34.10050964355469 -8.949402809143066 0.8357080221176147
34.10236358642578 -9.173935890197754 0.8264367580413818
34.110435485839844 -9.400945663452148 0.8165200352668762
34.11220169067383 -9.627050399780273 0.8069900870323181
34.11151123046875 -9.853254318237305 0.7975294589996338
34.12080383300781 -10.083203315734863 0.7871017456054688
34.09515380859375 -10.303546905517578 0.7794583439826965
34.15093994140625 -10.549548149108887 0.7648510336875916
34.14509963989258 -10.77772331237793 0.7552666068077087
34.15007019042969 -11.010201454162598 0.7446296215057373
34.14968490600586 -11.241899490356445 0.7343030571937561
34.19214630126953 -11.488929748535156 0.720181405544281
34.159305572509766 -11.711691856384277 0.7123262286186218
34.19182205200195 -11.957844734191895 0.6987349390983582
34.131526947021484 -12.17236614227295 0.6929700970649719
34.13264846801758 -12.40941333770752 0.6817806959152222
34.22279357910156 -12.680520057678223 0.662709653377533
34.28478240966797 -12.943345069885254 0.6458777189254761
34.290870666503906 -13.186660766601562 0.6337369084358215
34.290618896484375 -13.428722381591797 0.6219900846481323
34.30255889892578 -13.676815032958984 0.6090056896209717
34.32475280761719 -13.930431365966797 0.5949422121047974
34.32946014404297 -14.17836856842041 0.5822516083717346
34.32965087890625 -14.425731658935547 0.5697924494743347
34.32717514038086 -14.673237800598145 0.5574015974998474
34.33757400512695 -14.927614212036133 0.5436815619468689
29.486740112304688 -13.034891128540039 0.9690662026405334
34.40376281738281 -15.461272239685059 0.5115716457366943
34.37948226928711 -15.704712867736816 0.5004390478134155
34.39146423339844 -15.96606159210205 0.4858224391937256
34.40964126586914 -16.231977462768555 0.4704425632953644
34.41236114501953 -16.49225616455078 0.45628753304481506
34.41855239868164 -16.755794525146484 0.4416167438030243
34.42994689941406 -17.0235652923584 0.42626330256462097
34.43399429321289 -17.2894229888916 0.4113907814025879
34.36238098144531 -17.51840591430664 0.4034286141395569
34.319339752197266 -17.762739181518555 0.3926270604133606
34.44044494628906 -18.09432601928711 0.3660849928855896
34.36090850830078 -18.32257843017578 0.35835352540016174
34.404319763183594 -18.617877960205078 0.33870649337768555
30.812639236450195 -16.91984748840332 0.6686017513275146
30.785354614257812 -17.151683807373047 0.6569616198539734
34.530853271484375 -19.51691246032715 0.2785814702510834
34.54317092895508 -19.804662704467773 0.26093024015426636
34.515350341796875 -20.071260452270508 0.24697473645210266
34.53446960449219 -20.36711311340332 0.22818517684936523
34.55467224121094 -20.666000366210938 0.20903097093105316
34.4890022277832 -20.91526985168457 0.1981705278158188
34.38336944580078 -21.141033172607422 0.1911316066980362
34.452144622802734 -21.47591209411621 0.1664021611213684
34.49787521362305 -21.79965591430664 0.14367800951004028
34.58958053588867 -22.155929565429688 0.11597392708063126
34.496849060058594 -22.396427154541016 0.10676399618387222
34.369178771972656 -22.614715576171875 0.10098016262054443
33.98978042602539 -22.665363311767578 0.12108136713504791
30.26268196105957 -20.449825286865234 0.489177405834198
29.794832229614258 -21.217849731445312 0.4681100845336914
30.1347599029541 -21.739994049072266 0.4137289226055145
29.780012130737305 -21.76336669921875 0.43331682682037354
29.67355728149414 -21.96636199951172 0.42623651027679443
29.63348388671875 -22.21966552734375 0.4117981791496277
29.573959350585938 -22.46004867553711 0.39925965666770935
29.58603286743164 -22.75702476501465 0.37863630056381226
33.84124755859375 -29.873741149902344 -0.3557734787464142
33.72516632080078 -30.14181137084961 -0.3685249984264374
33.61223220825195 -30.414260864257812 -0.38189101219177246
33.38484191894531 -30.583515167236328 -0.38173747062683105
20.214447021484375 -18.981157302856445 1.1688112020492554
20.032333374023438 -19.04302406311035 1.174007534980774
32.3734245300293 30.920063018798828 0.6800561547279358
31.44801139831543 29.669836044311523 0.7772647738456726
15.532320976257324 14.47563648223877 2.2290987968444824
31.641538619995117 29.12774658203125 0.7845580577850342
31.63838768005371 28.76865577697754 0.796869695186615
32.00543212890625 28.74606704711914 0.7758587598800659
32.30918884277344 28.663105010986328 0.7604852914810181
32.50205612182617 28.48017120361328 0.7548922300338745
32.534698486328125 28.158172607421875 0.7633169889450073
32.55704116821289 27.830366134643555 0.7724184393882751
32.58879089355469 27.513643264770508 0.7804649472236633
32.59949493408203 27.1822452545166 0.7901259064674377
32.610450744628906 26.854293823242188 0.7995352149009705
32.627132415771484 26.53415298461914 0.8082221746444702
32.6286735534668 26.20482635498047 0.8179970979690552
32.666500091552734 25.907482147216797 0.8244276642799377
32.6492805480957 25.56944465637207 0.835377037525177
32.67414474487305 25.267383575439453 0.8425050377845764
32.67512512207031 24.949634552001953 0.8514666557312012
32.714080810546875 24.663455963134766 0.8569959402084351
32.71874237060547 24.353914260864258 0.865241289138794
32.754615783691406 24.070053100585938 0.8706526160240173
32.55404281616211 23.616777420043945 0.8957692980766296
32.60386276245117 23.34926986694336 0.8995924592018127
32.687477111816406 23.10738182067871 0.9004213809967041
32.68671417236328 22.80768394470215 0.9081358909606934
32.73938751220703 22.547346115112305 0.911219596862793
32.78762435913086 22.285537719726562 0.9145106673240662
32.76263427734375 21.976192474365234 0.9236986041069031
32.79665756225586 21.708742141723633 0.927828311920166
32.77517318725586 21.40678596496582 0.9363633990287781
32.83927917480469 21.162656784057617 0.9376896023750305
32.82585906982422 20.870372772216797 0.9452195763587952
32.837989807128906 20.59654426574707 0.950487494468689
32.83951187133789 20.31810188293457 0.956458330154419
32.86952209472656 20.059123992919922 0.9599481225013733
32.87109375 19.78459930419922 0.9655954241752625
32.89542007446289 19.52557373046875 0.9692400693893433
32.941917419433594 19.281103134155273 0.9709431529045105
32.912353515625 18.993913650512695 0.9786412119865417
32.89785385131836 18.717683792114258 0.9849637746810913
32.822914123535156 18.409650802612305 0.9959872961044312
32.85719680786133 18.165019989013672 0.998077929019928
32.95277786254883 17.955026626586914 0.9951220154762268
32.98725891113281 17.71245002746582 0.996931254863739
32.994441986083984 17.45659828186035 1.0007840394973755
33.02450180053711 17.214235305786133 1.0026726722717285
33.037742614746094 16.964414596557617 1.0057651996612549
33.05183792114258 16.7164306640625 1.0086549520492554
33.07217025756836 16.472911834716797 1.010913610458374
33.07196044921875 16.220548629760742 1.0146676301956177
33.09235763549805 15.97965145111084 1.016656756401062
33.10835266113281 15.73783016204834 1.0188645124435425
33.1054573059082 15.488380432128906 1.0224326848983765
33.11524963378906 15.246231079101562 1.0248701572418213
33.154212951660156 15.018539428710938 1.0248841047286987
33.138790130615234 14.767394065856934 1.029051661491394
33.09321594238281 14.504591941833496 1.0354560613632202
33.11528778076172 14.272906303405762 1.036421775817871
33.119239807128906 14.034490585327148 1.0386861562728882
33.15465545654297 13.810368537902832 1.0383647680282593
33.19688415527344 13.589739799499512 1.037392497062683
33.23394775390625 13.367623329162598 1.0367087125778198
33.0775260925293 13.069695472717285 1.0510159730911255
33.1251335144043 12.854290008544922 1.049267053604126
33.46213150024414 12.749579429626465 1.0248420238494873
33.65614700317383 12.587759971618652 1.0114749670028687
33.70711898803711 12.371803283691406 1.0091484785079956
33.74262619018555 12.15062427520752 1.0079113245010376
33.740962982177734 11.916853904724121 1.0094538927078247
33.738643646240234 11.68388557434082 1.0109299421310425
33.74418640136719 11.45460033416748 1.0116808414459229
33.75954055786133 11.229461669921875 1.0115556716918945
33.76676940917969 11.002401351928711 1.0119481086730957
33.78578567504883 10.77991771697998 1.0113142728805542
33.81000900268555 10.559694290161133 1.0101648569107056
33.80514907836914 10.331125259399414 1.01116144657135
33.78919982910156 10.1001558303833 1.0129069089889526
33.81476974487305 9.882359504699707 1.0113221406936646
33.842777252197266 9.665721893310547 1.0094397068023682
33.85306930541992 9.44455337524414 1.0088213682174683
33.866737365722656 9.224932670593262 1.0078340768814087
33.8471794128418 8.997045516967773 1.0093146562576294
33.85795974731445 8.77800178527832 1.008335828781128
33.87796401977539 8.561849594116211 1.0065346956253052
33.89562225341797 8.345542907714844 1.0048085451126099
33.899295806884766 8.126317977905273 1.0040602684020996
33.89961624145508 7.906906604766846 1.0034667253494263
33.90046691894531 7.688238620758057 1.0027271509170532
33.92036056518555 7.47435998916626 1.000403642654419
33.928184509277344 7.258230686187744 0.9989129304885864
33.93951416015625 7.043298244476318 0.9970446228981018
33.94948196411133 6.828497409820557 0.995177686214447
33.96103286743164 6.614410400390625 0.993083655834198
33.94478225708008 6.395451545715332 0.9930481314659119
33.97322463989258 6.185333251953125 0.9894315004348755
33.984657287597656 5.972344398498535 0.9870349168777466
33.99180603027344 5.758944511413574 0.9848678112030029
34.00155258178711 5.546323299407959 0.9823957681655884
34.01390838623047 5.334414958953857 0.9796159863471985
34.020015716552734 5.121819496154785 0.9772199988365173
34.030723571777344 4.9102020263671875 0.9743636846542358
34.03813552856445 4.698371887207031 0.9716600179672241
34.04620361328125 4.486893177032471 0.9688027501106262
34.056915283203125 4.2759881019592285 0.9656342267990112
34.07028579711914 4.0655903816223145 0.9621554613113403
33.61376953125 3.8021903038024902 0.9954537153244019
33.491390228271484 3.58046555519104 1.0024687051773071
33.53619384765625 3.37736439704895 0.9962539672851562
33.63037872314453 3.1786303520202637 0.9860436320304871
33.65287780761719 2.972637891769409 0.9813671112060547
33.664180755615234 2.7656707763671875 0.9774696826934814
33.664268493652344 2.55791974067688 0.9743548631668091
33.66505813598633 2.3504085540771484 0.9710837006568909
33.67949676513672 2.1439318656921387 0.9666306376457214
15.756494522094727 0.9062202572822571 2.3844285011291504
15.785492897033691 0.8107819557189941 2.3804824352264404
15.794990539550781 0.7141659259796143 2.37803316116333
15.773016929626465 0.6162572503089905 2.378040075302124
15.7992582321167 0.5202504396438599 2.374159574508667
15.822917938232422 0.423890620470047 2.370431423187256
15.829048156738281 0.326909601688385 2.368051290512085
15.82062816619873 0.22966614365577698 2.3667869567871094
33.75434875488281 0.28250598907470703 0.9262513518333435
12.99903678894043 0.02929254248738289 2.5894627571105957
12.99884033203125 -0.050442054867744446 2.5877671241760254
33.77770233154297 -0.33888447284698486 0.9110329151153564
33.786598205566406 -0.5462580919265747 0.9056570529937744
33.7872428894043 -0.7536000609397888 0.9008418321609497
11.857344627380371 -0.3370051085948944 2.673017740249634
33.830535888671875 -1.1699529886245728 0.8874845504760742
33.81838607788086 -1.3772791624069214 0.8833864331245422
33.74124526977539 -1.5815149545669556 0.884480357170105
13.122982025146484 -0.695569634437561 2.5624847412109375
12.798957824707031 -0.7571479678153992 2.5868923664093018
12.862565040588379 -0.8401246070861816 2.579592227935791
33.86881637573242 -2.421522855758667 0.852208137512207
12.635401725769043 -0.9811019897460938 2.5939688682556152
33.86066818237305 -2.838902235031128 0.8412864804267883
12.97353744506836 -1.1676676273345947 2.5616157054901123
33.89499282836914 -3.2610366344451904 0.8264099955558777
33.911659240722656 -3.4727389812469482 0.8188357353210449
33.924034118652344 -3.6844475269317627 0.8114995956420898
33.92617416381836 -3.8954179286956787 0.8048992156982422
33.92501449584961 -4.1063151359558105 0.7984586954116821
33.93144607543945 -4.318479537963867 0.791268527507782
33.945438385009766 -4.532066345214844 0.7833249568939209
33.94919967651367 -4.744748115539551 0.7761197090148926
33.942752838134766 -4.956352233886719 0.7696573734283447
33.974388122558594 -5.17405891418457 0.7598578333854675
34.002662658691406 -5.392030715942383 0.7502110600471497
33.97742462158203 -5.601953983306885 0.7449814081192017
12.766799926757812 -2.1852002143859863 2.545571804046631
13.395665168762207 -2.3775475025177 2.4889638423919678
34.03308868408203 -6.256648063659668 0.7173697352409363
34.01327133178711 -6.469005584716797 0.7111993432044983
34.026344299316406 -6.688084125518799 0.7020789980888367
33.97550964355469 -6.894885063171387 0.6983479261398315
33.92829513549805 -7.102336406707764 0.6942012906074524
33.92559051513672 -7.319347858428955 0.6860811114311218
33.98861312866211 -7.551507472991943 0.672106146812439
34.056854248046875 -7.786271572113037 0.6575127840042114
34.08469009399414 -8.013035774230957 0.6462934613227844
34.083900451660156 -8.233885765075684 0.6374433636665344
34.076847076416016 -8.45383071899414 0.6290115118026733
34.10892868041992 -8.684324264526367 0.6169858574867249
34.12885284423828 -8.912762641906738 0.6058834195137024
34.12511444091797 -9.135847091674805 0.5967374444007874
34.113197326660156 -9.357377052307129 0.5881837010383606
34.1199836730957 -9.58476734161377 0.5778201818466187
34.16355895996094 -9.82360553741455 0.564003586769104
34.17011642456055 -10.052937507629395 0.5533532500267029
34.167510986328125 -10.280423164367676 0.5433824062347412
34.18910598754883 -10.516165733337402 0.5310688018798828
34.19768142700195 -10.748976707458496 0.519777774810791
34.170536041259766 -10.971324920654297 0.5115933418273926
34.159934997558594 -11.199645042419434 0.5017572641372681
34.22716522216797 -11.454808235168457 0.48461097478866577
34.21523666381836 -11.68481731414795 0.47457465529441833
34.223411560058594 -11.922649383544922 0.4625243842601776
34.1773796081543 -12.142348289489746 0.4553491175174713
34.142112731933594 -12.366341590881348 0.4470384418964386
34.22406768798828 -12.634176254272461 0.42760661244392395
34.30680465698242 -12.904533386230469 0.4078771770000458
34.29169464111328 -13.139669418334961 0.39715704321861267
34.30839157104492 -13.388144493103027 0.38326334953308105
34.33073043823242 -13.64026165008545 0.3686481714248657
34.333709716796875 -13.88606071472168 0.35568881034851074
34.3248291015625 -14.128240585327148 0.34368637204170227
34.3326416015625 -14.378530502319336 0.329905241727829
34.324928283691406 -14.6235933303833 0.317436546087265
34.325538635253906 -14.873458862304688 0.3039805293083191
29.5098876953125 -13.00247859954834 0.7594681978225708
34.410499572753906 -15.414763450622559 0.2683136463165283
34.3928108215332 -15.66103458404541 0.2560505270957947
34.3869514465332 -15.913946151733398 0.24244076013565063
34.397300720214844 -16.175851821899414 0.22703085839748383
34.42549514770508 -16.447933197021484 0.2096373587846756
34.409523010253906 -16.70052719116211 0.19642692804336548
34.3354606628418 -16.92580223083496 0.18885304033756256
34.31069564819336 -17.176212310791016 0.17616617679595947
34.068397521972656 -17.317291259765625 0.18530991673469543
34.300045013427734 -17.70085906982422 0.1462661772966385
33.698974609375 -17.653486251831055 0.19184726476669312
34.20426559448242 -18.18667984008789 0.12424715608358383
33.90141296386719 -18.29350471496582 0.13925130665302277
34.07286834716797 -18.65703010559082 0.10519730299711227
29.8344669342041 -21.192670822143555 0.22921337187290192
30.218265533447266 -21.745738983154297 0.1660798341035843
29.81431770324707 -21.73418426513672 0.19307848811149597
29.70561408996582 -21.93556785583496 0.18604837357997894
29.663331985473633 -22.187131881713867 0.17111612856388092
29.60320281982422 -22.42697525024414 0.15803784132003784
29.612327575683594 -22.721466064453125 0.13655969500541687
33.75174331665039 -26.22860336303711 -0.3759385347366333
33.640541076660156 -26.475149154663086 -0.38661983609199524
33.53070068359375 -26.723800659179688 -0.397670179605484
33.39350128173828 -26.95147132873535 -0.405621737241745
32.54924011230469 -26.93695831298828 -0.352262407541275
32.35692596435547 -27.114347457885742 -0.3535168468952179
32.190223693847656 -27.312942504882812 -0.35803914070129395
32.01702117919922 -27.50597381591797 -0.36188212037086487
31.841909408569336 -27.697256088256836 -0.3656079173088074
31.676111221313477 -27.896642684936523 -0.37063413858413696
31.3181095123291 -27.92476463317871 -0.35134172439575195
31.142009735107422 -28.112991333007812 -0.3551671802997589
30.984615325927734 -28.318246841430664 -0.36152875423431396
31.113861083984375 29.718950271606445 0.5158035755157471
31.226268768310547 29.4625244140625 0.5188457369804382
15.542716026306152 14.485703468322754 2.0903735160827637
31.311622619628906 28.825960159301758 0.5381092429161072
31.363502502441406 28.5206356048584 0.5464468002319336
31.51744270324707 28.309728622436523 0.5445359945297241
31.68340301513672 28.109920501708984 0.5412948727607727
31.8916015625 27.947265625 0.53380286693573
31.990402221679688 27.689119338989258 0.5367908477783203
32.07435989379883 27.419795989990234 0.541014552116394
32.29719161987305 27.269514083862305 0.5316959619522095
32.51095962524414 27.11050033569336 0.5231456756591797
14.558902740478516 11.989850997924805 2.2461154460906982
14.635098457336426 11.902841567993164 2.244013547897339
14.661012649536133 11.77538013458252 2.2466092109680176
14.696073532104492 11.65610408782959 2.24824857711792
14.701175689697266 11.51408863067627 2.2526166439056396
14.686946868896484 11.358418464660645 2.258690118789673
14.71971607208252 11.240277290344238 2.260262966156006
14.702220916748047 11.08493709564209 2.2664270401000977
14.750572204589844 10.98025894165039 2.2663731575012207
14.800604820251465 10.87717342376709 2.266091823577881
14.871721267700195 10.789700508117676 2.2637975215911865
14.867735862731934 10.648340225219727 2.268343448638916
14.912247657775879 10.542552947998047 2.2683489322662354
14.964200973510742 10.442326545715332 2.267603635787964
15.036017417907715 10.355998992919922 2.2649831771850586
15.153519630432129 10.300576210021973 2.2581586837768555
15.048971176147461 10.095218658447266 2.2714052200317383
15.08300495147705 9.984557151794434 2.271996259689331
15.112909317016602 9.871675491333008 2.2728865146636963
15.14116096496582 9.75826358795166 2.273850917816162
15.172797203063965 9.647551536560059 2.274437665939331
15.196889877319336 9.532578468322754 2.2756271362304688
15.254060745239258 9.438660621643066 2.2737927436828613
15.30980110168457 9.343878746032715 2.2720258235931396
15.374348640441895 9.254425048828125 2.2694172859191895
15.435802459716797 9.16300106048584 2.267026424407959
15.476058959960938 9.059082984924316 2.266451120376587
32.91490173339844 18.997591018676758 0.7317310571670532
32.948123931884766 18.748493194580078 0.7348249554634094
32.82561111450195 18.413360595703125 0.7514395713806152
32.84421157836914 18.160045623779297 0.7554795145988464
32.94324493408203 17.952041625976562 0.7523282170295715
33.00318908691406 17.723220825195312 0.7524617910385132
33.00693130493164 17.46542739868164 0.7573537230491638
33.011409759521484 17.209636688232422 0.7620254158973694
33.036170959472656 16.96583366394043 0.7647819519042969
33.04494857788086 16.71517562866211 0.7687782645225525
33.06796646118164 16.47304916381836 0.7713918685913086
33.07136154174805 16.222484588623047 0.7755585312843323
33.08549499511719 15.978570938110352 0.778650164604187
33.09788513183594 15.73509407043457 0.7817490100860596
33.10853958129883 15.49206256866455 0.7848554253578186
33.12199020385742 15.251577377319336 0.787579357624054
33.14373016357422 15.016036033630371 0.7894538044929504
33.139244079589844 14.769842147827148 0.7934390306472778
33.09189987182617 14.506257057189941 0.8009528517723083
33.13229751586914 14.28248405456543 0.8008168339729309
33.11979293823242 14.036972999572754 0.8050699830055237
33.16718673706055 13.817840576171875 0.8040752410888672
33.18269348144531 13.586186408996582 0.8056719899177551
33.21788024902344 13.363419532775879 0.8054620623588562
33.07358169555664 13.070382118225098 0.8203954696655273
33.11467361450195 12.8524808883667 0.8194180130958557
33.443111419677734 12.744614601135254 0.793916642665863
33.66314697265625 12.592680931091309 0.7775288820266724
33.68980026245117 12.367753028869629 0.7774387001991272
33.736534118652344 12.150740623474121 0.7755210995674133
33.740516662597656 11.919008255004883 0.7771009802818298
33.74952697753906 11.68996810913086 0.7781299352645874
33.74283218383789 11.456456184387207 0.7803609371185303
33.752525329589844 11.229443550109863 0.7810827493667603
33.77207565307617 11.006447792053223 0.7808479070663452
33.78351593017578 10.781513214111328 0.7811756134033203
33.80393600463867 10.560118675231934 0.7806248664855957
33.794315338134766 10.330137252807617 0.7824883460998535
33.7965202331543 10.104666709899902 0.7832323312759399
33.812538146972656 9.88403034210205 0.7826918363571167
33.826168060302734 9.663304328918457 0.7822338938713074
33.84123992919922 9.443582534790039 0.7815358638763428
33.86162567138672 9.225872993469238 0.7802720069885254
33.85845947265625 9.002376556396484 0.7808753848075867
33.85382843017578 8.779263496398926 0.7814851403236389
33.87286376953125 8.562896728515625 0.7799849510192871
33.88277053833008 8.344717025756836 0.7791367173194885
33.880619049072266 8.124178886413574 0.7791898250579834
33.88480758666992 7.905792713165283 0.778593122959137
33.897308349609375 7.689863681793213 0.7771815657615662
33.92109298706055 7.476865291595459 0.774704098701477
33.93184280395508 7.261359691619873 0.7732113003730774
33.93927764892578 7.045596599578857 0.7718839049339294
33.94338607788086 6.829620838165283 0.7707240581512451
33.947105407714844 6.614048004150391 0.7694845795631409
33.951416015625 6.399053573608398 0.7680813670158386
33.97103500366211 6.187289237976074 0.7652739882469177
33.97951889038086 5.973796844482422 0.763293981552124
33.98960876464844 5.760931015014648 0.7610649466514587
34.00132369995117 5.548645496368408 0.7585872411727905
34.00875473022461 5.335968017578125 0.7563592791557312
34.001060485839844 5.121326923370361 0.7552993893623352
34.01667404174805 4.910539627075195 0.7521559596061707
34.03196334838867 4.699888229370117 0.7489274144172668
34.0420036315918 4.488709449768066 0.7460317611694336
34.05073165893555 4.27758264541626 0.7431345582008362
34.064083099365234 4.067224502563477 0.7397336959838867
33.612762451171875 3.804408073425293 0.7757335901260376
33.484500885009766 3.5820505619049072 0.7841941714286804
33.527286529541016 3.3787946701049805 0.777994692325592
33.60752868652344 3.1788063049316406 0.7684872150421143
33.643890380859375 2.974184513092041 0.7626020908355713
33.65616989135742 2.7673561573028564 0.7586587071418762
33.65922546386719 2.5598816871643066 0.7553936839103699
33.66299057006836 2.3526108264923096 0.7519581317901611
33.67542266845703 2.146022081375122 0.7476688623428345
15.748120307922363 0.9064003229141235 2.2826340198516846
15.789032936096191 0.8116298913955688 2.2775089740753174
15.7985200881958 0.7149932980537415 2.275027275085449
15.800445556640625 0.6179971098899841 2.2731428146362305
15.817708969116211 0.521528959274292 2.269883871078491
15.829399108886719 0.42473742365837097 2.267050266265869
15.826554298400879 0.327532023191452 2.2654190063476562
15.815141677856445 0.2302602380514145 2.2644779682159424
33.751136779785156 0.2848498523235321 0.7071372270584106
12.053604125976562 0.02750910073518753 2.587139368057251
12.17595100402832 -0.046893179416656494 2.574909210205078
12.961284637451172 -0.12939700484275818 2.5048508644104004
33.7723503112793 -0.5436475872993469 0.6872633099555969
33.791908264160156 -0.7513203620910645 0.6807644367218018
12.182551383972168 -0.34592366218566895 2.567504644393921
11.79477310180664 -0.4073500335216522 2.5996978282928467
33.82197570800781 -1.375032901763916 0.6630592346191406
13.235459327697754 -0.6197034120559692 2.4693007469177246
13.181524276733398 -0.6982421278953552 2.4719536304473877
12.816873550415039 -0.7578102350234985 2.5020198822021484
12.829732894897461 -0.8375791907310486 2.4987587928771973
12.73776912689209 -0.9100850820541382 2.504741668701172
33.8742790222168 -2.628467559814453 0.6251389980316162
12.861348152160645 -1.0776638984680176 2.4893014430999756
13.019035339355469 -1.1713433265686035 2.472928762435913
12.88058090209961 -1.2385964393615723 2.482916831970215
12.98654556274414 -1.3292392492294312 2.471022605895996
33.914424896240234 -3.680978298187256 0.5905094742774963
33.916542053222656 -3.891883611679077 0.5837427973747253
33.91240310668945 -4.102357387542725 0.5774163603782654
33.924739837646484 -4.315191745758057 0.5694797039031982
33.95844650268555 -4.531363010406494 0.5594795346260071
33.95723342895508 -4.743427276611328 0.5525081753730774
13.06924057006836 -1.9077144861221313 2.4452099800109863
13.146743774414062 -2.0014801025390625 2.43532133102417
13.224564552307129 -2.0964243412017822 2.4253199100494385
13.25454044342041 -2.184626340866089 2.419617176055908
34.002891540527344 -5.818213939666748 0.5109968781471252
29.244564056396484 -5.188970565795898 0.9412571787834167
34.01826477050781 -6.251453876495361 0.49372047185897827
34.036590576171875 -6.470968723297119 0.4838915765285492
34.0134391784668 -6.6830735206604 0.4777696430683136
33.97139358520508 -6.891576766967773 0.4732811748981476
33.92319869995117 -7.0987982749938965 0.46925094723701477
33.91559600830078 -7.314717769622803 0.46131107211112976
34.013553619384766 -7.554562568664551 0.44333434104919434
34.105953216552734 -7.7949981689453125 0.42568838596343994
34.078407287597656 -8.009058952331543 0.41916805505752563
34.07177734375 -8.22845458984375 0.4105393588542938
34.05793762207031 -8.446634292602539 0.4024549126625061
34.10832214355469 -8.681657791137695 0.3881213366985321
34.11855697631836 -8.907557487487793 0.3774440288543701
34.11383056640625 -9.130305290222168 0.368044376373291
34.11149597167969 -9.354387283325195 0.3582669794559479
34.123985290527344 -9.583362579345703 0.34691205620765686
34.15216827392578 -9.81779670715332 0.33388030529022217
34.16156005859375 -10.047880172729492 0.32249733805656433
34.15129852294922 -10.273002624511719 0.31286370754241943
34.182376861572266 -10.511547088623047 0.29904499650001526
34.1728630065918 -10.738624572753906 0.28901973366737366
34.16184616088867 -10.965980529785156 0.27898597717285156
34.181488037109375 -11.204153060913086 0.26577502489089966
34.20515441894531 -11.44487476348877 0.2519887089729309
34.18663024902344 -11.672476768493652 0.2422037422657013
34.206085205078125 -11.91403865814209 0.22848160564899445
34.12722396850586 -12.121956825256348 0.22439643740653992
34.06301498413086 -12.335122108459473 0.21872538328170776
34.15718460083008 -12.606902122497559 0.19698910415172577
34.29960632324219 -12.899226188659668 0.17013347148895264
34.29283142089844 -13.137499809265137 0.1581159234046936
34.29739761352539 -13.381243705749512 0.14476695656776428
34.25029754638672 -13.605694770812988 0.13650593161582947
33.804874420166016 -13.669600486755371 0.16892287135124207
33.9123420715332 -13.9558687210083 0.14461061358451843
33.7209587097168 -14.119781494140625 0.15089267492294312
33.61310958862305 -14.317765235900879 0.14847445487976074
33.613712310791016 -14.562446594238281 0.13466110825538635
29.503145217895508 -12.997360229492188 0.5503435730934143
33.656925201416016 -15.074596405029297 0.10203547775745392
20.56447410583496 -14.043627738952637 1.1633201837539673
19.985815048217773 -13.829201698303223 1.2199339866638184
19.888071060180664 -13.94295597076416 1.218705415725708
19.73613929748535 -14.0180025100708 1.2240283489227295
19.606658935546875 -14.107988357543945 1.2266029119491577
19.563661575317383 -14.26021671295166 1.2184767723083496
19.552350997924805 -14.436680793762207 1.2062745094299316
19.50853157043457 -14.590301513671875 1.1979418992996216
19.530975341796875 -14.794997215270996 1.181140422821045
19.52873992919922 -14.982951164245605 1.167211651802063
19.503713607788086 -15.154951095581055 1.1559646129608154
29.139150619506836 -26.302576065063477 -0.35430312156677246
20.414562225341797 -18.88766860961914 0.802570104598999
20.309062957763672 -19.258506774902344 0.7789057493209839
19.875837326049805 -19.080947875976562 0.820602536201477
32.346710205078125 31.257518768310547 0.10954399406909943
30.906930923461914 29.502107620239258 0.28237617015838623
31.002037048339844 29.23196029663086 0.2877284586429596
15.523197174072266 14.457566261291504 1.9661786556243896
31.128583908081055 28.63886260986328 0.3045424818992615
31.25529670715332 28.4038143157959 0.30580586194992065
31.13994598388672 27.9525203704834 0.33253955841064453
31.24029541015625 27.698822021484375 0.3360917270183563
31.402450561523438 27.500774383544922 0.33293643593788147
13.535813331604004 11.707487106323242 2.21702241897583
13.544290542602539 11.570496559143066 2.2219045162200928
13.591980934143066 11.467916488647461 2.2225990295410156
13.619010925292969 11.348592758178711 2.225348711013794
13.67587947845459 11.25471019744873 2.2249271869659424
13.685696601867676 11.12282943725586 2.2292633056640625
13.657099723815918 10.961301803588867 2.237420082092285
13.705940246582031 10.86308479309082 2.2375524044036865
13.755661010742188 10.765909194946289 2.237520694732666
13.798397064208984 10.663656234741211 2.238121747970581
13.84118938446045 10.561887741088867 2.2386395931243896
13.89360237121582 10.467794418334961 2.2381138801574707
13.918190002441406 10.353224754333496 2.240305185317993
13.995725631713867 10.278281211853027 2.2371249198913574
14.026864051818848 10.16942310333252 2.238508462905884
14.075839042663574 10.073912620544434 2.238041877746582
14.102191925048828 9.962655067443848 2.239743232727051
14.135885238647461 9.857151985168457 2.2406387329101562
14.180312156677246 9.75952434539795 2.2404026985168457
14.219950675964355 9.658920288085938 2.2405660152435303
14.257233619689941 9.557086944580078 2.2408876419067383
14.292972564697266 9.454609870910645 2.2412874698638916
14.325488090515137 9.350417137145996 2.2419278621673584
14.358941078186035 9.247261047363281 2.242403745651245
14.394190788269043 9.145649909973145 2.242633819580078
14.43886947631836 9.05030632019043 2.2418839931488037
14.479530334472656 8.95266056060791 2.241455078125
14.518685340881348 8.854337692260742 2.2411036491394043
14.571698188781738 8.764603614807129 2.23935866355896
14.628442764282227 8.677093505859375 2.237196922302246
14.760361671447754 8.633502960205078 2.2278144359588623
14.818048477172852 8.545792579650879 2.225461959838867
14.913331031799316 8.479373931884766 2.219485282897949
14.976189613342285 8.394076347351074 2.216534376144409
14.87108039855957 8.21578311920166 2.2293927669525146
15.101318359375 8.2225980758667 2.210519552230835
27.732128143310547 14.881452560424805 1.0250067710876465
27.787322998046875 14.692437171936035 1.024811029434204
27.89780616760254 14.532771110534668 1.0193095207214355
33.01435470581055 16.43381118774414 0.556058943271637
32.94413757324219 16.147661209106445 0.567700982093811
33.02512741088867 15.937057495117188 0.5651105046272278
33.031864166259766 15.69143009185791 0.5692737102508545
33.066627502441406 15.460246086120605 0.5706868767738342
33.102516174316406 15.230475425720215 0.571850061416626
33.13501739501953 15.000022888183594 0.5731817483901978
33.13134765625 14.754337310791016 0.5777062177658081
33.08575439453125 14.491668701171875 0.5859408378601074
33.096771240234375 14.255342483520508 0.5888082981109619
33.11897277832031 14.024867057800293 0.5905004739761353
33.148799896240234 13.798483848571777 0.5913532376289368
33.18263244628906 13.57452392578125 0.5916988849639893
33.20849609375 13.348065376281738 0.5926382541656494
33.07620620727539 13.059951782226562 0.6079082489013672
33.10700225830078 12.838089942932129 0.6081078052520752
33.45478057861328 12.737603187561035 0.5792292356491089
33.66255569458008 12.580999374389648 0.5630409121513367
33.70596694946289 12.362276077270508 0.561728835105896
33.724525451660156 12.135058403015137 0.5625486373901367
33.72747039794922 11.90310001373291 0.5646539926528931
33.747676849365234 11.678080558776855 0.565053403377533
33.7503547668457 11.447815895080566 0.5669130682945251
33.75809860229492 11.220157623291016 0.5681777000427246
33.76431655883789 10.99283218383789 0.5694476962089539
33.77092361450195 10.766457557678223 0.5705511569976807
33.788387298583984 10.544271469116211 0.5705386400222778
33.800594329833984 10.321111679077148 0.5708733201026917
33.808467864990234 10.097339630126953 0.5714715123176575
33.805301666259766 9.871066093444824 0.5729386806488037
33.819801330566406 9.650678634643555 0.5726789236068726
33.83095169067383 9.429945945739746 0.5725959539413452
33.84739685058594 9.211268424987793 0.5719058513641357
33.839324951171875 8.986607551574707 0.5733078122138977
33.84906005859375 8.767383575439453 0.5729727149009705
33.86704635620117 8.550817489624023 0.5717669725418091
33.877838134765625 8.332930564880371 0.5710868835449219
33.8756103515625 8.112445831298828 0.5714603662490845
33.87583541870117 7.893205642700195 0.571487307548523
33.882423400878906 7.676025867462158 0.570816695690155
33.91096878051758 7.464200496673584 0.5680379867553711
33.9265022277832 7.249812602996826 0.5663133859634399
33.94165802001953 7.035715579986572 0.5645004510879517
33.95057678222656 6.8207221031188965 0.563128650188446
33.944454193115234 6.6032185554504395 0.5629969239234924
33.94477462768555 6.387518405914307 0.5621620416641235
33.97116470336914 6.177050590515137 0.558846652507782
33.981529235839844 5.963914394378662 0.5568605661392212
33.980743408203125 5.749218463897705 0.5557636618614197
33.99138259887695 5.536837577819824 0.5535123944282532
34.005619049072266 5.325310707092285 0.5508151054382324
33.988983154296875 5.109372615814209 0.550796627998352
34.0064811706543 4.898950099945068 0.5475643873214722
34.022666931152344 4.688502788543701 0.5443298816680908
34.0316276550293 4.477259159088135 0.5416312217712402
34.038291931152344 4.265956401824951 0.5390228033065796
34.05254364013672 4.055798053741455 0.5356040596961975
33.64588928222656 3.798238515853882 0.5703913569450378
33.46812057495117 3.570443868637085 0.5842586755752563
33.48008346557617 3.3641953468322754 0.5807330012321472
33.482845306396484 3.15718412399292 0.5779284834861755
33.54186248779297 2.9553351402282715 0.5698691606521606
33.58675765991211 2.7518208026885986 0.5629740953445435
33.44868850708008 2.534090042114258 0.5726999640464783
33.608253479003906 2.338977098464966 0.555067777633667
33.61660385131836 2.1324734687805176 0.5511564016342163
15.751058578491211 0.9015482664108276 2.1880202293395996
15.782959938049316 0.8062922954559326 2.183504343032837
15.788420677185059 0.7095133662223816 2.18135929107666
