# .PCD v0.7 - Point Cloud Data file format
VERSION 0.7
FIELDS x y z
SIZE 4 4 4
TYPE F F F
COUNT 1 1 1
WIDTH 845
HEIGHT 1
VIEWPOINT 0 0 0 1 0 0 0
POINTS 845
DATA ascii
33.71397399902344 0.06797131896018982 0.5041956901550293
33.711360931396484 -0.13881398737430573 0.49998292326927185
33.71246337890625 -0.34561797976493835 0.49530497193336487
12.927213668823242 -0.21261359751224518 2.428666830062866
11.955976486206055 -0.2701006531715393 2.5175187587738037
12.193809509277344 -0.3502960205078125 2.493522882461548
12.856971740722656 -0.4482251703739166 2.4295670986175537
33.778480529785156 -1.383054256439209 0.4644221365451813
33.699337005615234 -1.586940050125122 0.4665479362010956
13.161252975463867 -0.7014859914779663 2.394850492477417
12.813667297363281 -0.7618479132652283 2.4254674911499023
12.803632736206055 -0.8401036262512207 2.4242591857910156
33.853187561035156 -2.4278404712677 0.4295487701892853
12.747391700744629 -0.9936273097991943 2.4251415729522705
12.8778076171875 -1.0833005905151367 2.4104630947113037
12.076565742492676 -1.0906283855438232 2.484379529953003
12.532267570495605 -1.20928955078125 2.4386556148529053
33.881553649902344 -3.4771385192871094 0.39583250880241394
33.90468978881836 -3.689844846725464 0.387025386095047
33.89781188964844 -3.899670362472534 0.3809603750705719
33.90248489379883 -4.111109256744385 0.3736567199230194
33.913726806640625 -4.323761940002441 0.36558622121810913
33.92758560180664 -4.537238121032715 0.3571263551712036
33.944034576416016 -4.7515997886657715 0.3482750654220581
33.95716094970703 -4.9660491943359375 0.33960625529289246
33.952205657958984 -5.178289413452148 0.33255425095558167
33.952796936035156 -5.391750812530518 0.3248273730278015
33.98642349243164 -5.611089706420898 0.31373679637908936
33.9734992980957 -5.823313236236572 0.3070497512817383
29.247358322143555 -5.198322296142578 0.7629096508026123
13.284736633300781 -2.446059226989746 2.326685905456543
34.01866912841797 -6.477777481079102 0.2779063284397125
34.00813674926758 -6.692271709442139 0.2704242169857025
33.94747543334961 -6.896975994110107 0.267773300409317
33.90993881225586 -7.106293201446533 0.2627108097076416
33.939208984375 -7.330118179321289 0.2508624792098999
33.92328643798828 -7.544848918914795 0.24336855113506317
34.038917541503906 -7.790076732635498 0.2225491851568222
34.04817581176758 -8.01239013671875 0.2122076451778412
34.04340744018555 -8.232071876525879 0.2031226009130478
34.039154052734375 -8.452478408813477 0.19383439421653748
34.07204818725586 -8.68297290802002 0.1806294173002243
34.08894729614258 -8.910417556762695 0.16887515783309937
34.100486755371094 -9.137367248535156 0.15750019252300262
34.08653259277344 -9.358210563659668 0.14856544137001038
34.075931549072266 -9.580574035644531 0.13913391530513763
34.08205795288086 -9.808392524719238 0.1278264969587326
34.054203033447266 -10.027091026306152 0.11985796689987183
34.069732666015625 -10.259305000305176 0.10725028812885284
29.578937530517578 -12.824994087219238 0.36099353432655334
29.4692440032959 -12.992934226989746 0.36037376523017883
33.244606018066406 -19.29013442993164 -0.35660862922668457
33.30943298339844 -19.602130889892578 -0.3833218812942505
20.375347137451172 -13.559845924377441 1.0644636154174805
20.071292877197266 -13.536102294921875 1.0896105766296387
19.749425888061523 -13.496241569519043 1.1172341108322144
19.584989547729492 -13.561075210571289 1.124925136566162
19.516578674316406 -13.691793441772461 1.1202741861343384
19.454593658447266 -13.827370643615723 1.1146844625473022
19.408628463745117 -13.974905014038086 1.1068916320800781
19.602188110351562 -14.483153343200684 1.0532915592193604
19.50467872619629 -14.597152709960938 1.0516777038574219
19.45881462097168 -14.75014591217041 1.0431129932403564
19.461496353149414 -14.94127368927002 1.027891755104065
19.407302856445312 -15.282217979431152 1.0048160552978516
19.44580078125 -15.50697135925293 0.9840502738952637
25.760326385498047 -20.802127838134766 0.10262946784496307
28.76358985900879 -24.724246978759766 -0.4315008521080017
28.68585777282715 -24.965471267700195 -0.4461101293563843
28.582368850708008 -25.185638427734375 -0.4573041498661041
20.91307258605957 -18.657609939575195 0.621214747428894
20.752826690673828 -18.744873046875 0.6248705983161926
20.3105411529541 -18.573240280151367 0.6696750521659851
20.117042541503906 -18.624515533447266 0.6784603595733643
19.881610870361328 -18.634687423706055 0.6935040950775146
19.705238342285156 -18.698108673095703 0.6998966336250305
19.54461669921875 -18.775224685668945 0.7039551138877869
15.528024673461914 14.446930885314941 1.847139835357666
13.192693710327148 11.828962326049805 2.1363155841827393
13.093267440795898 11.595855712890625 2.1540775299072266
13.103224754333496 11.462182998657227 2.159294843673706
13.127870559692383 11.342506408691406 2.162742853164673
13.177312850952148 11.244954109191895 2.163316011428833
13.226814270019531 11.147862434387207 2.16379976272583
13.237335205078125 11.018708229064941 2.168517827987671
13.278326988220215 10.915793418884277 2.1697607040405273
13.312368392944336 10.807765007019043 2.171680450439453
13.349471092224121 10.70284366607666 2.173173427581787
13.388134002685547 10.599732398986816 2.1744091510772705
13.4378080368042 10.505753517150879 2.174363136291504
13.456865310668945 10.388423919677734 2.177555561065674
13.500347137451172 10.29058837890625 2.17801570892334
13.535176277160645 10.186615943908691 2.1793272495269775
13.567639350891113 10.081415176391602 2.1808083057403564
13.60253620147705 9.978556632995605 2.1819450855255127
13.647171974182129 9.883246421813965 2.1819636821746826
13.669268608093262 9.772116661071777 2.184298515319824
13.714123725891113 9.677749633789062 2.184138774871826
13.75343132019043 9.579780578613281 2.1844911575317383
13.789590835571289 9.480001449584961 2.185098886489868
13.821746826171875 9.377900123596191 2.186049461364746
13.858966827392578 9.279640197753906 2.1863930225372314
13.901318550109863 9.1851224899292 2.186127185821533
13.9447021484375 9.091520309448242 2.1856837272644043
13.968192100524902 8.985334396362305 2.1872315406799316
14.01781940460205 8.896286010742188 2.1859989166259766
14.050838470458984 8.796918869018555 2.1864125728607178
14.09503173828125 8.704811096191406 2.1856045722961426
14.137773513793945 8.611973762512207 2.1848785877227783
14.187592506408691 8.523555755615234 2.183361530303955
14.241142272949219 8.437389373779297 2.1814005374908447
14.305351257324219 8.35741901397705 2.1782939434051514
14.418566703796387 8.188194274902344 2.173452615737915
14.482245445251465 8.107389450073242 2.1702282428741455
14.6571044921875 8.087721824645996 2.155733108520508
15.070265769958496 8.195682525634766 2.1172425746917725
15.823278427124023 8.480057716369629 2.0447006225585938
27.787311553955078 14.67501449584961 0.848463237285614
27.68471336364746 14.404520988464355 0.8641344904899597
27.706605911254883 14.20081615447998 0.8671827912330627
27.828411102294922 14.048563957214355 0.8601309657096863
32.95016098022461 16.381929397583008 0.3554561138153076
33.04603576660156 16.177764892578125 0.35163718461990356
33.1379508972168 15.971739768981934 0.3480720520019531
32.33682632446289 15.342042922973633 0.43277886509895325
32.52467727661133 15.187664031982422 0.41931024193763733
32.9996337890625 15.163817405700684 0.3774024248123169
33.127010345458984 14.977127075195312 0.36972469091415405
33.0868034362793 14.71536636352539 0.37841174006462097
33.10577392578125 14.481407165527344 0.38111039996147156
33.145992279052734 14.257607460021973 0.38157007098197937
33.12601089477539 14.009026527404785 0.38778215646743774
33.16032409667969 13.784549713134766 0.3885174095630646
33.17377853393555 13.552268028259277 0.3911456763744354
33.21427917480469 13.331838607788086 0.39098218083381653
33.06062698364258 13.03542709350586 0.40961170196533203
33.10426330566406 12.818731307983398 0.4088360369205475
33.479732513427734 12.728707313537598 0.3756224513053894
33.65193557739258 12.558635711669922 0.362098753452301
33.6839714050293 12.335888862609863 0.3620726764202118
33.69767379760742 12.107160568237305 0.36368435621261597
33.708900451660156 11.87839412689209 0.36539125442504883
33.728946685791016 11.653521537780762 0.3660999536514282
33.731468200683594 11.423417091369629 0.3683629333972931
33.76079177856445 11.203128814697266 0.36788901686668396
33.74134063720703 10.967514991760254 0.37199363112449646
33.75917053222656 10.74494457244873 0.37235045433044434
33.767940521240234 10.520196914672852 0.37344372272491455
33.77998733520508 10.297194480895996 0.37408190965652466
33.771484375 10.068746566772461 0.3765645921230316
33.79300308227539 9.849987030029297 0.37601375579833984
33.800662994384766 9.627793312072754 0.3766639232635498
33.81070327758789 9.406940460205078 0.3769475221633911
33.81930923461914 9.18632698059082 0.37723463773727417
33.82841110229492 8.966468811035156 0.37734031677246094
33.840904235839844 8.748088836669922 0.3769846558570862
33.84330749511719 8.527701377868652 0.37746715545654297
33.85975646972656 8.311409950256348 0.37646567821502686
33.86610794067383 8.093151092529297 0.3763037621974945
33.87688064575195 7.876479625701904 0.37558403611183167
33.88917922973633 7.660635471343994 0.37458688020706177
33.890380859375 7.4427995681762695 0.3745265603065491
33.898956298828125 7.227103233337402 0.3736270070075989
33.912986755371094 7.012990951538086 0.3720723092556
33.9285888671875 6.799563407897949 0.37023720145225525
33.931129455566406 6.583930015563965 0.3695293068885803
33.92348861694336 6.366865158081055 0.3696717917919159
33.9438591003418 6.155470371246338 0.36699211597442627
33.959964752197266 5.94354772567749 0.36459270119667053
33.97572708129883 5.731822490692139 0.36209800839424133
33.968563079833984 5.516613960266113 0.36168432235717773
33.98659133911133 5.305852890014648 0.358716756105423
33.98558807373047 5.092419624328613 0.3574550449848175
33.99802780151367 4.881319046020508 0.35477086901664734
34.01211929321289 4.670661449432373 0.3518001139163971
34.01503372192383 4.4587178230285645 0.3497806489467621
34.016624450683594 4.246912002563477 0.3477623164653778
34.02678680419922 4.03642463684082 0.3447903096675873
32.58353805541992 3.662649393081665 0.48228004574775696
32.733665466308594 3.4763972759246826 0.46560174226760864
32.37759780883789 3.23789119720459 0.4978141784667969
32.8087158203125 3.0779387950897217 0.45365065336227417
32.818634033203125 2.8759467601776123 0.45016270875930786
32.5892219543457 2.6545374393463135 0.46979206800460815
33.098758697509766 2.491837978363037 0.41752541065216064
32.71086120605469 2.2609522342681885 0.4523428976535797
32.8498649597168 2.0682222843170166 0.4358099400997162
15.738181114196777 0.8929269909858704 2.1003191471099854
15.780939102172852 0.7982926964759827 2.094588041305542
15.786337852478027 0.7015265822410583 2.092437744140625
15.783186912536621 0.6044173240661621 2.091064214706421
15.789384841918945 0.5076931118965149 2.088717460632324
15.82185173034668 0.4116167426109314 2.0837368965148926
15.825874328613281 0.31460249423980713 2.081480026245117
15.800440788269043 0.21715280413627625 2.082056999206543
32.71615982055664 0.2511552572250366 0.4163691997528076
32.761451721191406 0.0505521222949028 0.4076918959617615
32.846309661865234 -0.15078437328338623 0.3949780762195587
12.51041030883789 -0.13545319437980652 2.3986847400665283
12.526102066040039 -0.21246972680091858 2.395378828048706
12.52739143371582 -0.28936538100242615 2.3934473991394043
12.840543746948242 -0.37536585330963135 2.360536575317383
12.852755546569824 -0.45464393496513367 2.3573763370513916
12.873425483703613 -0.5344569683074951 2.3533222675323486
32.868255615234375 -1.563373327255249 0.3588107228279114
13.091133117675781 -0.7044371962547302 2.327441453933716
12.830132484436035 -0.7693944573402405 2.351349353790283
12.846853256225586 -0.8495168089866638 2.3474819660186768
12.571290016174316 -0.9088283181190491 2.3728818893432617
12.813314437866211 -1.0053369998931885 2.3463103771209717
12.235652923583984 -1.0356688499450684 2.4021315574645996
13.572613716125488 -1.2325125932693481 2.2649850845336914
12.019684791564941 -1.1661204099655151 2.4193410873413086
33.17643356323242 -3.420609474182129 0.27471864223480225
33.223628997802734 -3.631601333618164 0.2633402943611145
33.168663024902344 -3.8316636085510254 0.26219281554222107
33.36927795410156 -4.062436103820801 0.23489795625209808
33.054141998291016 -4.230049133300781 0.2600293457508087
33.87416458129883 -4.546342372894287 0.16904011368751526
33.922035217285156 -4.76481819152832 0.15670844912528992
33.93011474609375 -4.978424549102783 0.14830262959003448
33.90241622924805 -5.187047481536865 0.14343276619911194
33.762420654296875 -5.377843856811523 0.1500207483768463
33.74895477294922 -5.588240623474121 0.1434435099363327
33.822418212890625 -5.813839435577393 0.12771545350551605
29.22074317932129 -5.207921028137207 0.5976194143295288
33.76720428466797 -6.231909275054932 0.11676637828350067
33.711273193359375 -6.435737133026123 0.1140478178858757
33.7380485534668 -6.655669212341309 0.10255120694637299
29.446664810180664 -12.99986743927002 0.18019500374794006
20.471019744873047 -13.457406044006348 0.9262534379959106
20.396831512451172 -13.588769912719727 0.9222704172134399
19.63065528869629 -13.429450035095215 0.9969778656959534
19.545114517211914 -13.547901153564453 0.9946449995040894
19.494178771972656 -13.870166778564453 0.973321259021759
19.921184539794922 -14.359033584594727 0.9003022909164429
19.51827621459961 -14.436264991760254 0.9260488748550415
19.463998794555664 -14.581920623779297 0.918509304523468
19.411834716796875 -14.7298583984375 0.9105271697044373
19.369020462036133 -15.267829895019531 0.8694278597831726
19.353862762451172 -15.44957160949707 0.8554104566574097
19.303192138671875 -15.60421371459961 0.8462940454483032
19.2821102142334 -15.7839937210083 0.8327082395553589
26.8941707611084 -23.140605926513672 -0.36968308687210083
26.737703323364258 -23.293371200561523 -0.37134745717048645
26.515541076660156 -23.387907028198242 -0.3632173538208008
20.858903884887695 -18.62812042236328 0.4694103002548218
20.548500061035156 -18.579116821289062 0.496372252702713
20.329654693603516 -18.609535217285156 0.5095459222793579
20.074045181274414 -18.603527069091797 0.5285122394561768
19.86783790588379 -18.640640258789062 0.5399709343910217
19.685710906982422 -18.698509216308594 0.5477415919303894
19.449193954467773 -18.702512741088867 0.5641357898712158
15.507023811340332 14.457317352294922 1.7177497148513794
12.963458061218262 11.792527198791504 2.0468671321868896
12.998311996459961 11.679513931274414 2.0497803688049316
13.030035972595215 11.564533233642578 2.052964210510254
13.072821617126465 11.46010684967041 2.0547003746032715
13.113314628601074 11.354286193847656 2.056614398956299
13.157543182373047 11.25228214263916 2.0579819679260254
13.188079833984375 11.139240264892578 2.06088924407959
13.22537612915039 11.032626152038574 2.0628879070281982
13.268011093139648 10.931037902832031 2.0641567707061768
13.302172660827637 10.823055267333984 2.0663328170776367
13.323867797851562 10.705711364746094 2.0698750019073486
13.368029594421387 10.607075691223145 2.0706818103790283
13.406780242919922 10.504615783691406 2.0720324516296387
13.449502944946289 10.40573501586914 2.0728321075439453
13.47015380859375 10.290404319763184 2.076099395751953
13.515337944030762 10.194398880004883 2.0764360427856445
13.549469947814941 10.090494155883789 2.0779612064361572
13.585244178771973 9.988324165344238 2.0792088508605957
13.62269401550293 9.887847900390625 2.0801784992218018
13.661040306091309 9.788447380065918 2.080961227416992
13.699496269226074 9.689523696899414 2.081648826599121
13.733986854553223 9.588214874267578 2.082702159881592
13.768571853637695 9.487412452697754 2.0836613178253174
13.80984878540039 9.391586303710938 2.0837857723236084
13.838067054748535 9.287285804748535 2.085294723510742
13.878808975219727 9.191787719726562 2.085320234298706
13.913066864013672 9.092327117919922 2.0859909057617188
13.952486038208008 8.996566772460938 2.0860092639923096
13.986213684082031 8.897459983825684 2.086581230163574
14.020094871520996 8.798805236816406 2.0870578289031982
14.060065269470215 8.70426082611084 2.0867865085601807
14.100253105163574 8.610075950622559 2.0864176750183105
14.139816284179688 8.515724182128906 2.0860443115234375
14.179607391357422 8.421717643737793 2.085573196411133
14.217061042785645 8.3265380859375 2.085284948348999
14.25819206237793 8.233702659606934 2.084524393081665
14.298718452453613 8.140676498413086 2.08375883102417
14.341245651245117 8.048921585083008 2.0827066898345947
14.574841499328613 8.062971115112305 2.0609617233276367
14.97696304321289 8.165949821472168 2.021087169647217
15.840413093566895 8.511188507080078 1.9317269325256348
27.543052673339844 14.581896781921387 0.6801357269287109
27.569820404052734 14.380456924438477 0.6832668781280518
27.598695755004883 14.181056022644043 0.6860222816467285
27.649261474609375 13.993529319763184 0.6863173246383667
27.707477569580078 13.81035327911377 0.6856610774993896
27.793975830078125 13.641462326049805 0.6818665862083435
27.920677185058594 13.491950988769531 0.6736876964569092
28.1463680267334 13.388858795166016 0.6549230217933655
28.485429763793945 13.336681365966797 0.6241065859794617
32.66822052001953 15.051555633544922 0.18774671852588654
33.09494400024414 15.00296401977539 0.14826665818691254
33.12772750854492 14.773743629455566 0.15018205344676971
33.09421920776367 14.516294479370117 0.15889538824558258
33.111820220947266 14.28267765045166 0.1620679795742035
33.11497497558594 14.043949127197266 0.16658921539783478
33.14768600463867 13.81873893737793 0.16785234212875366
33.16691207885742 13.588749885559082 0.170366108417511
33.206729888916016 13.367962837219238 0.1705726683139801
33.07292556762695 13.079115867614746 0.188712939620018
33.11498260498047 12.86159896850586 0.1883600503206253
33.45600128173828 12.75860595703125 0.1567816138267517
33.611488342285156 12.58246898651123 0.14438354969024658
33.62686538696289 12.35376262664795 0.14639298617839813
33.649131774902344 12.128377914428711 0.14753295481204987
33.66239929199219 11.900527954101562 0.1494525671005249
33.67131423950195 11.671992301940918 0.15166790783405304
33.69565963745117 11.449556350708008 0.15213464200496674
33.70438003540039 11.222541809082031 0.15406587719917297
33.70496368408203 10.993690490722656 0.15668554604053497
33.706851959228516 10.766159057617188 0.15901778638362885
33.718624114990234 10.542580604553223 0.16018274426460266
33.73272705078125 10.32042407989502 0.16095946729183197
33.74156951904297 10.097349166870117 0.16213124990463257
33.7451171875 9.873435020446777 0.16369980573654175
33.7586784362793 9.653136253356934 0.16409312188625336
33.757389068603516 9.429293632507324 0.1658676266670227
33.763267517089844 9.208184242248535 0.1667604148387909
33.77635955810547 8.98965835571289 0.16676932573318481
33.7928581237793 8.772565841674805 0.16628628969192505
33.802181243896484 8.554142951965332 0.16639815270900726
33.81106185913086 8.336170196533203 0.16641278564929962
33.81951141357422 8.118640899658203 0.16633166372776031
33.82849884033203 7.9017720222473145 0.16605393588542938
33.839019775390625 7.685757160186768 0.16548067331314087
33.84330368041992 7.468836784362793 0.1654062122106552
33.86079406738281 7.255276679992676 0.16384029388427734
33.87693786621094 7.041780471801758 0.16227318346500397
33.875160217285156 6.825016498565674 0.16240531206130981
33.88371276855469 6.610822677612305 0.16134069859981537
33.88603210449219 6.395855903625488 0.16077865660190582
33.89383316040039 6.182356357574463 0.15951761603355408
33.915977478027344 5.971759796142578 0.1566493958234787
33.91522979736328 5.757458686828613 0.15599200129508972
33.91804504394531 5.544190883636475 0.15483379364013672
33.92049789428711 5.331257343292236 0.15357719361782074
33.936378479003906 5.120725631713867 0.1508082002401352
33.96571731567383 4.9123334884643555 0.14652065932750702
33.97800827026367 4.701590061187744 0.14384712278842926
33.974205017089844 4.488922595977783 0.1426936239004135
33.98485565185547 4.278464317321777 0.13991983234882355
34.00606155395508 4.069460868835449 0.13592475652694702
32.46617126464844 3.6834075450897217 0.29247787594795227
32.422447204589844 3.4772021770477295 0.29499346017837524
32.359596252441406 3.269869089126587 0.29935750365257263
32.352867126464844 3.0688834190368652 0.29781609773635864
32.33993911743164 2.867661714553833 0.29678887128829956
32.349552154541016 2.6686739921569824 0.2933075726032257
32.34504318237305 2.4686899185180664 0.2911580204963684
32.38494873046875 2.2720603942871094 0.2842879593372345
32.40678024291992 2.0739519596099854 0.27915534377098083
15.750414848327637 0.9112272262573242 2.002139091491699
15.779337882995605 0.8158347606658936 1.997618317604065
15.786819458007812 0.719170331954956 1.9952565431594849
15.805635452270508 0.6229132413864136 1.9916527271270752
15.797018051147461 0.5255588889122009 1.990836501121521
15.823598861694336 0.4293026328086853 1.9862943887710571
15.827713012695312 0.3322800099849701 1.9840257167816162
15.816315650939941 0.23500055074691772 1.983312964439392
32.50175857543945 0.28313905000686646 0.23761500418186188
32.701358795166016 0.08429059386253357 0.21256381273269653
32.58544921875 -0.11587720364332199 0.2203843593597412
32.57274627685547 -0.3156357407569885 0.21727949380874634
32.41363525390625 -0.5129461884498596 0.22942736744880676
32.4352912902832 -0.7123174667358398 0.2224753201007843
32.439815521240234 -0.9115292429924011 0.2171906977891922
32.419254302978516 -1.1100088357925415 0.2144194096326828
12.884894371032715 -0.5200920701026917 2.2730441093444824
32.514564514160156 -1.5128337144851685 0.19406592845916748
13.05992317199707 -0.6877387166023254 2.2503106594085693
12.848798751831055 -0.7556803822517395 2.270517587661743
12.851688385009766 -0.834991991519928 2.267991304397583
12.848133087158203 -0.9139448404312134 2.266097068786621
12.864914894104004 -0.9944966435432434 2.261981725692749
13.241888999938965 -1.1054104566574097 2.219318151473999
13.312919616699219 -1.1936273574829102 2.2092068195343018
12.817819595336914 -1.8669673204421997 2.2378857135772705
12.801033020019531 -1.9448049068450928 2.2367358207702637
29.26811408996582 -5.184902191162109 0.4103950262069702
19.624893188476562 -6.964901447296143 1.3028197288513184
19.4749698638916 -7.046591758728027 1.3129043579101562
19.419889450073242 -7.161782741546631 1.311647891998291
19.33529281616211 -7.265727996826172 1.3138604164123535
19.28912925720215 -7.383829116821289 1.3113938570022583
19.26909828186035 -7.512106895446777 1.3056883811950684
19.223276138305664 -7.630519390106201 1.3030050992965698
19.236614227294922 -7.772852897644043 1.2930384874343872
20.59965705871582 -13.152168273925781 0.7876381278038025
20.32392692565918 -13.1525239944458 0.8118334412574768
20.050642013549805 -13.151087760925293 0.8358586430549622
19.82944107055664 -13.180893898010254 0.8527517318725586
19.583921432495117 -13.191838264465332 0.873176634311676
19.464540481567383 -13.2859468460083 0.8758687973022461
19.37496566772461 -13.399992942810059 0.8742756247520447
19.353046417236328 -13.561323165893555 0.8629096746444702
19.321773529052734 -13.717137336730957 0.852703332901001
19.313501358032227 -13.890477180480957 0.8389917612075806
19.295795440673828 -14.058382987976074 0.8264375925064087
19.314308166503906 -14.254312515258789 0.808380126953125
19.28340721130371 -14.415319442749023 0.7973259687423706
19.290048599243164 -14.60585880279541 0.7805269360542297
19.283252716064453 -14.787957191467285 0.7654715180397034
19.27651023864746 -14.97174072265625 0.7501692175865173
19.282278060913086 -15.167047500610352 0.7327408790588379
19.28636932373047 -15.362988471984863 0.7152968645095825
19.279499053955078 -15.552067756652832 0.6992495059967041
19.29871368408203 -15.76425552368164 0.6789494752883911
19.301502227783203 -15.965237617492676 0.6608694195747375
19.326902389526367 -16.1872501373291 0.63899827003479
19.32984733581543 -16.392831802368164 0.620293378829956
19.386737823486328 -16.646926879882812 0.592826247215271
20.843124389648438 -18.575809478759766 0.3023923337459564
20.549211502075195 -18.54165267944336 0.3283514976501465
20.318830490112305 -18.561519622802734 0.3442842662334442
20.0379581451416 -18.532073974609375 0.3685795068740845
19.811861038208008 -18.55010986328125 0.38413485884666443
19.65764045715332 -18.63370132446289 0.3879539370536804
19.449417114257812 -18.664539337158203 0.40073081851005554
15.504043579101562 14.454926490783691 1.5801061391830444
12.90959644317627 11.889016151428223 1.931939721107483
12.961455345153809 11.790858268737793 1.9330519437789917
14.36148452758789 12.904586791992188 1.7579208612442017
14.411850929260254 12.791152954101562 1.759824514389038
14.48681354522705 12.699893951416016 1.7584296464920044
14.540130615234375 12.589953422546387 1.7597404718399048
13.134342193603516 11.232644081115723 1.9482496976852417
13.168571472167969 11.122973442077637 1.9509953260421753
13.221823692321777 11.029882431030273 1.951210379600525
13.266746520996094 10.93022632598877 1.9523934125900269
13.299367904663086 10.821011543273926 1.9550347328186035
13.3458890914917 10.723651885986328 1.9558213949203491
13.36131477355957 10.60200309753418 1.9604125022888184
13.391420364379883 10.492843627929688 1.9630517959594727
13.451387405395508 10.407466888427734 1.9618738889694214
13.468108177185059 10.289119720458984 1.9659777879714966
13.51328182220459 10.193135261535645 1.9664562940597534
13.548208236694336 10.089850425720215 1.9681082963943481
13.581575393676758 9.985930442810059 1.9698566198349
13.615790367126465 9.883147239685059 1.9714066982269287
13.65734577178955 9.786116600036621 1.9719699621200562
13.696599006652832 9.687800407409668 1.9727267026901245
13.731081008911133 9.586519241333008 1.9739735126495361
13.770574569702148 9.48913288116455 1.9745265245437622
13.800337791442871 9.385464668273926 1.976163625717163
13.836786270141602 9.28678035736084 1.9769089221954346
13.880011558532715 9.19294548034668 1.9767593145370483
13.913443565368652 9.092940330505371 1.9776965379714966
13.951189994812012 8.99610710144043 1.9780353307724
13.990791320800781 8.900753021240234 1.9780726432800293
14.02974796295166 8.805252075195312 1.978105902671814
14.064677238464355 8.707510948181152 1.9785337448120117
14.092142105102539 8.605523109436035 1.9797559976577759
14.132523536682129 8.511739730834961 1.979380488395691
14.175707817077637 8.419816017150879 1.9786007404327393
14.21829605102539 8.327681541442871 1.9778157472610474
14.257702827453613 8.233847618103027 1.977325677871704
14.287847518920898 8.134920120239258 1.977833867073059
14.33206558227539 8.044208526611328 1.9766340255737305
14.464507102966309 8.00239086151123 1.9651811122894287
14.959473609924316 8.156919479370117 1.9119629859924316
15.874014854431152 8.529836654663086 1.8107008934020996
27.480112075805664 14.550286293029785 0.4841843545436859
27.50140953063965 14.346490859985352 0.4883786737918854
27.492042541503906 14.127972602844238 0.49591064453125
27.54317283630371 13.941559791564941 0.4963749647140503
27.456823348999023 13.687140464782715 0.5123259425163269
27.672040939331055 13.583356857299805 0.49384766817092896
27.77683448791504 13.424195289611816 0.48780423402786255
28.082843780517578 13.360421180725098 0.45888808369636536
28.41162109375 13.303938865661621 0.4273601770401001
32.25681686401367 3.461668014526367 0.10029827803373337
15.775299072265625 0.9133403301239014 1.8964543342590332
15.780383110046387 0.8165639638900757 1.894403338432312
19.294729232788086 0.7613489031791687 1.5030230283737183
19.262008666992188 0.6417632699012756 1.504575490951538
12.904064178466797 -0.5997598767280579 2.184642791748047
13.030951499938965 -0.6857860088348389 2.1682164669036865
12.89040756225586 -0.7577152848243713 2.1818253993988037
12.881365776062012 -0.8365077972412109 2.1805856227874756
12.85994815826416 -0.9143736958503723 2.1806912422180176
12.811687469482422 -1.1482644081115723 2.1788980960845947
12.799687385559082 -1.3850808143615723 2.1725046634674072
12.790764808654785 -1.4635623693466187 2.1708242893218994
12.765575408935547 -1.5400841236114502 2.1709535121917725
12.727627754211426 -1.7737433910369873 2.1667182445526123
12.745816230773926 -1.856069564819336 2.1616363525390625
12.750700950622559 -1.9367475509643555 2.1580259799957275
29.232728958129883 -5.176612377166748 0.22033604979515076
19.931581497192383 -6.526226043701172 1.15976881980896
19.47359848022461 -6.508898735046387 1.209084391593933
19.222450256347656 -6.55640983581543 1.2327980995178223
19.13466453552246 -6.657870292663574 1.2361180782318115
19.126846313476562 -6.7870612144470215 1.2293343544006348
19.10788917541504 -6.912692546844482 1.2238422632217407
19.089038848876953 -7.038691520690918 1.2182304859161377
19.112117767333984 -7.180785179138184 1.2071870565414429
19.08965492248535 -7.306391716003418 1.2018022537231445
19.13205337524414 -7.457597255706787 1.1880176067352295
19.02748680114746 -7.551726341247559 1.192925214767456
20.272174835205078 -8.19011116027832 1.0240644216537476
19.06134605407715 -7.837419509887695 1.1712371110916138
19.091367721557617 -7.987137794494629 1.1584742069244385
19.108386993408203 -8.132466316223145 1.1472417116165161
28.405061721801758 -16.227487564086914 -0.35941988229751587
28.381759643554688 -16.446189880371094 -0.37416669726371765
28.4175968170166 -16.7009220123291 -0.3975425660610199
28.36780548095703 -16.90691566467285 -0.40903398394584656
28.26898193359375 -17.084182739257812 -0.41371530294418335
28.09964942932129 -17.218347549438477 -0.4084015190601349
27.837841033935547 -17.293994903564453 -0.38977375626564026
27.699634552001953 -17.444839477539062 -0.38902363181114197
20.544206619262695 -13.115477561950684 0.6358336806297302
20.224660873413086 -13.087028503417969 0.6680076718330383
19.93115234375 -13.071489334106445 0.696586012840271
19.725400924682617 -13.110533714294434 0.7123746275901794
19.534746170043945 -13.1575288772583 0.7260012030601501
19.408205032348633 -13.246322631835938 0.7300990223884583
19.317228317260742 -13.35890007019043 0.7288163900375366
19.265424728393555 -13.49876594543457 0.7215247750282288
19.243383407592773 -13.66032886505127 0.7095604538917542
19.23457908630371 -13.832560539245605 0.6953732967376709
19.235612869262695 -14.01337718963623 0.6794509887695312
19.251911163330078 -14.207099914550781 0.6609255075454712
19.24349594116211 -14.384322166442871 0.6459620594978333
19.229671478271484 -14.558979988098145 0.6316052079200745
19.220720291137695 -14.738840103149414 0.6162492036819458
19.22046661376953 -14.927048683166504 0.5992730855941772
19.23031997680664 -15.125012397766113 0.5804253220558167
19.24699592590332 -15.330456733703613 0.5601971745491028
19.237154006958008 -15.516739845275879 0.5439206957817078
19.255712509155273 -15.727956771850586 0.5227893590927124
19.226516723632812 -15.902042388916016 0.5090953707695007
19.246868133544922 -16.11904525756836 0.48706039786338806
19.224411010742188 -16.3022403717041 0.47172778844833374
19.271936416625977 -16.547170639038086 0.4445488154888153
20.868824005126953 -18.597347259521484 0.11527355015277863
20.555734634399414 -18.546205520629883 0.14603734016418457
20.32245445251465 -18.563528060913086 0.1634824573993683
20.077360153198242 -18.567241668701172 0.1831028163433075
19.85255241394043 -18.586963653564453 0.19938936829566956
19.644105911254883 -18.619646072387695 0.21296106278896332
19.433866500854492 -18.64841651916504 0.22694948315620422
12.869708061218262 11.994565963745117 1.8240222930908203
12.945743560791016 11.91810131072998 1.8220247030258179
12.917561531066895 11.746785163879395 1.8344751596450806
12.928471565246582 11.61282730102539 1.8412950038909912
14.377923965454102 12.756669998168945 1.6493449211120605
14.465380668640137 12.676767349243164 1.6462295055389404
13.125012397766113 11.36062240600586 1.8384262323379517
13.118626594543457 11.2152681350708 1.8471006155014038
13.161872863769531 11.113418579101562 1.8488768339157104
13.212004661560059 11.017828941345215 1.849617600440979
13.249942779541016 10.912557601928711 1.8519030809402466
13.286316871643066 10.80660629272461 1.854289174079895
13.32887077331543 10.70622444152832 1.8557424545288086
13.352771759033203 10.591509819030762 1.8595744371414185
13.391429901123047 10.489171981811523 1.8613340854644775
13.430122375488281 10.38736629486084 1.862987756729126
13.46570110321045 10.28366756439209 1.8649498224258423
13.494956016540527 10.175732612609863 1.8676379919052124
13.53775405883789 10.078516006469727 1.8684523105621338
13.571855545043945 9.975265502929688 1.8703044652938843
13.610029220581055 9.875479698181152 1.871529221534729
13.652342796325684 9.779075622558594 1.8721247911453247
13.688302993774414 9.67850399017334 1.8734475374221802
13.717020034790039 9.573304176330566 1.875604510307312
13.760523796081543 9.478836059570312 1.8757716417312622
13.799273490905762 9.381396293640137 1.8764584064483643
13.831565856933594 9.279958724975586 1.8778756856918335
13.868938446044922 9.182321548461914 1.878556489944458
13.90646743774414 9.08511734008789 1.8791286945343018
13.937477111816406 8.984024047851562 1.8804340362548828
13.97951602935791 8.890364646911621 1.8802634477615356
14.02514362335205 8.799168586730957 1.879561424255371
14.049885749816895 8.695186614990234 1.8813855648040771
14.092554092407227 8.602630615234375 1.880886197090149
14.125245094299316 8.504233360290527 1.881544589996338
14.165809631347656 8.410837173461914 1.8811421394348145
14.205760955810547 8.3172607421875 1.8807350397109985
14.24595832824707 8.224006652832031 1.8802175521850586
14.277770042419434 8.126145362854004 1.8806506395339966
14.327126502990723 8.038419723510742 1.878849744796753
14.448163032531738 7.9903388023376465 1.868213415145874
14.996920585632324 8.174276351928711 1.8053784370422363
27.453758239746094 14.747639656066895 0.2936851978302002
27.47649383544922 14.543622016906738 0.29832494258880615
27.49423599243164 14.338037490844727 0.30339571833610535
27.467161178588867 14.110520362854004 0.31371018290519714
27.543909072875977 13.937295913696289 0.31130462884902954
27.514556884765625 13.71132755279541 0.3215315043926239
27.605756759643555 13.546250343322754 0.3170808255672455
27.756839752197266 13.409981727600098 0.3053150773048401
27.932424545288086 13.284320831298828 0.29051002860069275
28.24076271057129 13.219392776489258 0.2597448527812958
28.710071563720703 13.225220680236816 0.20973733067512512
44.87687683105469 8.468411445617676 -1.538149356842041
44.92731475830078 8.192998886108398 -1.5439403057098389
19.27292251586914 0.757918119430542 1.3895338773727417
19.266000747680664 0.6393297910690308 1.3882982730865479
12.899956703186035 -0.6808813810348511 2.1053061485290527
12.863619804382324 -0.7581242322921753 2.107383966445923
12.857542037963867 -0.8369448781013489 2.1058175563812256
12.893573760986328 -0.9187513589859009 2.099180221557617
12.793159484863281 -1.3070080280303955 2.0985639095306396
12.737321853637695 -1.380320429801941 2.102583169937134
12.715596199035645 -1.4569507837295532 2.1024560928344727
12.620465278625488 -1.5245633125305176 2.1111371517181396
12.629396438598633 -1.6043176651000977 2.1072158813476562
12.625027656555176 -1.682536244392395 2.1048405170440674
12.65262508392334 -1.7652870416641235 2.098525285720825
12.601081848144531 -1.8369905948638916 2.1017603874206543
12.567787170410156 -1.9109634160995483 2.102734088897705
20.105026245117188 -6.585973739624023 1.0107594728469849
18.98155975341797 -6.3473052978515625 1.149764060974121
18.926916122436523 -6.458480358123779 1.1492124795913696
19.072189331054688 -6.639029502868652 1.122251272201538
19.02049446105957 -6.752230644226074 1.1210715770721436
20.144777297973633 -7.290827751159668 0.963916540145874
19.09708595275879 -7.312213897705078 1.0775929689407349
19.014562606811523 -7.414788722991943 1.080013394355774
20.242467880249023 -8.471892356872559 0.8768822550773621
19.06191635131836 -8.25439167022705 1.0188944339752197
19.0360107421875 -8.382343292236328 1.0128432512283325
19.032794952392578 -8.520829200744629 1.0035367012023926
28.293954849243164 -13.72397232055664 -0.3524344861507416
28.284360885620117 -13.934513092041016 -0.3669314384460449
28.286550521850586 -14.152112007141113 -0.3833294212818146
28.250865936279297 -14.351842880249023 -0.3945697844028473
28.189105987548828 -14.538938522338867 -0.402278333902359
28.102378845214844 -14.713397979736328 -0.4065723717212677
27.693086624145508 -14.716517448425293 -0.36443546414375305
27.550260543823242 -14.858309745788574 -0.36069029569625854
27.409347534179688 -15.000338554382324 -0.35730165243148804
27.241716384887695 -15.12675666809082 -0.3500833213329315
27.125425338745117 -15.280895233154297 -0.35045182704925537
20.53453826904297 -13.113348960876465 0.49011123180389404
20.203523635864258 -13.077384948730469 0.5257650017738342
19.94588851928711 -13.085186004638672 0.5503404140472412
19.698841094970703 -13.096916198730469 0.5734333992004395
19.527259826660156 -13.156536102294922 0.5848923921585083
19.34013557434082 -13.203926086425781 0.5988280177116394
19.256750106811523 -13.321166038513184 0.5964614748954773
19.231124877929688 -13.478859901428223 0.5848333239555359
19.207517623901367 -13.639037132263184 0.5726837515830994
19.22372055053711 -13.828964233398438 0.553949236869812
19.214265823364258 -14.00208568572998 0.5390707850456238
19.207393646240234 -14.178553581237793 0.523535430431366
19.212570190429688 -14.365559577941895 0.5057904124259949
19.209848403930664 -14.548372268676758 0.4890664219856262
19.19930076599121 -14.726863861083984 0.4733656048774719
19.225650787353516 -14.935578346252441 0.4513009786605835
19.216642379760742 -15.118809700012207 0.43479523062705994
19.227815628051758 -15.31978988647461 0.4146416187286377
19.227205276489258 -15.513382911682129 0.39616042375564575
19.233383178710938 -15.714444160461426 0.37623390555381775
19.20954132080078 -15.892779350280762 0.36110803484916687
19.323318481445312 -16.187925338745117 0.3221317529678345
19.229272842407227 -16.311262130737305 0.3184446096420288
19.26380729675293 -16.5451602935791 0.2923232913017273
19.29094886779785 -16.77553939819336 0.26709121465682983
12.820113182067871 12.091578483581543 1.7199102640151978
12.87562084197998 11.995779037475586 1.7210322618484497
13.808891296386719 12.708353042602539 1.5922197103500366
13.900303840637207 12.636127471923828 1.5884575843811035
14.079363822937012 12.642300605773926 1.5717859268188477
13.036437034606934 11.562199592590332 1.733380675315857
14.481110572814941 12.686151504516602 1.5322558879852295
13.117817878723145 11.21058464050293 1.7469978332519531
13.158757209777832 11.106832504272461 1.749289631843567
13.204262733459473 11.007455825805664 1.7508163452148438
13.242138862609863 10.902250289916992 1.7533199787139893
13.281538009643555 10.798876762390137 1.7554941177368164
13.303893089294434 10.682355880737305 1.7599592208862305
13.338561058044434 10.576469421386719 1.7625681161880493
13.377126693725586 10.474234580993652 1.7645184993743896
13.414942741394043 10.371925354003906 1.766466498374939
13.466228485107422 10.280402183532715 1.7664391994476318
13.497848510742188 10.17427921295166 1.7690386772155762
13.521500587463379 10.062812805175781 1.7726249694824219
13.567521095275879 9.968507766723633 1.7730258703231812
13.595999717712402 9.8617582321167 1.7757313251495361
13.639033317565918 9.766030311584473 1.7763445377349854
13.681406021118164 9.670145034790039 1.7769536972045898
13.71904182434082 9.571260452270508 1.7781099081039429
13.751887321472168 9.469460487365723 1.779815435409546
13.789755821228027 9.371526718139648 1.7807453870773315
13.821989059448242 9.270161628723145 1.7823357582092285
13.863442420959473 9.175336837768555 1.7825955152511597
13.890941619873047 9.071654319763184 1.7846245765686035
13.921869277954102 8.970670700073242 1.7860978841781616
13.96466064453125 8.87764835357666 1.7859042882919312
13.995049476623535 8.777044296264648 1.7872614860534668
14.045012474060059 8.688948631286621 1.7859472036361694
14.083395004272461 8.593839645385742 1.7860738039016724
14.123692512512207 8.500123023986816 1.7858620882034302
14.157389640808105 8.40268325805664 1.7864267826080322
14.196428298950195 8.308663368225098 1.786206841468811
14.232263565063477 8.21298885345459 1.786318063735962
14.270050048828125 8.118660926818848 1.7860901355743408
14.308084487915039 8.024662971496582 1.7857459783554077
14.433330535888672 7.979071140289307 1.7740761041641235
14.988701820373535 8.166674613952637 1.707062840461731
15.875158309936523 8.524066925048828 1.5977967977523804
27.468929290771484 14.53476333618164 0.11829975247383118
27.481351852416992 14.326502799987793 0.12450458854436874
27.53026008605957 14.138157844543457 0.12587206065654755
27.55484390258789 13.93808650970459 0.13016846776008606
27.513980865478516 13.706341743469238 0.142594575881958
27.608688354492188 13.543017387390137 0.13764064013957977
27.6961669921875 13.376018524169922 0.13346296548843384
28.003366470336914 13.313413619995117 0.10142239183187485
19.266691207885742 0.7550357580184937 1.277646780014038
19.249826431274414 0.6361588835716248 1.2776895761489868
19.329463958740234 0.520142674446106 1.2658205032348633
12.908642768859863 -0.6833701133728027 2.028747081756592
12.86437702178955 -0.7601968050003052 2.031993865966797
12.881053924560547 -0.8405037522315979 2.0275919437408447
12.686638832092285 -1.4556647539138794 2.031294107437134
12.642789840698242 -1.5292856693267822 2.033992290496826
20.092731475830078 -6.312891006469727 0.904731035232544
20.147703170776367 -6.466304302215576 0.8891952037811279
20.1412296295166 -6.6008710861206055 0.8818812370300293
20.115991592407227 -6.729626655578613 0.8770111203193665
18.979692459106445 -6.479429721832275 1.024796485900879
18.967348098754883 -6.60549783706665 1.0183956623077393
18.95416831970215 -6.731659889221191 1.01199209690094
18.91963768005371 -6.850485801696777 1.0084326267242432
18.98930549621582 -7.4079999923706055 0.963952898979187
18.983461380004883 -8.36240005493164 0.8984659314155579
18.959503173828125 -8.491232872009277 0.8918678164482117
18.999643325805664 -8.649657249450684 0.8758357167243958
19.12942123413086 -8.850931167602539 0.8465401530265808
19.341766357421875 -9.093761444091797 0.8048641085624695
20.699758529663086 -13.04466724395752 0.33633244037628174
20.411788940429688 -13.039085388183594 0.3666919767856598
20.11886215209961 -13.02669906616211 0.39805373549461365
19.871612548828125 -13.040574073791504 0.4222501516342163
19.64229393005371 -13.063437461853027 0.44368618726730347
19.46440315246582 -13.118314743041992 0.45685485005378723
19.30049705505371 -13.181008338928223 0.4677767753601074
19.223758697509766 -13.302515983581543 0.464352011680603
19.173839569091797 -13.44291877746582 0.4563627541065216
19.433958053588867 -13.804106712341309 0.39655354619026184
19.342863082885742 -13.918987274169922 0.39485570788383484
19.206249237060547 -14.000588417053223 0.4007200598716736
19.210458755493164 -14.185210227966309 0.3827255368232727
19.200422286987305 -14.360916137695312 0.3668774366378784
19.207111358642578 -14.55079174041748 0.3479105532169342
19.227909088134766 -14.753350257873535 0.32622310519218445
19.20859718322754 -14.926925659179688 0.3111491799354553
19.21122932434082 -15.119199752807617 0.29200226068496704
19.228492736816406 -15.325034141540527 0.26999393105506897
19.234689712524414 -15.52418041229248 0.2495945692062378
19.21997833251953 -15.708306312561035 0.23257377743721008
19.18769645690918 -15.879573822021484 0.21839600801467896
19.246675491333008 -16.128662109375 0.1876208484172821
19.22096061706543 -16.309206008911133 0.1716492474079132
19.265892028808594 -16.55201530456543 0.14259451627731323
19.22932243347168 -16.72707176208496 0.12795992195606232
12.773502349853516 12.217782020568848 1.6098498106002808
12.83206558227539 12.124199867248535 1.6107819080352783
12.952425003051758 12.088651657104492 1.6019052267074585
12.893136024475098 11.886430740356445 1.6210684776306152
12.972899436950684 11.813819885253906 1.6183353662490845
12.988734245300293 11.683541297912598 1.6254156827926636
13.024999618530273 11.572647094726562 1.629184365272522
13.075328826904297 11.474852561950684 1.6306629180908203
13.129454612731934 11.380779266357422 1.631449580192566
13.099907875061035 11.21540641784668 1.6448384523391724
13.146968841552734 11.116891860961914 1.6464266777038574
13.19483757019043 11.01949405670166 1.6477811336517334
13.228215217590332 10.91054916381836 1.651199460029602
13.261524200439453 10.80223560333252 1.6545016765594482
13.310259819030762 10.706999778747559 1.6553857326507568
13.326435089111328 10.586238861083984 1.6609876155853271
13.370552062988281 10.488365173339844 1.6623270511627197
13.413185119628906 10.389739990234375 1.6637781858444214
13.450379371643066 10.287365913391113 1.6659181118011475
13.481274604797363 10.180732727050781 1.6688647270202637
13.516148567199707 10.07767105102539 1.6711164712905884
13.55506706237793 9.978096961975098 1.6726715564727783
13.58443546295166 9.871999740600586 1.675498366355896
13.625118255615234 9.774601936340332 1.6765848398208618
13.668362617492676 9.679370880126953 1.6772031784057617
13.697925567626953 9.574872970581055 1.6796764135360718
13.736534118652344 9.477142333984375 1.6807527542114258
13.781848907470703 9.384328842163086 1.6807786226272583
13.80923080444336 9.279682159423828 1.6832457780838013
13.855714797973633 9.188223838806152 1.6829134225845337
13.879158020019531 9.081862449645996 1.6857270002365112
13.926015853881836 8.991180419921875 1.6851534843444824
13.949667930603027 8.885856628417969 1.6877305507659912
13.982645034790039 8.786920547485352 1.6889034509658813
14.03012752532959 8.697333335876465 1.6879661083221436
14.069413185119629 8.602828979492188 1.6880773305892944
14.116570472717285 8.513297080993652 1.6870110034942627
14.144381523132324 8.41234302520752 1.688522458076477
14.19118881225586 8.322919845581055 1.687328815460205
14.223676681518555 8.225284576416016 1.6880112886428833
14.260677337646484 8.130512237548828 1.687984585762024
14.298783302307129 8.036568641662598 1.6877182722091675
14.371888160705566 7.962191581726074 1.6826106309890747
15.010255813598633 8.196052551269531 1.6008517742156982
15.889836311340332 8.550348281860352 1.4867877960205078
19.264623641967773 0.7724903225898743 1.1620604991912842
19.254804611206055 0.6538465619087219 1.1613354682922363
19.267059326171875 0.5359842777252197 1.1576813459396362
12.884747505187988 -0.6695455312728882 1.9543530941009521
12.871273040771484 -0.7480425238609314 1.9538304805755615
12.879094123840332 -0.8278005719184875 1.9504631757736206
19.687271118164062 -6.033666133880615 0.8444361090660095
19.448110580444336 -6.091212272644043 0.8704499006271362
19.094802856445312 -6.10951566696167 0.9128000736236572
19.052846908569336 -6.225283622741699 0.9108008146286011
18.953792572021484 -6.321956634521484 0.9168937802314758
18.939632415771484 -6.446707725524902 0.910730242729187
18.91903305053711 -6.569575309753418 0.9053745269775391
18.892969131469727 -6.6907806396484375 0.9006935954093933
18.919246673583984 -6.8310956954956055 0.8883021473884583
18.891508102416992 -6.952479362487793 0.8836151957511902
18.916797637939453 -7.093960762023926 0.8710681200027466
18.898483276367188 -7.219749927520752 0.864747941493988
18.904264450073242 -7.355283260345459 0.8547595739364624
18.925668716430664 -7.4977288246154785 0.8423162698745728
18.932249069213867 -7.635156154632568 0.831900954246521
18.97267723083496 -7.787242889404297 0.8163027167320251
18.99091911315918 -7.931332588195801 0.8038204908370972
18.954307556152344 -8.053083419799805 0.7993730306625366
18.937829971313477 -8.183723449707031 0.7917875051498413
18.880558013916016 -8.296930313110352 0.790211021900177
18.774673461914062 -8.388326644897461 0.7958899736404419
