# .PCD v0.7 - Point Cloud Data file format
VERSION 0.7
FIELDS x y z
SIZE 4 4 4
TYPE F F F
COUNT 1 1 1
WIDTH 852
HEIGHT 1
VIEWPOINT 0 0 0 1 0 0 0
POINTS 852
DATA ascii
34.33797836303711 -13.90979290008545 0.803228497505188
34.34290313720703 -14.1577730178833 0.7910895347595215
34.35618209838867 -14.4105806350708 0.7780938148498535
34.34930419921875 -14.656257629394531 0.7666128873825073
34.36813735961914 -14.914299964904785 0.7528198957443237
29.510311126708984 -13.02221393585205 1.1493746042251587
34.42381286621094 -15.443330764770508 0.7231768369674683
34.410606384277344 -15.6918306350708 0.7115576863288879
34.42549133300781 -15.954584121704102 0.697380781173706
34.414085388183594 -16.20664405822754 0.6852722764015198
34.43235397338867 -16.47422218322754 0.6704422831535339
34.45221710205078 -16.7443790435791 0.6552819609642029
34.44948959350586 -17.005250930786133 0.6418863534927368
34.46178436279297 -17.27520751953125 0.6269980669021606
34.39476013183594 -17.506610870361328 0.6188653707504272
34.34389877319336 -17.746997833251953 0.6091747879981995
34.44941711425781 -18.0703125 0.5854985117912292
34.38328170776367 -18.30563735961914 0.5767979621887207
34.423439025878906 -18.599117279052734 0.55846107006073
34.398338317871094 -18.85927391052246 0.5457459688186646
30.791563034057617 -17.128633499145508 0.8559445142745972
34.584651947021484 -19.517438888549805 0.4983232021331787
34.585853576660156 -19.799034118652344 0.4825478792190552
34.561622619628906 -20.0678653717041 0.4688858389854431
34.5594367980957 -20.351303100585938 0.4529978036880493
34.619258880615234 -20.673805236816406 0.4311533570289612
34.62354278564453 -20.965789794921875 0.4141889810562134
34.63063430786133 -21.26173210144043 0.39672788977622986
34.57107162475586 -21.518522262573242 0.3852890133857727
34.566139221191406 -21.811016082763672 0.36851081252098083
34.59250259399414 -22.12574577331543 0.34852322936058044
34.635528564453125 -22.454086303710938 0.3266708254814148
34.56752014160156 -22.712631225585938 0.3151833415031433
34.464447021484375 -22.94908905029297 0.30689677596092224
30.272165298461914 -20.427087783813477 0.6953617334365845
34.66737747192383 -23.70374870300293 0.24994634091854095
34.6601676940918 -24.012439727783203 0.23157118260860443
34.7451057434082 -24.38835334777832 0.2038332223892212
29.839948654174805 -21.22018051147461 0.6711286306381226
29.98137664794922 -21.599143981933594 0.6398595571517944
29.8125 -21.75678062438965 0.6393415331840515
29.646024703979492 -21.915531158447266 0.6385253667831421
29.60239601135254 -22.16565704345703 0.6251658201217651
29.58618927001953 -22.438352584838867 0.6087937355041504
29.536123275756836 -22.687400817871094 0.5956564545631409
32.3642692565918 30.840173721313477 0.9731407165527344
32.41804504394531 30.514495849609375 0.9801594018936157
32.33599853515625 30.06560707092285 0.9980310201644897
32.44009017944336 29.793771743774414 1.000485897064209
32.491798400878906 29.476179122924805 1.0069994926452637
32.4620361328125 29.088462829589844 1.0198653936386108
32.40632629394531 28.682374954223633 1.0345559120178223
32.55352783203125 28.45875358581543 1.0327680110931396
32.561710357666016 28.115665435791016 1.0419073104858398
32.58894348144531 27.79233741760254 1.0493168830871582
32.60809326171875 27.465232849121094 1.0571608543395996
32.611419677734375 27.12809181213379 1.0660449266433716
32.628814697265625 26.805885314941406 1.0736159086227417
32.63806915283203 26.480083465576172 1.0816243886947632
32.67338180541992 26.17827606201172 1.0874019861221313
32.69369888305664 25.867124557495117 1.0941612720489502
32.67211151123047 25.525981903076172 1.1039776802062988
32.699737548828125 25.226322174072266 1.109791874885559
32.717777252197266 24.92184066772461 1.1161645650863647
32.7117805480957 24.601892471313477 1.124202847480774
32.72393035888672 24.298429489135742 1.1306649446487427
32.74970245361328 24.007545471191406 1.1359128952026367
32.5402717590332 23.548725128173828 1.1588811874389648
32.61720657348633 23.301105499267578 1.1598657369613647
32.67683410644531 23.042499542236328 1.1620192527770996
32.72386932373047 22.77662467956543 1.1649764776229858
32.72528076171875 22.481088638305664 1.1712185144424438
32.77386474609375 22.219999313354492 1.1737544536590576
32.75578689575195 21.91586685180664 1.181138277053833
32.76020431518555 21.62929344177246 1.1866742372512817
32.76066970825195 21.34239959716797 1.192348599433899
32.8453254699707 21.111906051635742 1.1916084289550781
32.812923431396484 20.807941436767578 1.1994261741638184
32.82542037963867 20.534818649291992 1.2037596702575684
32.82391357421875 20.254989624023438 1.2089818716049194
18.417190551757812 11.208597183227539 2.2760162353515625
18.394729614257812 11.040966987609863 2.280372142791748
18.38551139831543 10.88267707824707 2.2836687564849854
32.904666900634766 19.207141876220703 1.2220534086227417
32.923828125 18.948688507080078 1.22505784034729
32.932373046875 18.68579864501953 1.2287029027938843
32.82659149169922 18.36066436767578 1.2405502796173096
32.876251220703125 18.124752044677734 1.240923523902893
32.97423553466797 17.91608238220215 1.237663984298706
33.00931167602539 17.67391014099121 1.238860011100769
33.03824996948242 17.429655075073242 1.240378737449646
33.02116394042969 17.162694931030273 1.2451037168502808
33.05356979370117 16.922983169555664 1.2461237907409668
33.06557083129883 16.674081802368164 1.248496413230896
33.06772232055664 16.421672821044922 1.2514560222625732
33.08147430419922 16.176441192626953 1.2534598112106323
33.08717346191406 15.928630828857422 1.2559219598770142
33.1073112487793 15.68904972076416 1.2572286128997803
33.12123107910156 15.447710990905762 1.2588642835617065
33.12800598144531 15.204294204711914 1.2608966827392578
33.16669464111328 14.976572036743164 1.260529637336731
33.110816955566406 14.707621574401855 1.2668123245239258
33.115074157714844 14.467090606689453 1.2686779499053955
33.12405014038086 14.229817390441895 1.2700940370559692
33.15158462524414 14.001519203186035 1.2700752019882202
33.165592193603516 13.768444061279297 1.2709118127822876
33.20478439331055 13.546655654907227 1.26984703540802
33.181373596191406 13.300396919250488 1.2731291055679321
33.0772819519043 13.023858070373535 1.2820371389389038
33.12554168701172 12.808842658996582 1.2800030708312988
33.526878356933594 12.72831916809082 1.2527916431427002
33.67227554321289 12.547868728637695 1.2436696290969849
33.71832275390625 12.330121994018555 1.2415001392364502
33.72916030883789 12.100150108337402 1.2417232990264893
33.75444412231445 11.876139640808105 1.2408181428909302
33.76693344116211 11.648367881774902 1.240715503692627
33.74671173095703 11.410340309143066 1.2428276538848877
33.77030563354492 11.18806266784668 1.2417312860488892
33.77536392211914 10.960379600524902 1.2418463230133057
33.78935623168945 10.736377716064453 1.241226077079773
33.806644439697266 10.5140962600708 1.2402719259262085
33.79956817626953 10.2850341796875 1.2409414052963257
33.795738220214844 10.057877540588379 1.2412809133529663
33.813385009765625 9.83784294128418 1.2399998903274536
33.82768630981445 9.617424964904785 1.2388570308685303
33.85113525390625 9.40013599395752 1.2369664907455444
33.861637115478516 9.17978572845459 1.2358942031860352
33.85045623779297 8.954300880432129 1.236259937286377
33.8629035949707 8.73577880859375 1.234853982925415
33.882652282714844 8.51962947845459 1.232833743095398
33.88745880126953 8.300240516662598 1.231775164604187
33.883087158203125 8.07926082611084 1.23127019405365
33.88797378540039 7.861125469207764 1.2300127744674683
33.89924240112305 7.644989967346191 1.2282063961029053
33.92473220825195 7.4324259757995605 1.2252942323684692
33.92546463012695 7.214854717254639 1.2240442037582397
33.93653869628906 6.99997091293335 1.221963882446289
33.95309829711914 6.786590576171875 1.2193986177444458
33.96440505981445 6.572510242462158 1.2171108722686768
33.96552658081055 6.356893062591553 1.2154525518417358
33.98197937011719 6.14452600479126 1.212607979774475
33.99907302856445 5.93253755569458 1.2096222639083862
34.010902404785156 5.719906806945801 1.2069166898727417
34.00171661376953 5.50416374206543 1.2056163549423218
34.01087188720703 5.29181432723999 1.2029134035110474
34.0048942565918 5.077495574951172 1.201197862625122
34.02225112915039 4.866981029510498 1.197718858718872
34.032379150390625 4.655630111694336 1.1946630477905273
34.04514694213867 4.44485330581665 1.191323161125183
34.0486946105957 4.2331085205078125 1.1885496377944946
34.064788818359375 4.0231242179870605 1.1847805976867676
33.556209564208984 3.7545077800750732 1.2186769247055054
33.50886917114258 3.541264295578003 1.2193301916122437
33.564388275146484 3.339115858078003 1.2124794721603394
33.61174011230469 3.1357686519622803 1.2061177492141724
33.644935607910156 2.930837869644165 1.2006779909133911
33.655006408691406 2.723844528198242 1.1968151330947876
33.65983200073242 2.516538381576538 1.1932381391525269
33.66238021850586 2.3092055320739746 1.1897324323654175
33.67261505126953 2.10249400138855 1.1855753660202026
33.681575775146484 1.8957418203353882 1.1814152002334595
33.686279296875 1.6888071298599243 1.1774709224700928
33.69270324707031 1.4820159673690796 1.1733077764511108
33.688880920410156 1.2748674154281616 1.1697977781295776
19.263681411743164 0.60980224609375 2.2225899696350098
33.70733642578125 0.8616470098495483 1.160585641860962
33.721641540527344 0.6550680994987488 1.1554611921310425
13.02456283569336 0.17183609306812286 2.6748955249786377
33.7404670715332 0.2414400428533554 1.1456403732299805
33.755950927734375 0.03449166938662529 1.1401355266571045
33.75520706176758 -0.17256399989128113 1.1357312202453613
12.813966751098633 -0.14539290964603424 2.6836986541748047
12.765851974487305 -0.223177969455719 2.685506820678711
11.700357437133789 -0.2765246629714966 2.763000249862671
12.804777145385742 -0.381034791469574 2.67897629737854
33.79521560668945 -1.209802508354187 1.1090025901794434
33.77388000488281 -1.4165329933166504 1.105554461479187
33.726375579833984 -1.6218531131744385 1.1039762496948242
12.729358673095703 -0.6917137503623962 2.6769211292266846
12.855151176452637 -0.7776482105255127 2.665433883666992
12.85300064086914 -0.8566840887069702 2.663525342941284
33.85812759399414 -2.462063789367676 1.072482705116272
12.547035217285156 -0.9910992980003357 2.6824660301208496
13.091034889221191 -1.1148306131362915 2.63899827003479
12.765067100524902 -1.166042685508728 2.6615569591522217
13.060242652893066 -1.273794412612915 2.636777877807617
13.105616569519043 -1.3594272136688232 2.6309664249420166
13.119701385498047 -1.442292332649231 2.627497911453247
13.105527877807617 -1.5221654176712036 2.6261558532714844
33.92156982421875 -4.147654056549072 1.0194741487503052
33.915916442871094 -4.358314037322998 1.0134118795394897
33.94355010986328 -4.5737199783325195 1.0046684741973877
33.94709396362305 -4.786430358886719 0.997674822807312
12.935651779174805 -1.9061856269836426 2.626617670059204
12.856574058532715 -1.9752105474472046 2.6301462650299072
13.065610885620117 -2.089423894882202 2.611116647720337
33.982330322265625 -5.645079135894775 0.9669389724731445
33.987003326416016 -5.860359191894531 0.959292471408844
13.45345687866211 -2.406123638153076 2.5721161365509033
34.01969528198242 -6.296802520751953 0.9418046474456787
34.01533126831055 -6.512101650238037 0.9345212578773499
34.011558532714844 -6.727973461151123 0.9270755052566528
33.93706130981445 -6.929887294769287 0.9251598715782166
33.9160041809082 -7.142645359039307 0.9188833236694336
33.90140151977539 -7.357098579406738 0.9119796752929688
33.951602935791016 -7.586422443389893 0.8997442722320557
33.972084045410156 -7.810163974761963 0.8897636532783508
34.02699279785156 -8.042926788330078 0.8768612742424011
34.05512619018555 -8.270543098449707 0.8659835457801819
34.058528900146484 -8.493021011352539 0.8569822311401367
34.09138488769531 -8.723759651184082 0.8454439640045166
34.10050964355469 -8.949402809143066 0.8357080221176147
34.11006546020508 -9.176006317138672 0.8258023262023926
34.10466766357422 -9.399357795715332 0.8169963359832764
34.08629608154297 -9.619741439819336 0.8091364502906799
34.12683868408203 -9.85767936706543 0.7962547540664673
34.12271499633789 -10.083767890930176 0.7869420647621155
34.119964599609375 -10.311042785644531 0.7773813605308533
34.15951156616211 -10.55219554901123 0.764130711555481
34.13654327392578 -10.775023460388184 0.7559876441955566
34.152915954589844 -11.011119842529297 0.7443892359733582
34.1544189453125 -11.24345874786377 0.7339005470275879
34.19781494140625 -11.49083423614502 0.7196979522705078
34.17156219482422 -11.715893745422363 0.7112781405448914
34.18429183959961 -11.955211639404297 0.6993809938430786
34.145606994628906 -12.177387237548828 0.6917568445205688
34.122344970703125 -12.405668258666992 0.6826719045639038
34.219058990478516 -12.6791353225708 0.663034200668335
34.27919006347656 -12.941232681274414 0.6463652849197388
34.27598571777344 -13.180937767028809 0.6350394487380981
34.30082702636719 -13.432720184326172 0.6210932731628418
34.30718994140625 -13.678659439086914 0.6085975766181946
34.322906494140625 -13.929682731628418 0.5951060056686401
34.33038330078125 -14.17874813079834 0.5821695923805237
34.35078048706055 -14.434610366821289 0.567906379699707
34.323509216308594 -14.671670913696289 0.5577301979064941
34.34305953979492 -14.929997444152832 0.5431882739067078
29.499500274658203 -13.040531158447266 0.9679131507873535
34.39830780029297 -15.458820343017578 0.5120665431022644
34.40123748779297 -15.71465015411377 0.4984557330608368
34.40321350097656 -15.971517562866211 0.48474666476249695
34.38440704345703 -16.22007179260254 0.47276243567466736
34.41236114501953 -16.49225616455078 0.45628753304481506
34.42661666870117 -16.759719848632812 0.44086912274360657
34.422794342041016 -17.020030975341797 0.4269293248653412
34.44200897216797 -17.293447494506836 0.4106404781341553
34.3703727722168 -17.52248191833496 0.40267714858055115
34.313148498535156 -17.75953483581543 0.393211305141449
34.43603515625 -18.092008590698242 0.36650362610816956
34.34508514404297 -18.31414031982422 0.3598615825176239
34.42096710205078 -18.62688636779785 0.33711156249046326
30.804777145385742 -16.915531158447266 0.6693585515022278
30.79405975341797 -17.156532287597656 0.6561200022697449
34.55601119995117 -19.5311279296875 0.2761378586292267
34.52156066894531 -19.792272567749023 0.263040155172348
34.5360221862793 -20.083282470703125 0.24494647979736328
34.51215744018555 -20.353954315185547 0.23038546741008759
34.54440689086914 -20.65986442565918 0.21004825830459595
34.48644256591797 -20.913721084594727 0.19842511415481567
25.901670455932617 -17.735862731933594 0.9274903535842896
29.815933227539062 -21.232873916625977 0.4658680260181427
30.20586395263672 -21.791284561157227 0.4061315357685089
29.753467559814453 -21.743968963623047 0.43616965413093567
29.687971115112305 -21.97702980041504 0.4246787130832672
29.621530532836914 -22.210702896118164 0.4130985140800476
29.590620040893555 -22.472702026367188 0.39743709564208984
29.56629180908203 -22.741840362548828 0.380808562040329
33.86439514160156 -29.894176483154297 -0.3585028350353241
33.72665023803711 -30.143138885498047 -0.368701696395874
33.6484260559082 -30.44700813293457 -0.3862144649028778
33.58021926879883 -30.76248550415039 -0.40523675084114075
33.38451385498047 -30.96245574951172 -0.40914466977119446
20.183223724365234 -18.951839447021484 1.1726187467575073
20.016450881958008 -19.02792739868164 1.1759577989578247
32.35177230834961 30.899389266967773 0.682030975818634
31.434946060180664 29.65751075744629 0.7784517407417297
15.535970687866211 14.479037284851074 2.2287685871124268
31.571062088012695 29.062870025634766 0.7909040451049805
31.709999084472656 28.833768844604492 0.7904486060142517
32.012115478515625 28.75206756591797 0.7752621173858643
32.30844497680664 28.662443161010742 0.7605516910552979
32.49155044555664 28.470964431762695 0.7558236122131348
32.53847122192383 28.161436080932617 0.7629842758178711
32.55704116821289 27.830366134643555 0.7724184393882751
32.58269119262695 27.508495330810547 0.7809985280036926
32.597965240478516 27.18096923828125 0.7902599573135376
32.63047790527344 26.87078285217285 0.7977946996688843
32.61552047729492 26.52471160888672 0.8092279434204102
32.66290283203125 26.232315063476562 0.8150436282157898
32.6508674621582 25.895084381103516 0.825772225856781
32.67913055419922 25.59282112121582 0.8328187465667725
32.682037353515625 25.27348518371582 0.841830313205719
32.693363189697266 24.963560104370117 0.8499138355255127
32.702125549316406 24.654447555541992 0.8580101132392883
32.709136962890625 24.346765518188477 0.8660536408424377
32.744964599609375 24.062963485717773 0.8714670538902283
32.58392333984375 23.638452529907227 0.893255889415741
32.60548400878906 23.350431442260742 0.8994565606117249
32.682586669921875 23.103925704956055 0.9008304476737976
32.68998718261719 22.809968948364258 0.9078633785247803
32.73281478881836 22.54281997680664 0.9117663502693176
32.79010009765625 22.287221908569336 0.9143053889274597
32.7493782043457 21.967300415039062 0.9247957468032837
32.78334426879883 21.699932098388672 0.9289263486862183
32.82027816772461 21.43624496459961 0.932651162147522
32.846824645996094 21.16752052307129 0.9370695948600769
32.81070327758789 20.86073875427246 0.9464606642723083
32.84221267700195 20.599193572998047 0.9501424431800842
32.82254409790039 20.30760383605957 0.9578417539596558
32.879737854003906 20.06536102294922 0.9591174125671387
32.85228729248047 19.77328109741211 0.9671218395233154
32.89113235473633 19.523027420043945 0.9695873260498047
32.930728912353516 19.274551391601562 0.9718473553657532
32.89161682128906 18.981948852539062 0.9803140759468079
32.922996520996094 18.73198890686035 0.9829397201538086
32.815086364746094 18.405258178710938 0.9966169595718384
32.8563232421875 18.16453742980957 0.9981479644775391
32.951900482177734 17.954547882080078 0.9951921105384827
32.976715087890625 17.706789016723633 0.9977737665176392
33.00855255126953 17.464061737060547 0.9996576309204102
33.02892303466797 17.21653938293457 1.0023205280303955
33.0368537902832 16.963958740234375 1.005835771560669
33.05183792114258 16.7164306640625 1.0086549520492554
33.05252456665039 16.46312713623047 1.012471079826355
33.074649810791016 16.221866607666016 1.0144551992416382
33.078887939453125 15.973145484924316 1.017722487449646
33.092132568359375 15.730122566223145 1.0201455354690552
33.10184097290039 15.486689567565918 1.0227177143096924
33.11796569824219 15.247483253479004 1.0246559381484985
33.14421844482422 15.014012336730957 1.0256707668304443
33.131500244140625 14.764145851135254 1.0296244621276855
33.12153625488281 14.517004013061523 1.0332329273223877
33.130859375 14.279617309570312 1.0352003574371338
33.140357971191406 14.043441772460938 1.0370314121246338
33.16477966308594 13.814587593078613 1.0375717878341675
33.1904182434082 13.587095260620117 1.0378981828689575
33.231170654296875 13.366507530212402 1.0369255542755127
33.08958435058594 13.07446002960205 1.050074577331543
33.12327575683594 12.853568077087402 1.0494120121002197
33.49009323120117 12.760232925415039 1.0226621627807617
33.65427780151367 12.587060928344727 1.0116204023361206
33.71086120605469 12.373177528381348 1.0088562965393066
33.73699951171875 12.148597717285156 1.008349895477295
33.74378204345703 11.91784954071045 1.009234070777893
33.737701416015625 11.68355941772461 1.011003017425537
33.74418640136719 11.45460033416748 1.0116808414459229
33.75575637817383 11.228201866149902 1.0118494033813477
33.7686653137207 11.003019332885742 1.01180100440979
33.79053497314453 10.781434059143066 1.0109450817108154
33.789066314697266 10.553153991699219 1.011790156364441
33.79179382324219 10.327045440673828 1.012197494506836
33.78633117675781 10.099299430847168 1.0131289958953857
33.80711364746094 9.880121231079102 1.011915922164917
33.8303108215332 9.662160873413086 1.010406494140625
33.84250259399414 9.441606521606445 1.0096408128738403
33.85326385498047 9.221264839172363 1.0088783502578735
33.84524917602539 8.996532440185547 1.0094640254974365
33.86375045776367 8.779502868652344 1.0078868865966797
33.880863189697266 8.562582015991211 1.006309151649475
33.89852523803711 8.346258163452148 1.0045827627182007
33.90802001953125 8.128410339355469 1.0033833980560303
33.91029739379883 7.909399509429932 1.0026384592056274
33.896575927734375 7.687356472015381 1.003029227256775
33.916465759277344 7.473501682281494 1.0007060766220093
33.94085693359375 7.260941982269287 0.9979286193847656
33.948299407958984 7.045121192932129 0.9963623881340027
33.95241928100586 6.829087734222412 0.9949496388435364
33.959075927734375 6.6140289306640625 0.9932354092597961
33.95555877685547 6.397481918334961 0.9922095537185669
33.97322463989258 6.185333251953125 0.9894315004348755
33.99055099487305 5.973379135131836 0.9865758419036865
34.008522033691406 5.761775970458984 0.9835654497146606
34.009422302246094 5.547607421875 0.9817817211151123
34.01686477661133 5.334878444671631 0.9793853759765625
34.00818634033203 5.1200385093688965 0.9781444668769836
34.022823333740234 4.90906286239624 0.9749804735183716
34.034183502197266 4.697826385498047 0.971969485282898
34.041259765625 4.486242294311523 0.969189465045929
34.04405975341797 4.274373531341553 0.966642439365387
34.0554313659668 4.063817977905273 0.9633201360702515
33.57117462158203 3.797372341156006 0.9987972378730774
33.50328826904297 3.5817370414733887 1.001534342765808
33.54214859008789 3.3779637813568115 0.9957855343818665
33.61946105957031 3.177598237991333 0.9869036078453064
33.64393997192383 2.971848487854004 0.9820716977119446
33.65126037597656 2.7646098136901855 0.9784884452819824
33.661285400390625 2.5576932430267334 0.9745906591415405
33.676002502441406 2.3511722087860107 0.9702185988426208
33.684471130371094 2.1442482471466064 0.9662365913391113
15.753508567810059 0.9060486555099487 2.3846652507781982
15.78648853302002 0.8108330368995667 2.380403518676758
15.79598617553711 0.7142109274864197 2.3779540061950684
15.784969329833984 0.6167239546775818 2.3770883083343506
15.811212539672852 0.5206438302993774 2.373206615447998
15.825906753540039 0.42397060990333557 2.370192527770996
15.834030151367188 0.32701238989830017 2.3676531314849854
15.81763744354248 0.22962279617786407 2.3670265674591064
33.759334564208984 0.28254765272140503 0.9258508682250977
12.99903678894043 0.02929254248738289 2.5894627571105957
13.004820823669434 -0.05046543851494789 2.5872857570648193
33.7786979675293 -0.33889448642730713 0.9109523296356201
33.775638580322266 -0.5460807681083679 0.9065425992012024
33.788238525390625 -0.7536223530769348 0.9007614254951477
11.879264831542969 -0.3376287519931793 2.671241521835327
33.82057571411133 -1.169608473777771 0.8882940411567688
33.81440353393555 -1.3771167993545532 0.8837108612060547
33.73527145385742 -1.5812349319458008 0.8849667310714722
13.100090980529785 -0.6943556666374207 2.5643534660339355
12.81189250946045 -0.7579134702682495 2.585834264755249
12.850629806518555 -0.8393447995185852 2.5805702209472656
33.85390090942383 -2.4204564094543457 0.8534328937530518
12.658255577087402 -0.9828773140907288 2.592087984085083
33.85371780395508 -2.8383193016052246 0.8418598175048828
12.966588973999023 -1.1670420169830322 2.562189817428589
33.90193557739258 -3.261704683303833 0.8258349895477295
33.904720306396484 -3.4720284938812256 0.8194118738174438
33.924034118652344 -3.6844475269317627 0.8114995956420898
33.93310546875 -3.8962135314941406 0.8043209910392761
33.92897415161133 -4.1067938804626465 0.7981285452842712
33.92551803588867 -4.317724704742432 0.7917656302452087
33.93160629272461 -4.530220031738281 0.7844856977462769
33.94525146484375 -4.744195938110352 0.7764522433280945
33.95261001586914 -4.957791805267334 0.7688252329826355
33.9852294921875 -5.1757097244262695 0.7589407563209534
33.98691177368164 -5.389533519744873 0.7515465021133423
12.776169776916504 -2.106200695037842 2.5475900173187256
12.755013465881348 -2.1831822395324707 2.546576738357544
12.737320899963379 -2.260681390762329 2.545231342315674
34.02231216430664 -6.254665851593018 0.718294084072113
34.02110290527344 -6.470495223999023 0.7105266451835632
34.01754379272461 -6.686354637145996 0.7028375267982483
33.96867370605469 -6.893497467041016 0.69893878698349
33.92341995239258 -7.101315975189209 0.6946237087249756
33.946041107177734 -7.323761463165283 0.6843041181564331
34.0139045715332 -7.557126522064209 0.6699023842811584
34.05005645751953 -7.784717082977295 0.6581070423126221
34.08177947998047 -8.012351989746094 0.6465488076210022
34.08777618408203 -8.234822273254395 0.6371029615402222
34.08555221557617 -8.455988883972168 0.6282438635826111
34.109893798828125 -8.6845703125 0.6168999671936035
34.12885284423828 -8.912762641906738 0.6058834195137024
34.123191833496094 -9.135332107543945 0.5969087481498718
34.10359191894531 -9.354742050170898 0.5890418291091919
34.17177963256836 -9.59931755065918 0.5731804370880127
34.16164779663086 -9.823055267333984 0.5641750693321228
34.17585372924805 -10.0546236038208 0.5528369545936584
34.15701675415039 -10.277265548706055 0.5443317294120789
34.208152770996094 -10.522024154663086 0.5293404459953308
34.192928314208984 -10.747483253479004 0.5202100872993469
34.16484451293945 -10.969498634338379 0.5121131539344788
34.20820999145508 -11.215475082397461 0.4973304271697998
34.20354461669922 -11.446904182434082 0.4867846965789795
34.20392608642578 -11.680953025817871 0.4756184220314026
34.23752212524414 -11.927565574645996 0.4612169861793518
34.16986846923828 -12.139679908752441 0.456047922372818
34.15242004394531 -12.370074272155762 0.44607678055763245
34.23154067993164 -12.63693618774414 0.426906019449234
34.30680465698242 -12.904533386230469 0.4078771770000458
34.3075065612793 -13.145729064941406 0.3956647217273712
34.31117630004883 -13.389230728149414 0.38299962878227234
34.329803466796875 -13.639893531799316 0.3687363266944885
34.3226318359375 -13.881579399108887 0.35674721002578735
34.34141159057617 -14.135065078735352 0.34209778904914856
34.33815383911133 -14.380839347839355 0.3293755352497101
34.31667709350586 -14.620079040527344 0.318233460187912
34.33376693725586 -14.877023696899414 0.3031829595565796
29.51079750061035 -13.002880096435547 0.7593793272972107
34.42504119873047 -15.42127799987793 0.2668916583061218
34.397342681884766 -15.663098335266113 0.25560569763183594
34.377906799316406 -15.90976333618164 0.2433316856622696
34.387386322021484 -16.171188354492188 0.22801266610622406
34.404823303222656 -16.43805694580078 0.2116931825876236
34.41041946411133 -16.70096206665039 0.19633826613426208
34.327423095703125 -16.921838760375977 0.18965929746627808
34.326725006103516 -17.18423843383789 0.17455124855041504
34.0479736328125 -17.30691146850586 0.18737679719924927
34.25844955444336 -17.679391860961914 0.15049628913402557
33.804840087890625 -17.708946228027344 0.18103447556495667
34.2939567565918 -18.234371185302734 0.11504355072975159
34.08283615112305 -18.39140510559082 0.12054956704378128
33.94533157348633 -18.587196350097656 0.11840488761663437
30.809402465820312 -17.116731643676758 0.4281542897224426
25.98891258239746 -16.60334587097168 0.79271399974823
25.790456771850586 -17.614248275756836 0.7387914657592773
25.801904678344727 -17.855398178100586 0.7217076420783997
25.68254280090332 -18.00703239440918 0.7192230820655823
29.835277557373047 -21.193246841430664 0.22912056744098663
30.24412727355957 -21.76435089111328 0.16311223804950714
29.811100006103516 -21.731836318969727 0.19344983994960785
29.710420608520508 -21.939117431640625 0.18549080193042755
29.63223648071289 -22.16387176513672 0.17474602162837982
29.598438262939453 -22.42336654663086 0.15859726071357727
29.615488052368164 -22.72389030456543 0.13618668913841248
33.783973693847656 -26.253650665283203 -0.3797682821750641
33.65306091308594 -26.485002517700195 -0.3881165683269501
33.561065673828125 -26.748003005981445 -0.4013209939002991
33.44153594970703 -26.990238189697266 -0.411432683467865
32.73674011230469 -26.755077362060547 -0.3505117893218994
32.55154037475586 -26.938861846923828 -0.3525441884994507
32.38363265991211 -27.136728286743164 -0.3568083643913269
32.010982513427734 -27.500783920288086 -0.3611277639865875
30.96918296813965 -28.304141998291016 -0.3595387935638428
31.175167083740234 29.77750587463379 0.5096596479415894
31.24295425415039 29.478267669677734 0.5171809196472168
15.536149978637695 14.479583740234375 2.0910253524780273
31.309423446655273 28.823932647705078 0.5383267998695374
31.370145797729492 28.526674270629883 0.5457931160926819
31.53228187561035 28.323057174682617 0.5430811047554016
31.69459342956543 28.119848251342773 0.5402024388313293
31.90285301208496 27.957124710083008 0.532709002494812
31.967029571533203 27.66888427734375 0.5390539169311523
32.083457946777344 27.42757225036621 0.5401374697685242
32.358154296875 27.320987701416016 0.525840699672699
32.52167892456055 27.11944007873535 0.5221199989318848
14.559673309326172 11.990484237670898 2.246042251586914
14.635098457336426 11.902841567993164 2.244013547897339
14.654792785644531 11.770383834838867 2.2471978664398193
14.708575248718262 11.666019439697266 2.247069835662842
14.695679664611816 11.509783744812012 2.2531330585479736
14.71850299835205 11.38282299041748 2.2557356357574463
14.688804626464844 11.216672897338867 2.2631475925445557
14.718146324157715 11.096945762634277 2.2649457454681396
14.756172180175781 10.984426498413086 2.2658541202545166
14.810248374938965 10.884261131286621 2.265200614929199
14.88140869140625 10.796727180480957 2.2629053592681885
14.872600555419922 10.651823997497559 2.2678966522216797
14.922834396362305 10.550036430358887 2.2673795223236084
14.968290328979492 10.44517993927002 2.267230272293091
15.029447555541992 10.351473808288574 2.2655813694000244
15.159292221069336 10.304500579833984 2.2576346397399902
15.059736251831055 10.10244083404541 2.270430564880371
15.09215259552002 9.990612030029297 2.2711706161499023
15.110404968261719 9.870038986206055 2.2731118202209473
15.139483451843262 9.757183074951172 2.274001359939575
15.171114921569824 9.64648151397705 2.2745883464813232
15.20364761352539 9.53681755065918 2.2750232219696045
15.25830078125 9.4412841796875 2.2734146118164062
15.31916332244873 9.349593162536621 2.271193027496338
15.384599685668945 9.260595321655273 2.268507480621338
15.42551326751709 9.156892776489258 2.267937421798706
15.47433853149414 9.058074951171875 2.2666029930114746
32.91490173339844 18.997591018676758 0.7317310571670532
32.9576530456543 18.753917694091797 0.733986496925354
32.854305267333984 18.42945671081543 0.7489195466041565
32.85904312133789 18.16824722290039 0.7541791796684265
32.95637512207031 17.959197998046875 0.7511800527572632
33.01460647583008 17.729354858398438 0.7514647841453552
33.01133728027344 17.46776008605957 0.7569693326950073
33.0246696472168 17.216550827026367 0.7608717083930969
33.02641296386719 16.96082305908203 0.7656299471855164
33.052066802978516 16.71877670288086 0.7681612372398376
33.05547332763672 16.466825485229492 0.7724739909172058
33.05524444580078 16.214582443237305 0.7769514322280884
33.06574249267578 15.96903133392334 0.780354917049408
33.08527755737305 15.72909927368164 0.7828356623649597
33.09138107299805 15.484034538269043 0.7863316535949707
33.11022186279297 15.246156692504883 0.7885916233062744
33.1364631652832 15.012744903564453 0.790077269077301
33.13105010986328 14.766189575195312 0.7941418886184692
33.11289978027344 14.515462875366211 0.7991551160812378
33.12131118774414 14.277748107910156 0.8017563819885254
33.137229919433594 14.044363975524902 0.8035802245140076
33.164424896240234 13.816689491271973 0.8043105602264404
33.17715835571289 13.583919525146484 0.806143581867218
33.219730377197266 13.364163398742676 0.8053044080734253
33.072654724121094 13.070014953613281 0.8204739689826965
33.11560821533203 12.852842330932617 0.8193392157554626
33.48409652709961 12.760234832763672 0.790435791015625
33.6668815612793 12.594078063964844 0.7772125005722046
33.701969146728516 12.372220039367676 0.7764068841934204
33.7299690246582 12.148375511169434 0.7760772705078125
33.74615478515625 11.921001434326172 0.776623010635376
33.73162841796875 11.683769226074219 0.7796440720558167
33.74094772338867 11.455814361572266 0.7805206775665283
33.76576614379883 11.23384952545166 0.7799631357192993
33.7711296081543 11.006138801574707 0.7809272408485413
33.7854118347168 10.782118797302246 0.7810150980949402
33.776344299316406 10.551498413085938 0.7829538583755493
33.79145431518555 10.329263687133789 0.78272944688797
33.78887939453125 10.102381706237793 0.783876895904541
33.808712005615234 9.882912635803223 0.7830142974853516
33.82137680053711 9.661933898925781 0.7826375961303711
33.835479736328125 9.441975593566895 0.7820212244987488
33.8404655456543 9.220108985900879 0.7820550203323364
33.85268020629883 9.000839233398438 0.781362771987915
33.86058044433594 8.781014442443848 0.780916690826416
33.87286376953125 8.562896728515625 0.7799849510192871
33.88470458984375 8.345192909240723 0.7789737582206726
33.88837432861328 8.126039505004883 0.7785360217094421
33.90033721923828 7.9094157218933105 0.7772846221923828
33.899253845214844 7.690304756164551 0.7770178914070129
33.9103889465332 7.474505424499512 0.7756069302558899
33.92502212524414 7.259900093078613 0.7737868428230286
33.93635177612305 7.044989109039307 0.7721311450004578
33.95120620727539 6.831193447113037 0.7700645327568054
33.96569061279297 6.617669105529785 0.7679163813591003
33.959251403808594 6.400529861450195 0.7674199342727661
33.96613311767578 6.18639612197876 0.7656875252723694
33.985408782958984 5.974832057952881 0.7627962827682495
33.99648666381836 5.762096881866455 0.7604835033416748
34.0023078918457 5.548806190490723 0.758503794670105
34.00678634643555 5.335659027099609 0.7565256953239441
34.0050048828125 5.121921062469482 0.7549663782119751
34.02259063720703 4.911394119262695 0.751655101776123
34.044795989990234 4.701659679412842 0.7478392124176025
34.0400276184082 4.488448619842529 0.7461988925933838
34.03589630126953 4.27571964263916 0.744394063949585
34.053199768066406 4.065924644470215 0.7406585812568665
33.577117919921875 3.8003733158111572 0.7787649631500244
33.494407653808594 3.5831105709075928 0.7833511233329773
33.535213470458984 3.379593849182129 0.777319610118866
33.60951232910156 3.1789937019348145 0.7683178186416626
33.6389274597168 2.973745822906494 0.7630254030227661
33.64822006225586 2.766702651977539 0.7593376040458679
33.655250549316406 2.559579372406006 0.7557339072227478
33.66299057006836 2.3526108264923096 0.7519581317901611
33.66846466064453 2.145578384399414 0.7482659816741943
15.754088401794434 0.9067439436912537 2.2821221351623535
15.787043571472168 0.8115274906158447 2.277679920196533
15.78956413269043 0.7145876884460449 2.2757976055145264
15.791485786437988 0.6176463961601257 2.2739145755767822
15.805760383605957 0.521134614944458 2.270914316177368
15.82840347290039 0.4247106611728668 2.267136335372925
15.835517883300781 0.3277178108692169 2.264643907546997
15.82410717010498 0.23039104044437408 2.2637016773223877
33.74515914916992 0.28479933738708496 0.7076560258865356
33.74190902709961 0.07779960334300995 0.7036012411117554
12.174955368041992 -0.04688936844468117 2.574995756149292
12.948334693908691 -0.12926813960075378 2.505979061126709
33.782310485839844 -0.5438078045845032 0.6863942742347717
33.78792190551758 -0.751231849193573 0.6811121106147766
12.836787223815918 -0.3644769787788391 2.5102338790893555
33.813232421875 -1.1669647693634033 0.6689661741256714
33.80405807495117 -1.3743046522140503 0.6646332740783691
13.223519325256348 -0.6191447377204895 2.470351457595825
13.174561500549316 -0.6978734731674194 2.472567558288574
12.827811241149902 -0.7584565281867981 2.50105357170105
12.833709716796875 -0.8378386497497559 2.4984068870544434
12.724852561950684 -0.909162700176239 2.5058865547180176
33.84845733642578 -2.626464366912842 0.6274331212043762
12.84943675994873 -1.0766661167144775 2.490361452102661
12.994234085083008 -1.1691126823425293 2.4751405715942383
12.88058090209961 -1.2385964393615723 2.482916831970215
12.98654556274414 -1.3292392492294312 2.471022605895996
33.91838836669922 -3.681408405303955 0.590153694152832
33.922481536865234 -3.8925650119781494 0.5832087993621826
33.92031478881836 -4.103314399719238 0.5767035484313965
33.933631896972656 -4.316322326660156 0.5686768293380737
33.95943069458008 -4.531494617462158 0.5593900084495544
33.968082427978516 -4.744943141937256 0.5515236854553223
13.059385299682617 -1.9062763452529907 2.446106433868408
13.147727966308594 -2.0016300678253174 2.4352314472198486
13.214727401733398 -2.094865560531616 2.4262189865112305
13.243730545043945 -2.182845115661621 2.420607566833496
34.003875732421875 -5.818382263183594 0.5109065771102905
12.796931266784668 -2.2708559036254883 2.4556729793548584
34.00944519042969 -6.249834060668945 0.49453407526016235
34.04246139526367 -6.4720845222473145 0.4833487570285797
34.0163688659668 -6.68364953994751 0.47749805450439453
33.96846389770508 -6.8909831047058105 0.4735541045665741
33.9193000793457 -7.097982406616211 0.4696148931980133
33.92046356201172 -7.315767288208008 0.46085527539253235
34.00869369506836 -7.553483486175537 0.4437900483608246
34.084598541259766 -7.790117263793945 0.42769789695739746
34.07646942138672 -8.008604049682617 0.41935089230537415
34.07855224609375 -8.230091094970703 0.40989890694618225
34.08209991455078 -8.452627182006836 0.400162011384964
34.09095001220703 -8.677236557006836 0.38977447152137756
34.11855697631836 -8.907557487487793 0.3774440288543701
34.11671447753906 -9.131077766418457 0.3677678406238556
34.11149597167969 -9.354387283325195 0.3582669794559479
34.129737854003906 -9.584978103637695 0.3463583290576935
34.14164352416992 -9.814770698547363 0.3348972201347351
34.15774154663086 -10.046756744384766 0.3228672444820404
34.15415573120117 -10.273862838745117 0.3125860393047333
34.19474792480469 -10.515351295471191 0.29783833026885986
34.174766540527344 -10.739221572875977 0.28883326053619385
34.169429779052734 -10.968415260314941 0.2782410681247711
34.17202377319336 -11.201051712036133 0.2667076885700226
34.191932678222656 -11.440451622009277 0.2532956302165985
34.176265716552734 -11.668937683105469 0.24323245882987976
34.20890426635742 -11.915020942687988 0.22820036113262177
34.145050048828125 -12.128288269042969 0.22261585295200348
34.0695686340332 -12.337493896484375 0.218067929148674
34.185203552246094 -12.617243766784668 0.19416946172714233
34.30986022949219 -12.903080940246582 0.16909842193126678
34.31235122680664 -13.144979476928711 0.15613742172718048
34.2890510559082 -13.3779878616333 0.14561636745929718
34.262325286865234 -13.610472679138184 0.13527779281139374
33.785491943359375 -13.661764144897461 0.17090916633605957
33.75307846069336 -13.890329360961914 0.1609981209039688
33.67688751220703 -14.101325988769531 0.15544480085372925
33.60028839111328 -14.312302589416504 0.1498042345046997
33.54703140258789 -14.533559799194336 0.1416027992963791
29.49585723876953 -12.994150161743164 0.5511055588722229
33.672367095947266 -15.081514358520508 0.10041475296020508
26.089431762695312 -15.559182167053223 0.6551990509033203
25.869626998901367 -15.64423656463623 0.6658445596694946
25.766849517822266 -15.79897403717041 0.6630350947380066
25.684274673461914 -15.966176986694336 0.657789945602417
25.630088806152344 -16.151531219482422 0.649120569229126
25.638330459594727 -16.377538681030273 0.6329900026321411
25.615516662597656 -16.585323333740234 0.6202818155288696
25.604421615600586 -16.802181243896484 0.6059903502464294
25.567598342895508 -17.0035457611084 0.5945430994033813
20.630748748779297 -13.90388298034668 1.1684871912002563
20.57844352722168 -14.053168296813965 1.1616415977478027
19.975996017456055 -13.822405815124512 1.2211196422576904
19.89133071899414 -13.94524097442627 1.2183094024658203
19.748308181762695 -14.02664566040039 1.222542405128479
19.63492774963379 -14.128329277038574 1.2231320142745972
19.563661575317383 -14.26021671295166 1.2184767723083496
19.548349380493164 -14.43372631072998 1.2067712545394897
19.53243637084961 -14.608179092407227 1.1949563026428223
19.550010681152344 -14.809416770935059 1.1787501573562622
19.527162551879883 -14.98173999786377 1.1674106121063232
19.494285583496094 -15.147624969482422 1.1571624279022217
29.12216567993164 -26.287242889404297 -0.3519785404205322
20.202787399291992 -18.69173812866211 0.8319423794746399
20.08084487915039 -18.80917739868164 0.8300763368606567
20.01597785949707 -18.980587005615234 0.8201076984405518
19.8514347076416 -19.057523727416992 0.8240565061569214
32.3710823059082 31.28107452392578 0.10688840597867966
30.915584564208984 29.5103702545166 0.2814379930496216
31.010013580322266 29.239484786987305 0.2868673503398895
15.52100944519043 14.455527305603027 1.9664137363433838
31.125648498535156 28.63616371154785 0.3048565089702606
31.221363067626953 28.37297248840332 0.3094194233417511
31.150333404541016 27.961843490600586 0.3314388692378998
31.268640518188477 27.723955154418945 0.33309945464134216
31.413700103759766 27.51062774658203 0.3317539393901825
13.553908348083496 11.723139762878418 2.215128183364868
13.560206413269043 11.584095001220703 2.220244884490967
13.601884841918945 11.476273536682129 2.2215704917907715
13.60905647277832 11.340296745300293 2.2263784408569336
13.665874481201172 11.246474266052246 2.2259583473205566
13.686470031738281 11.123457908630371 2.2291839122772217
13.671092987060547 10.972532272338867 2.2359890937805176
13.701253890991211 10.859368324279785 2.238029718399048
13.755661010742188 10.765909194946289 2.237520694732666
13.807071685791016 10.67036247253418 2.237244129180908
13.846735000610352 10.566121101379395 2.2380805015563965
13.888029098510742 10.463595390319824 2.2386739253997803
13.918190002441406 10.353224754333496 2.240305185317993
13.987690925598145 10.272380828857422 2.237926721572876
14.028477668762207 10.170594215393066 2.2383477687835693
14.083134651184082 10.079133987426758 2.237318515777588
14.102191925048828 9.962655067443848 2.239743232727051
14.135885238647461 9.857151985168457 2.2406387329101562
14.182775497436523 9.76121997833252 2.2401604652404785
14.226546287536621 9.66340160369873 2.239919662475586
14.258061408996582 9.557641983032227 2.2408065795898438
14.287984848022461 9.451309204101562 2.2417733669281006
14.320480346679688 9.347147941589355 2.2424144744873047
14.354751586914062 9.244563102722168 2.242810010910034
14.400079727172852 9.149391174316406 2.2420647144317627
14.431269645690918 9.045541763305664 2.242616891860962
14.479530334472656 8.95266056060791 2.241455078125
14.52634334564209 8.859007835388184 2.2403688430786133
14.561450958251953 8.758439064025879 2.240339517593384
14.618155479431152 8.670991897583008 2.2381789684295654
14.740575790405273 8.621928215026855 2.2296996116638184
14.828407287597656 8.551767349243164 2.2244770526885986
14.88820743560791 8.465087890625 2.2218682765960693
14.976189613342285 8.394076347351074 2.216534376144409
14.916439056396484 8.240845680236816 2.2251081466674805
15.1091947555542 8.226887702941895 2.2097768783569336
27.717201232910156 14.873440742492676 1.0264111757278442
27.815515518188477 14.707345008850098 1.0221635103225708
27.93050765991211 14.54980754852295 1.0162445306777954
33.002254486083984 16.68096160888672 0.5519202947616577
32.992942810058594 16.423152923583984 0.5580549240112305
32.92534637451172 16.138450622558594 0.5694499611854553
33.052947998046875 15.950486183166504 0.5625253319740295
33.04086685180664 15.695706367492676 0.5684388279914856
33.09100341796875 15.47164249420166 0.5684292316436768
33.10432815551758 15.231307983398438 0.571682870388031
33.139556884765625 15.00207805633545 0.5727631449699402
33.11769485473633 14.74825668334961 0.5789658427238464
33.08575439453125 14.491668701171875 0.5859408378601074
33.12788772583008 14.268745422363281 0.5859450101852417
33.13549041748047 14.031862258911133 0.5889826416969299
33.15523910522461 13.801164627075195 0.5907615423202515
33.18263244628906 13.57452392578125 0.5916988849639893
33.21404266357422 13.350295066833496 0.592129647731781
33.07713317871094 13.060317039489746 0.6078240275382996
33.10700225830078 12.838089942932129 0.6081078052520752
33.48271560668945 12.74824047088623 0.5766780972480774
33.684959411621094 12.589372634887695 0.5609974265098572
33.704097747802734 12.361590385437012 0.5618999600410461
33.735774993896484 12.139106750488281 0.5615240931510925
33.74626541137695 11.909732818603516 0.5629435181617737
33.71566390991211 11.667001724243164 0.5679643154144287
33.73525619506836 11.442694664001465 0.5682845711708069
33.76093292236328 11.221100807189941 0.5679202079772949
33.77853012084961 10.997459411621094 0.5681586861610413
33.77946853637695 10.769181251525879 0.5697762966156006
33.78268051147461 10.54249095916748 0.5710563063621521
33.79010772705078 10.317911148071289 0.5718232989311218
33.78937530517578 10.091636657714844 0.5732007026672363
33.80721664428711 9.871624946594238 0.5727658271789551
33.818843841552734 9.650404930114746 0.5727658271789551
33.838626861572266 9.432085990905762 0.5719011425971985
33.84547424316406 9.210745811462402 0.5720798969268799
33.84702682495117 8.988653182983398 0.5726110339164734
33.86063766479492 8.77038288116455 0.5719264149665833
33.86994171142578 8.551549911499023 0.5715056657791138
33.87106704711914 8.331265449523926 0.5716997981071472
33.88529968261719 8.114767074584961 0.5705847144126892
33.891361236572266 7.896821975708008 0.5700843334197998
33.902828216552734 7.680648326873779 0.5689722299575806
33.91388702392578 7.464842796325684 0.5677745938301086
33.92455291748047 7.249396324157715 0.5664889216423035
33.92995071411133 7.033288955688477 0.565558671951294
33.94569396972656 6.819741249084473 0.5635706186294556
33.96009826660156 6.60626220703125 0.5615819692611694
33.95260238647461 6.388991832733154 0.5614531636238098
33.955482482910156 6.174198627471924 0.5602661967277527
33.96583557128906 5.961158752441406 0.5582818984985352
33.973873138427734 5.748055458068848 0.556386411190033
33.988433837890625 5.5363569259643555 0.5537796020507812
33.991844177246094 5.323153018951416 0.5520638823509216
33.998836517333984 5.110853672027588 0.5499035120010376
34.01929473876953 4.900796413421631 0.5464015603065491
34.03055953979492 4.6895904541015625 0.5436126589775085
34.03459167480469 4.477649211883545 0.5413622260093689
34.04718780517578 4.26707124710083 0.5382139682769775
34.055511474609375 4.056151390075684 0.5353342294692993
33.57463836669922 3.790191650390625 0.5768791437149048
33.482975006103516 3.5720291137695312 0.582905113697052
33.48701858520508 3.3648927211761475 0.580100417137146
33.50465774536133 3.1592419147491455 0.5759382247924805
33.54285430908203 2.9554224014282227 0.5697786211967468
33.563926696777344 2.7499494552612305 0.565061092376709
33.542030334472656 2.541165351867676 0.5641569495201111
33.59633255004883 2.338146924972534 0.5561593770980835
33.61859130859375 2.1325998306274414 0.550973653793335
15.74509334564209 0.901206374168396 2.188567876815796
15.782959938049316 0.8062922954559326 2.183504343032837
15.786429405212402 0.7094237804412842 2.1815428733825684
15.786322593688965 0.6124259233474731 2.1798551082611084
15.793578147888184 0.5157154202461243 2.1774330139160156
15.81915283203125 0.41944098472595215 2.173262357711792
15.823235511779785 0.32244330644607544 2.1710174083709717
15.817760467529297 0.22528186440467834 2.16960072517395
33.71033477783203 0.27474015951156616 0.5088684558868408
33.704017639160156 0.06795084476470947 0.5051202774047852
33.7083740234375 -0.13880176842212677 0.5002601146697998
33.74033737182617 -0.3459027111530304 0.4927096664905548
12.926217079162598 -0.2125973254442215 2.428759813308716
11.966926574707031 -0.27034685015678406 2.516496419906616
12.163951873779297 -0.34944137930870056 2.4963154792785645
