# .PCD v0.7 - Point Cloud Data file format
VERSION 0.7
FIELDS x y z
SIZE 4 4 4
TYPE F F F
COUNT 1 1 1
WIDTH 847
HEIGHT 1
VIEWPOINT 0 0 0 1 0 0 0
POINTS 847
DATA ascii
14.08232307434082 10.078554153442383 2.237398862838745
14.12172794342041 9.976458549499512 2.23781156539917
14.145695686340332 9.863993644714355 2.2396717071533203
14.177848815917969 9.757828712463379 2.240644693374634
14.214179039001465 9.654999732971191 2.241131544113159
14.253922462463379 9.554865837097168 2.241211175918579
14.283829689025879 9.448559761047363 2.242178440093994
14.308795928955078 9.339520454406738 2.2435498237609863
14.353075981140137 9.243483543395996 2.2429723739624023
14.390825271606445 9.143511772155762 2.2429592609405518
14.432113647460938 9.04607105255127 2.242535352706909
14.473596572875977 8.948990821838379 2.242025852203369
14.523791313171387 8.857452392578125 2.2406136989593506
14.562304496765137 8.758953094482422 2.240257740020752
14.60958480834961 8.66590690612793 2.238997459411621
14.7354154586792 8.618907928466797 2.2301909923553467
14.819774627685547 8.546788215637207 2.2252979278564453
14.922861099243164 8.484793663024902 2.218581199645996
14.986621856689453 8.399924278259277 2.2155468463897705
15.076068878173828 8.329050064086914 2.2100303173065186
15.106569290161133 8.225458145141602 2.21002459526062
27.720712661743164 14.875326156616211 1.02608060836792
27.79084587097168 14.694300651550293 1.0244801044464111
27.880130767822266 14.52356243133545 1.0209661722183228
33.046470642089844 16.449798583984375 0.5530641674995422
32.94055938720703 16.145906448364258 0.5680342316627502
33.030513763427734 15.939657211303711 0.5646095871925354
33.02196502685547 15.686726570129395 0.5701925158500671
33.09100341796875 15.47164249420166 0.5684292316436768
33.10614013671875 15.232141494750977 0.5715149641036987
33.138648986816406 15.001667022705078 0.5728463530540466
33.13407897949219 14.755553245544434 0.5774543285369873
33.087581634521484 14.49246883392334 0.5857727527618408
33.109580993652344 14.260862350463867 0.5876286029815674
33.13274002075195 14.030695915222168 0.5892355442047119
33.157997131347656 13.802313804626465 0.5905083417892456
33.175254821777344 13.571505546569824 0.5923753380775452
33.204795837402344 13.346578598022461 0.5929770469665527
33.07898712158203 13.061049461364746 0.6076540946960449
33.11629104614258 12.841692924499512 0.6072586178779602
33.46875 12.742921829223633 0.5779533386230469
33.66722869873047 12.582743644714355 0.5626148581504822
33.693809509277344 12.357815742492676 0.5628376007080078
33.71796417236328 12.132696151733398 0.5631468296051025
33.734989166259766 11.905753135681152 0.5639700293540955
33.74296951293945 11.676450729370117 0.5654816031455994
33.744693756103516 11.44589614868164 0.5674270391464233
33.761878967285156 11.221414566040039 0.5678342580795288
33.77284622192383 10.99560832977295 0.5686739683151245
33.765228271484375 10.764640808105469 0.5710681080818176
33.77983093261719 10.541600227355957 0.5713145136833191
33.80249786376953 10.321693420410156 0.5707011222839355
33.791282653808594 10.092206954956055 0.5730274319648743
33.808170318603516 9.871903419494629 0.5726792812347412
33.82075881958008 9.650951385498047 0.5725929737091064
33.835750579833984 9.431283950805664 0.5721608996391296
33.846435546875 9.211007118225098 0.571992814540863
33.84991455078125 8.989419937133789 0.5723501443862915
33.84906005859375 8.767383575439453 0.5729727149009705
33.86125183105469 8.549354553222656 0.5722917914390564
33.87590408325195 8.332454681396484 0.5712621212005615
33.89111328125 8.116159439086914 0.5700592994689941
33.90591049194336 7.900214195251465 0.568768322467804
33.89602279663086 7.679107189178467 0.5695876479148865
33.908050537109375 7.463557720184326 0.5683019161224365
33.92455291748047 7.249396324157715 0.5664889216423035
33.93092727661133 7.033491134643555 0.5654703974723816
33.94862365722656 6.820329666137695 0.5633055567741394
33.95325469970703 6.604930400848389 0.5622013211250305
33.94379425048828 6.38733434677124 0.5622507929801941
33.95842361450195 6.174734115600586 0.5600000619888306
33.967796325683594 5.961503028869629 0.5581040978431702
33.980743408203125 5.749218463897705 0.5557636618614197
33.989418029785156 5.536517143249512 0.553690493106842
34.0036506652832 5.325002670288086 0.5509936213493347
34.00572967529297 5.111889839172363 0.5492783188819885
34.01042175292969 4.899518013000488 0.5472065806388855
34.022666931152344 4.688502788543701 0.5443298816680908
34.04446792602539 4.478948593139648 0.5404656529426575
34.052127838134766 4.267691135406494 0.5377652049064636
34.05748748779297 4.056386947631836 0.5351545214653015
33.607295989990234 3.793879985809326 0.5739052891731262
33.476043701171875 3.571289300918579 0.583536684513092
33.48701858520508 3.3648927211761475 0.580100417137146
33.50564956665039 3.1593353748321533 0.5758477449417114
33.54285430908203 2.9554224014282227 0.5697786211967468
33.58675765991211 2.7518208026885986 0.5629740953445435
33.52018737792969 2.5395095348358154 0.566156804561615
33.620174407958984 2.3398070335388184 0.5539753437042236
33.56890106201172 2.1294455528259277 0.5555310845375061
15.743104934692383 0.9010924100875854 2.1887502670288086
15.777989387512207 0.8060379028320312 2.1839613914489746
15.790410041809082 0.709602952003479 2.1811766624450684
15.792290687561035 0.6126579642295837 2.179305076599121
15.797557830810547 0.515845775604248 2.177065849304199
15.824130058288574 0.4195733368396759 2.1728029251098633
15.83020305633545 0.3225858509540558 2.1703732013702393
15.815768241882324 0.22525334358215332 2.169785261154175
33.722286224365234 0.27483803033828735 0.5077611207962036
33.68510055541992 0.0679120197892189 0.5068759322166443
33.69940948486328 -0.13876521587371826 0.5010936856269836
33.722415924072266 -0.3457196354866028 0.49437808990478516
12.926217079162598 -0.2125973254442215 2.428759813308716
11.943037033081055 -0.26980966329574585 2.5187273025512695
12.196796417236328 -0.350381463766098 2.49324369430542
12.836075782775879 -0.44749876856803894 2.4315247535705566
33.788429260253906 -1.3834611177444458 0.46348875761032104
33.76994705200195 -1.5902626514434814 0.45991116762161255
13.152304649353027 -0.7010098695755005 2.395693063735962
12.825592994689941 -0.7625557780265808 2.424342632293701
12.816547393798828 -0.8409497737884521 2.423038959503174
11.9371337890625 -0.8569091558456421 2.5040783882141113
12.734487533569336 -0.9926227927207947 2.4263651371002197
12.865901947021484 -1.0823003053665161 2.4115941524505615
33.8332633972168 -3.0531888008117676 0.41322410106658936
12.50749397277832 -1.2069016695022583 2.441018581390381
33.89344024658203 -3.4783575534820557 0.3946962356567383
33.90468978881836 -3.689844846725464 0.387025386095047
33.8997917175293 -3.899897813796997 0.3807709217071533
33.909400939941406 -4.111948490142822 0.37299197912216187
33.91471481323242 -4.323887825012207 0.3654908835887909
33.924625396728516 -4.536841869354248 0.3574119210243225
33.943050384521484 -4.751461505889893 0.34837082028388977
33.95519256591797 -4.965760231018066 0.33979734778404236
33.95515823364258 -5.178739070892334 0.33226773142814636
33.961647033691406 -5.393155574798584 0.32396525144577026
33.984458923339844 -5.6107659339904785 0.313928484916687
33.97742462158203 -5.823985576629639 0.30666542053222656
13.282997131347656 -2.361567497253418 2.3300745487213135
34.003379821777344 -6.258905410766602 0.287791907787323
34.026493072509766 -6.47926664352417 0.277133971452713
34.00813674926758 -6.692271709442139 0.2704242169857025
33.94649887084961 -6.896777629852295 0.2678699493408203
33.91481018066406 -7.107314109802246 0.2622267007827759
33.94990921020508 -7.3324294090271 0.24979527294635773
33.9621467590332 -7.55349063873291 0.23948383331298828
34.02436065673828 -7.786746978759766 0.22400784492492676
34.04526901245117 -8.01170539855957 0.21249932050704956
34.02986526489258 -8.228797912597656 0.2044871747493744
34.00920867919922 -8.445043563842773 0.1968604028224945
34.06047821044922 -8.680024147033691 0.18180282413959503
34.05236053466797 -8.90085506439209 0.17259441316127777
34.11491012573242 -9.141230583190918 0.15602955222129822
34.090370178222656 -9.35926342010498 0.1481732726097107
34.07305908203125 -9.579766273498535 0.1394287794828415
34.1126594543457 -9.817198753356934 0.1246790960431099
34.07234191894531 -10.032430648803711 0.11798574030399323
34.03828811645508 -10.249836921691895 0.11050453037023544
25.65789031982422 -9.83843994140625 0.8683096766471863
25.65957260131836 -10.385005950927734 0.8375579118728638
25.627220153808594 -10.555456161499023 0.8306089639663696
25.605669021606445 -10.730899810791016 0.8223486542701721
25.928035736083984 -11.431780815124512 0.753754198551178
25.579248428344727 -11.466085433959961 0.7812660932540894
25.566001892089844 -11.64915943145752 0.7713536024093628
25.546953201293945 -11.830412864685059 0.7619417905807495
33.29794692993164 -19.321083068847656 -0.36301159858703613
33.29914855957031 -19.59607696533203 -0.38208097219467163
33.19487380981445 -19.810142517089844 -0.3886451721191406
20.300830841064453 -13.510259628295898 1.0738605260849
20.09850311279297 -13.554450988769531 1.0861608982086182
19.759279251098633 -13.502973556518555 1.115978479385376
19.586626052856445 -13.562207221984863 1.1247156858444214
19.504365921020508 -13.683226585388184 1.12184739112854
19.4748592376709 -13.84177303314209 1.1120599508285522
19.47480583190918 -14.022550582885742 1.0982751846313477
19.260339736938477 -14.048562049865723 1.1123528480529785
19.45929527282715 -14.563191413879395 1.057686448097229
19.43662452697754 -14.73332691192627 1.046067237854004
19.385772705078125 -14.883142471313477 1.0380325317382812
19.23307991027832 -15.145038604736328 1.028418779373169
19.43724822998047 -15.500151634216309 0.9852158427238464
28.76187515258789 -23.815412521362305 -0.3566586971282959
28.764070510864258 -24.116580963134766 -0.3814409673213959
28.71285057067871 -24.37555503845215 -0.39911267161369324
28.691200256347656 -24.66202735900879 -0.42126959562301636
28.733110427856445 -25.006593704223633 -0.45283088088035583
28.630111694335938 -25.227706909179688 -0.46413835883140564
20.91010284423828 -18.65496253967285 0.6216426491737366
20.780126571655273 -18.76953125 0.6209120750427246
20.361169815063477 -18.61953353881836 0.6622860431671143
20.095882415771484 -18.60492706298828 0.6815690398216248
19.87508201599121 -18.628568649291992 0.6944700479507446
19.704517364501953 -18.697425842285156 0.7000038027763367
19.538162231445312 -18.769025802612305 0.7049228549003601
15.525836944580078 14.444893836975098 1.8473917245864868
13.094013214111328 11.596516609191895 2.1539931297302246
13.110723495483398 11.468744277954102 2.1584508419036865
13.136163711547852 11.3496732711792 2.161813497543335
13.17200756072998 11.240425109863281 2.1639082431793213
13.216911315917969 11.13951301574707 2.164900541305542
13.244226455688477 11.024446487426758 2.167754650115967
13.278326988220215 10.915793418884277 2.1697607040405273
13.311594009399414 10.807136535644531 2.1717653274536133
13.350248336791992 10.70346736907959 2.173088312149048
13.401412963867188 10.610247611999512 2.1729612350463867
13.422894477844238 10.494091987609863 2.175983190536499
13.465540885925293 10.395122528076172 2.176616668701172
13.502724647521973 10.292400360107422 2.1777594089508057
13.540748596191406 10.190811157226562 2.1787283420562744
13.570037841796875 10.083198547363281 2.180551528930664
13.603339195251465 9.979146003723145 2.181859254837036
13.640716552734375 9.878570556640625 2.182650566101074
13.678184509277344 9.778491973876953 2.1833529472351074
13.719820976257324 9.681770324707031 2.1835362911224365
13.75343132019043 9.579780578613281 2.1844911575317383
13.786307334899902 9.477744102478027 2.185443878173828
13.8258695602417 9.380696296691895 2.185617446899414
13.861449241638184 9.281304359436035 2.18613338470459
13.898824691772461 9.183473587036133 2.186387062072754
13.931350708007812 9.08281421661377 2.187070608139038
13.971543312072754 8.9874906539917 2.1868844032287598
14.016136169433594 8.895217895507812 2.1861727237701416
14.062658309936523 8.8043212890625 2.185194730758667
14.089099884033203 8.701147079467773 2.1862142086029053
14.142026901245117 8.614564895629883 2.1844425201416016
14.18332290649414 8.520990371704102 2.18379807472229
14.242000579833984 8.437896728515625 2.1813130378723145
14.305351257324219 8.35741901397705 2.1782939434051514
14.416833877563477 8.187211036682129 2.173628091812134
14.47963809967041 8.105929374694824 2.1704916954040527
14.645767211914062 8.081464767456055 2.156876802444458
15.059765815734863 8.189970016479492 2.118299722671509
15.823278427124023 8.480057716369629 2.0447006225585938
28.01543426513672 14.79550838470459 0.8255939483642578
27.692665100097656 14.408658981323242 0.8633389472961426
27.74028778076172 14.218083381652832 0.8638189435005188
27.838191986083984 14.053502082824707 0.8591563105583191
27.887845993041992 13.864747047424316 0.8591808676719666
27.929973602294922 13.672846794128418 0.8598244190216064
32.3485221862793 15.347594261169434 0.43162083625793457
32.64921569824219 15.24582576751709 0.4070008397102356
33.0322151184082 15.178790092468262 0.37418675422668457
33.13064193725586 14.978769302368164 0.36936691403388977
33.12684631347656 14.733177185058594 0.37447160482406616
33.08113479614258 14.47062873840332 0.3835316598415375
33.098419189453125 14.237139701843262 0.38623884320259094
33.12692642211914 14.009415626525879 0.38769251108169556
33.15940475463867 13.784168243408203 0.388607382774353
33.184837341308594 13.556787490844727 0.39006441831588745
33.20133972167969 13.326643943786621 0.3922450840473175
33.08100509643555 13.043464660644531 0.40762367844581604
33.113548278808594 12.822327613830566 0.4079306721687317
33.449947357177734 12.717379570007324 0.37852203845977783
33.65473175048828 12.559679985046387 0.36182695627212524
33.67929458618164 12.334176063537598 0.362527459859848
33.70142364501953 12.108508110046387 0.3633207380771637
33.72674560546875 11.884682655334473 0.3636609613895416
33.71953201293945 11.650269508361816 0.3670114278793335
33.729583740234375 11.422778129577637 0.3685453534126282
33.74567413330078 11.198110580444336 0.36935245990753174
33.75459671020508 10.97182559967041 0.370711088180542
33.761070251464844 10.745548248291016 0.37216639518737793
33.773643493652344 10.521973609924316 0.37289270758628845
33.78855895996094 10.29980754852295 0.37325483560562134
33.78580093383789 10.073015213012695 0.37518367171287537
33.79108810424805 9.8494291305542 0.37619873881340027
33.80736541748047 9.629703521728516 0.37601789832115173
33.81741714477539 9.408809661865234 0.3763006925582886
33.82603454589844 9.188154220581055 0.3765869438648224
33.840919494628906 8.969785690307617 0.3761358857154846
33.8380126953125 8.74734115600586 0.3772626221179962
33.85200119018555 8.529891014099121 0.37663134932518005
33.85879135131836 8.311172485351562 0.37655842304229736
33.871917724609375 8.0945405960083 0.375744104385376
33.87881851196289 7.876929759979248 0.37539786100387573
33.869754791259766 7.656243801116943 0.37645581364631653
33.88843536376953 7.442371845245361 0.37471410632133484
33.90382385253906 7.228140830993652 0.37315818667411804
33.9188346862793 7.0142011642456055 0.3715101480484009
33.9295654296875 6.799759387969971 0.3701426088809967
33.93699264526367 6.585068225860596 0.3689647912979126
33.937191009521484 6.369437217712402 0.36835411190986633
33.95365524291992 6.157247543334961 0.36604931950569153
33.959964752197266 5.94354772567749 0.36459270119667053
33.9718017578125 5.7311601638793945 0.3624761402606964
33.9793701171875 5.518369674682617 0.360643595457077
33.984622955322266 5.305545330047607 0.3589065968990326
33.994449615478516 5.093748092651367 0.35660088062286377
34.0 4.881601810455322 0.35458096861839294
34.009159088134766 4.670255184173584 0.3520854413509369
34.0239143371582 4.459882736206055 0.34892308712005615
34.03144073486328 4.248762607574463 0.34633079171180725
34.035682678222656 4.03748083114624 0.34393006563186646
32.57167053222656 3.6613142490386963 0.48342832922935486
32.7326774597168 3.476292133331299 0.4656970500946045
32.366703033447266 3.2368009090423584 0.49886950850486755
32.8097038269043 3.078031539916992 0.45355409383773804
32.842430114746094 2.8780336380004883 0.44785431027412415
32.59914016723633 2.655346155166626 0.4688287377357483
33.0372200012207 2.487201452255249 0.4235062897205353
32.595680236816406 2.252983570098877 0.46354684233665466
32.887611389160156 2.070601224899292 0.4321351945400238
15.737187385559082 0.8928704857826233 2.1004161834716797
15.77795696258545 0.7981414794921875 2.094878911972046
15.785344123840332 0.7014822363853455 2.0925347805023193
15.777219772338867 0.6041880249977112 2.0916473865509033
15.795353889465332 0.5078858137130737 2.0881333351135254
15.8208589553833 0.41159072518348694 2.083833932876587
15.827863693237305 0.3146422803401947 2.081284999847412
15.812382698059082 0.21731846034526825 2.0808842182159424
32.74003982543945 0.2513400614261627 0.4140196740627289
32.73855972290039 0.050515349954366684 0.4099460244178772
32.76272201538086 -0.1504058986902237 0.4032217562198639
12.488517761230469 -0.13521979749202728 2.4008467197418213
12.496252059936523 -0.211968332529068 2.3983306884765625
12.514458656311035 -0.2890687882900238 2.394728183746338
12.828607559204102 -0.3750188648700714 2.361720323562622
12.853750228881836 -0.4546789824962616 2.3572773933410645
12.861495018005371 -0.5339635610580444 2.354509115219116
32.907020568847656 -1.5652146339416504 0.35494717955589294
13.103056907653809 -0.7050769925117493 2.326251745223999
12.851984977722168 -0.7707013487815857 2.3491647243499756
12.828980445861816 -0.8483378887176514 2.3492720127105713
12.559380531311035 -0.9079692959785461 2.3740766048431396
12.817281723022461 -1.0056476593017578 2.3459115028381348
12.236645698547363 -1.035752534866333 2.402031660079956
33.12064743041992 -3.004652738571167 0.29312658309936523
12.030577659606934 -1.167175531387329 2.4182400703430176
33.15861511230469 -3.418773651123047 0.2765231728553772
33.15835189819336 -3.6244702339172363 0.2699626386165619
33.153839111328125 -3.829951524734497 0.26369982957839966
33.223106384277344 -4.044650554656982 0.2497880458831787
33.09953689575195 -4.235856056213379 0.2553951144218445
32.95317840576172 -4.42279052734375 0.2632494568824768
33.89937973022461 -4.761636734008789 0.15903139114379883
33.91731643676758 -4.976548194885254 0.14961740374565125
33.891597747802734 -5.1853928565979 0.14454655349254608
33.75357437133789 -5.376436710357666 0.15093396604061127
33.734230041503906 -5.585803508758545 0.14496640861034393
33.86261749267578 -5.820746898651123 0.12354761362075806
29.22074317932129 -5.207921028137207 0.5976194143295288
33.7720947265625 -6.23281192779541 0.1162567213177681
33.711273193359375 -6.435737133026123 0.1140478178858757
33.754642486572266 -6.658941268920898 0.10081499069929123
25.47429847717285 -9.603143692016602 0.7435452342033386
25.24557876586914 -9.69434642791748 0.7593873143196106
25.376970291137695 -9.923961639404297 0.734112560749054
25.362356185913086 -10.098180770874023 0.7253226041793823
25.470050811767578 -10.322635650634766 0.7023123502731323
25.428850173950195 -10.488139152526855 0.696255624294281
25.410415649414062 -10.663530349731445 0.687435507774353
25.440166473388672 -10.86016845703125 0.6728620529174805
25.448387145996094 -11.048863410949707 0.6606150269508362
25.408855438232422 -11.217591285705566 0.6537964344024658
25.427169799804688 -11.412712097167969 0.6400352716445923
25.473894119262695 -11.622097969055176 0.622729480266571
25.44773292541504 -11.799449920654297 0.6138573884963989
20.56104278564453 -13.336462020874023 0.9280484914779663
20.456899642944336 -13.448124885559082 0.9281208515167236
20.435712814331055 -13.614666938781738 0.9171011447906494
19.614973068237305 -13.242619514465332 1.012751817703247
19.52236557006836 -13.355382919311523 1.0115244388580322
19.439733505249023 -13.474869728088379 1.0088756084442139
19.356369018554688 -13.593847274780273 1.0062367916107178
19.335445404052734 -13.757246971130371 0.9949861168861389
19.942955017089844 -14.374723434448242 0.8973152041435242
19.614166259765625 -14.50717544555664 0.9127452373504639
19.47593116760254 -14.59085750579834 0.9168451428413391
19.36353874206543 -14.693217277526855 0.9173029661178589
19.250131607055664 -14.983341217041016 0.9022434949874878
19.311695098876953 -15.611084938049316 0.845066249370575
19.291337966918945 -15.791546821594238 0.8313674330711365
27.62535285949707 -22.897390365600586 -0.40359050035476685
27.447311401367188 -23.03573226928711 -0.40199631452560425
27.246654510498047 -23.154094696044922 -0.3971259593963623
27.051605224609375 -23.276052474975586 -0.39311984181404114
26.874820709228516 -23.412811279296875 -0.3918880522251129
26.704830169677734 -23.554851531982422 -0.3917526304721832
20.55439567565918 -18.584447860717773 0.4954715073108673
20.33332061767578 -18.61288833618164 0.5089827179908752
20.079875946044922 -18.608930587768555 0.527610719203949
19.859865188598633 -18.633163452148438 0.5412120223045349
19.684268951416016 -18.697141647338867 0.5479673147201538
19.47569465637207 -18.72799301147461 0.559952974319458
15.513580322265625 14.46342945098877 1.7169394493103027
12.972298622131348 11.800569534301758 2.0457844734191895
13.0072021484375 11.687500953674316 2.048696994781494
13.030035972595215 11.564533233642578 2.052964210510254
13.065333366394043 11.453542709350586 2.055605173110962
13.119338035583496 11.359501838684082 2.055889844894409
13.158299446105957 11.2529296875 2.057891368865967
13.18427562713623 11.136027336120605 2.06134295463562
13.224611282348633 11.031988143920898 2.062978744506836
13.268011093139648 10.931037902832031 2.0641567707061768
13.302172660827637 10.823055267333984 2.0663328170776367
13.337841033935547 10.716938018798828 2.068234443664551
13.37427043914795 10.612027168273926 2.0699517726898193
13.40991497039795 10.507072448730469 2.071667194366455
13.443989753723145 10.401469230651855 2.073472023010254
13.476484298706055 10.29524040222168 2.075366973876953
13.514543533325195 10.193799018859863 2.0765278339385986
13.557456970214844 10.096441268920898 2.0770437717437744
13.590859413146973 9.992452621459961 2.078565835952759
13.625916481018066 9.89018726348877 2.079810619354248
13.659421920776367 9.787287712097168 2.0811452865600586
13.700309753417969 9.690098762512207 2.081556558609009
13.737253189086914 9.590495109558105 2.0823333263397217
13.773491859436035 9.490802764892578 2.0831072330474854
13.80984878540039 9.391586303710938 2.0837857723236084
13.842201232910156 9.290060043334961 2.084831953048706
13.876317977905273 9.19013786315918 2.0855982303619385
13.912233352661133 9.091782569885254 2.0860836505889893
13.949975967407227 8.994949340820312 2.0862877368927
13.987053871154785 8.897994041442871 2.0864884853363037
14.025155067443848 8.801980018615723 2.0864996910095215
14.067684173583984 8.708976745605469 2.0859479904174805
14.091755867004395 8.604887962341309 2.087350368499756
14.144933700561523 8.518806457519531 2.085484027862549
14.183032035827637 8.423751831054688 2.0851993560791016
14.221357345581055 8.32905387878418 2.0848171710968018
14.259916305541992 8.234699249267578 2.084336996078491
14.302179336547852 8.142646789550781 2.083383560180664
14.354269027709961 8.056231498718262 2.0812978744506836
14.56525993347168 8.057669639587402 2.0619959831237793
14.868576049804688 8.106857299804688 2.0327610969543457
15.829888343811035 8.505534172058105 1.9328581094741821
27.533374786376953 14.576772689819336 0.6811739206314087
27.59012222290039 14.391045570373535 0.681093692779541
27.621719360351562 14.192885398864746 0.6835628151893616
27.641267776489258 13.989482879638672 0.6871700286865234
27.703022003173828 13.808133125305176 0.6861355900764465
27.79576301574707 13.642338752746582 0.681676983833313
27.916194915771484 13.489784240722656 0.6741626262664795
28.108612060546875 13.370899200439453 0.658919632434845
28.453874588012695 13.321908950805664 0.6274409890174866
32.67906951904297 15.056554794311523 0.18660257756710052
33.111263275146484 15.010361671447754 0.14654693007469177
33.13590621948242 14.77739143371582 0.14932146668434143
33.09786605834961 14.51789379119873 0.15851213037967682
33.09262466430664 14.274397850036621 0.1640804409980774
33.12413787841797 14.047836303710938 0.16562925279140472
33.1531982421875 13.821038246154785 0.16727516055107117
33.17428207397461 13.591769218444824 0.16959667205810547
33.206729888916016 13.367962837219238 0.1705726683139801
33.09143829345703 13.08643627166748 0.18678465485572815
33.09457015991211 12.853671073913574 0.19048380851745605
33.41229248046875 12.741937637329102 0.16132472455501556
33.63386154174805 12.590843200683594 0.14206108450889587
33.634342193603516 12.356508255004883 0.14561808109283447
33.6622428894043 12.133102416992188 0.14617504179477692
33.65019989013672 11.896215438842773 0.15071521699428558
33.67131423950195 11.671992301940918 0.15166790783405304
33.68717956542969 11.446674346923828 0.15301157534122467
33.70248794555664 11.22191333770752 0.15426111221313477
33.70117950439453 10.99245548248291 0.1570761501789093
33.71633529663086 10.769186973571777 0.1580406278371811
33.72337341308594 10.54406452178955 0.15969371795654297
33.7355842590332 10.321297645568848 0.16066581010818481
33.73870849609375 10.096494674682617 0.16242536902427673
33.74320602416992 9.872875213623047 0.16389550268650055
33.76441955566406 9.654777526855469 0.16350291669368744
33.77943420410156 9.435450553894043 0.16360248625278473
33.78150939941406 9.21315860748291 0.16488710045814514
33.793670654296875 8.994264602661133 0.16499239206314087
33.79574966430664 8.773314476013184 0.16598986089229584
33.791568756103516 8.551456451416016 0.16748647391796112
33.80913162231445 8.335693359375 0.16661085188388824
33.81951141357422 8.118640899658203 0.16633166372776031
33.83043670654297 7.902225017547607 0.16585543751716614
33.83804702758789 7.685537338256836 0.16557978093624115
33.84330368041992 7.468836784362793 0.1654062122106552
33.85787582397461 7.254651069641113 0.1641387641429901
33.855506896972656 7.037326335906982 0.16446943581104279
33.880035400390625 6.825998783111572 0.16190563142299652
33.88078308105469 6.610250949859619 0.16164129972457886
33.88798904418945 6.3962249755859375 0.16057847440242767
33.902645111083984 6.183963298797607 0.15861399471759796
33.8905029296875 5.9672746658325195 0.15926139056682587
33.906402587890625 5.755959987640381 0.1568969339132309
33.91804504394531 5.544190883636475 0.15483379364013672
33.931312561035156 5.332955837249756 0.1524682641029358
33.94621276855469 5.1222100257873535 0.14979839324951172
33.958824157714844 4.911336898803711 0.14722856879234314
33.96323013305664 4.699544429779053 0.14536620676517487
33.97124481201172 4.488531589508057 0.14299771189689636
33.98978805541992 4.279085636138916 0.139412060379982
34.001121520996094 4.068869590759277 0.13643230497837067
32.49187088012695 3.6863229274749756 0.28983238339424133
32.40068435668945 3.4748682975769043 0.29723501205444336
32.365535736083984 3.2704691886901855 0.298746258020401
32.374656677246094 3.0709497928619385 0.2955694794654846
32.35281753540039 2.8688037395477295 0.29545900225639343
32.35054397583008 2.668755531311035 0.2932051122188568
32.33116149902344 2.467629909515381 0.2925927937030792
32.39983367919922 2.273104429244995 0.28274810314178467
32.43854522705078 2.075984477996826 0.2758665680885315
15.760344505310059 0.9118015170097351 2.0011098384857178
15.776359558105469 0.815680742263794 1.9979273080825806
15.78880786895752 0.7192608118057251 1.9950499534606934
15.794703483581543 0.6224826574325562 1.9927887916564941
15.797018051147461 0.5255588889122009 1.990836501121521
15.818629264831543 0.42916786670684814 1.986811637878418
15.825725555419922 0.3322383165359497 1.984233021736145
15.809353828430176 0.23489727079868317 1.984039306640625
32.50474166870117 0.28316497802734375 0.23730330169200897
32.67848205566406 0.08423186838626862 0.21495668590068817
32.63119888305664 -0.1160404235124588 0.21559184789657593
32.56379699707031 -0.3155488967895508 0.2182188779115677
32.40766906738281 -0.5128516554832458 0.2300538718700409
32.42832946777344 -0.7121645212173462 0.22320742905139923
32.41992950439453 -0.9109702706336975 0.2192852646112442
32.403350830078125 -1.109464168548584 0.21609675884246826
12.895825386047363 -0.520533561706543 2.2718894481658936
32.52847671508789 -1.5134810209274292 0.19259469211101532
13.063895225524902 -0.6879480481147766 2.249889850616455
12.85276985168457 -0.7559140920639038 2.2700960636138916
12.85466480255127 -0.8351854085922241 2.2676751613616943
12.849124908447266 -0.9140154123306274 2.265991449356079
12.863923072814941 -0.9944199919700623 2.262087345123291
32.951473236083984 -2.7512905597686768 0.11327305436134338
12.006595611572266 -1.0764665603637695 2.3490400314331055
12.786335945129395 -1.8623807430267334 2.2413156032562256
29.242660522460938 -5.180393218994141 0.41319847106933594
19.605058670043945 -6.688018798828125 1.3203829526901245
19.599605560302734 -6.955926895141602 1.3058240413665771
19.4936580657959 -7.053354263305664 1.3106766939163208
19.393783569335938 -7.152154445648193 1.3147704601287842
19.32505989074707 -7.261882781982422 1.3150885105133057
19.274280548095703 -7.37814474105835 1.3131824731826782
19.247804641723633 -7.5038042068481445 1.3082619905471802
19.228818893432617 -7.632719039916992 1.3023332357406616
19.23200798034668 -7.770991325378418 1.2935991287231445
25.409900665283203 -10.449331283569336 0.5304997563362122
25.421920776367188 -10.637205123901367 0.5176650285720825
25.406986236572266 -10.81472396850586 0.5079674124717712
25.406328201293945 -10.99917221069336 0.49634864926338196
25.383441925048828 -11.174812316894531 0.48731255531311035
25.3638858795166 -11.352617263793945 0.47770819067955017
25.421781539916992 -11.56640338897705 0.4582679867744446
25.413066864013672 -11.751301765441895 0.44694554805755615
25.385053634643555 -11.928078651428223 0.43787911534309387
20.619749069213867 -13.164997100830078 0.7848618030548096
20.341440200805664 -13.163857460021973 0.8094011545181274
20.08137321472168 -13.171244621276855 0.8315696120262146
19.839366912841797 -13.187491416931152 0.851359486579895
19.61440086364746 -13.212369918823242 0.8688794374465942
19.464540481567383 -13.2859468460083 0.8758687973022461
19.383134841918945 -13.405644416809082 0.8731117844581604
19.34084701538086 -13.552773475646973 0.8646571040153503
19.32258415222168 -13.71771240234375 0.8525869846343994
19.315113067626953 -13.891637802124023 0.8387585282325745
19.30542755126953 -14.065401077270508 0.8250356316566467
19.286338806152344 -14.233670234680176 0.8124719858169556
19.293746948242188 -14.423049926757812 0.7958042621612549
19.279756546020508 -14.598066329956055 0.7820497155189514
19.273008346557617 -14.78010082244873 0.7669954895973206
19.286705017089844 -14.979660034179688 0.7486435770988464
19.27603530883789 -15.16213607788086 0.7336806654930115
19.28636932373047 -15.362988471984863 0.7152968645095825
19.292638778686523 -15.562666893005371 0.6972487568855286
19.296405792236328 -15.762370109558105 0.679302990436554
19.312213897705078 -15.974098205566406 0.659218966960907
19.302539825439453 -16.166845321655273 0.6427737474441528
19.32984733581543 -16.392831802368164 0.620293378829956
19.404817581176758 -16.662452697753906 0.5899897813796997
20.810508728027344 -18.54673957824707 0.30760616064071655
20.560270309448242 -18.5516300201416 0.3265726566314697
20.32982635498047 -18.571565628051758 0.3425036072731018
20.054723739624023 -18.547582626342773 0.3658466637134552
19.858972549438477 -18.594221115112305 0.37640610337257385
19.641067504882812 -18.617990493774414 0.39069104194641113
19.448699951171875 -18.66385269165039 0.400849848985672
15.510595321655273 14.461034774780273 1.5792380571365356
12.922775268554688 11.901152610778809 1.930201768875122
12.951147079467773 11.781481742858887 1.934404730796814
14.3414945602417 12.886626243591309 1.7605326175689697
14.391752243041992 12.773313522338867 1.7624388933181763
14.489058494567871 12.701861381530762 1.7581387758255005
14.530349731445312 12.581482887268066 1.7610013484954834
13.134342193603516 11.232644081115723 1.9482496976852417
13.174654960632324 11.128110885620117 1.950217843055725
13.218002319335938 11.026694297790527 1.9516969919204712
13.263673782348633 10.927695274353027 1.9527828693389893
13.29859447479248 10.82038402557373 1.955132246017456
13.33813190460205 10.717418670654297 1.9567971229553223
13.365992546081543 10.605714797973633 1.9598267078399658
13.398469924926758 10.498368263244629 1.9621719121932983
13.439580917358398 10.398331642150879 1.9633418321609497
13.481551170349121 10.29939079284668 1.9643125534057617
13.508514404296875 10.18954086303711 1.967044711112976
13.549803733825684 10.091039657592773 1.9679120779037476
13.588791847229004 9.991235733032227 1.9689724445343018
13.627870559692383 9.89191722869873 1.9699312448501587
13.659772872924805 9.787856101989746 1.9716745615005493
13.696599006652832 9.687800407409668 1.9727267026901245
13.729449272155762 9.585379600524902 1.9741706848144531
13.770574569702148 9.48913288116455 1.9745265245437622
13.81103515625 9.392740249633789 1.9748783111572266
13.845048904418945 9.292325973510742 1.975919246673584
13.880011558532715 9.19294548034668 1.9767593145370483
13.915942192077637 9.094573974609375 1.9773988723754883
13.950353622436523 8.99556827545166 1.9781346321105957
13.981555938720703 8.894878387451172 1.97916579246521
14.021320343017578 8.799962043762207 1.9791008234024048
14.053678512573242 8.700701713562012 1.9798285961151123
14.093840599060059 8.606560707092285 1.9795567989349365
14.138489723205566 8.51533317565918 1.9786816835403442
14.178274154663086 8.421339988708496 1.9783010482788086
14.21829605102539 8.327681541442871 1.9778157472610474
14.248224258422852 8.228374481201172 1.9784271717071533
14.290440559387207 8.136396408081055 1.977533221244812
14.339874267578125 8.048592567443848 1.9757307767868042
14.459283828735352 7.9995012283325195 1.965783953666687
14.76031494140625 8.048318862915039 1.934893250465393
15.874014854431152 8.529836654663086 1.8107008934020996
27.488025665283203 14.554476737976074 0.4832773208618164
27.494352340698242 14.342809677124023 0.48918578028678894
27.5000057220459 14.132064819335938 0.49500128626823425
27.53518295288086 13.937516212463379 0.4972853362560272
27.460386276245117 13.688916206359863 0.5119207501411438
27.663110733032227 13.578972816467285 0.4948612451553345
27.76608657836914 13.419000625610352 0.48902207612991333
28.077451705932617 13.357857704162598 0.45949745178222656
28.390899658203125 13.294236183166504 0.4296993613243103
15.778397560119629 0.8164611458778381 1.8946220874786377
19.30466079711914 0.761741042137146 1.5019261837005615
19.263002395629883 0.6417964696884155 1.504465937614441
12.904064178466797 -0.5997598767280579 2.184642791748047
13.006142616271973 -0.684481143951416 2.1710076332092285
12.882471084594727 -0.7572490572929382 2.1827197074890137
12.891282081604004 -0.8371514678001404 2.179466485977173
12.864904403686523 -0.9147258996963501 2.180131196975708
12.802781105041504 -1.1474663019180298 2.179910182952881
12.796724319458008 -1.3847602605819702 2.1728432178497314
12.789776802062988 -1.463449478149414 2.1709370613098145
12.78135871887207 -1.541987657546997 2.1691441535949707
12.705978393554688 -1.7707271575927734 2.1692147254943848
12.741883277893066 -1.8554970026016235 2.162090539932251
12.738913536071777 -1.9349576234817505 2.159390449523926
29.238597869873047 -5.177651405334473 0.2196502387523651
25.979618072509766 -8.330194473266602 0.41878727078437805
19.9089298248291 -6.5188093185424805 1.1625810861587524
19.495262145996094 -6.516139030456543 1.2063864469528198
19.231849670410156 -6.559615612030029 1.2316241264343262
19.13466453552246 -6.657870292663574 1.2361180782318115
19.124038696289062 -6.786065101623535 1.2296874523162842
19.099483489990234 -6.909652233123779 1.224902629852295
19.076927185058594 -7.0342254638671875 1.2197636365890503
19.08980941772461 -7.172403335571289 1.2100197076797485
19.073888778686523 -7.300357818603516 1.2038114070892334
19.19681739807129 -7.482840538024902 1.1797367334365845
20.314523696899414 -8.207220077514648 1.0186110734939575
19.079713821411133 -7.844971179962158 1.168863296508789
19.092283248901367 -7.987521648406982 1.1583553552627563
19.108386993408203 -8.132466316223145 1.1472417116165161
19.119781494140625 -8.27633285522461 1.1365920305252075
25.351367950439453 -11.158955574035645 0.3101707696914673
25.509479522705078 -11.416029930114746 0.27683883905410767
25.45028305053711 -11.577619552612305 0.27187156677246094
25.464860916137695 -11.7734956741333 0.2569888234138489
25.4564208984375 -11.959855079650879 0.2449624389410019
28.386098861694336 -16.216655731201172 -0.35675379633903503
28.40237045288086 -16.458133697509766 -0.37707751989364624
28.409038543701172 -16.695892333984375 -0.39632824063301086
28.343080520629883 -16.892179489135742 -0.405509889125824
28.212915420532227 -17.050296783447266 -0.40568670630455017
27.939695358276367 -17.120336532592773 -0.38538840413093567
27.815921783447266 -17.280378341674805 -0.38660451769828796
27.66520118713379 -17.423152923583984 -0.3840219974517822
20.519947052001953 -13.09998893737793 0.639374852180481
20.221328735351562 -13.084871292114258 0.6684966087341309
19.930322647094727 -13.070944786071777 0.696708083152771
19.73945426940918 -13.119872093200684 0.7102932333946228
19.533924102783203 -13.156974792480469 0.7261236906051636
19.404926300048828 -13.244085311889648 0.7305892705917358
19.30988121032715 -13.353819847106934 0.7299211025238037
19.26298713684082 -13.49705696105957 0.7218933701515198
19.234479904174805 -13.654009819030762 0.7109134197235107
19.23135757446289 -13.830243110656738 0.69586580991745
19.24283218383789 -14.018635749816895 0.6783422827720642
19.210390090942383 -14.176460266113281 0.667338490486145
19.237932205200195 -14.380163192749023 0.6468258500099182
19.21938705444336 -14.551192283630371 0.6332113742828369
19.223081588745117 -14.74065113067627 0.6158782243728638
19.22046661376953 -14.927048683166504 0.5992730855941772
19.22641944885254 -15.121944427490234 0.5810444951057434
19.222936630249023 -15.31129264831543 0.5640402436256409
19.252601623535156 -15.52919864654541 0.5414389967918396
19.236499786376953 -15.712264060974121 0.5258938074111938
19.253278732299805 -15.924176216125488 0.5047451853752136
19.229373931884766 -16.104393005371094 0.4899214208126068
19.225923538208008 -16.303524017333984 0.4714788794517517
19.271936416625977 -16.547170639038086 0.4445488154888153
19.322410583496094 -16.7978515625 0.41646885871887207
20.546894073486328 -18.53822898864746 0.1475374698638916
20.312931060791016 -18.554828643798828 0.16510909795761108
20.08609962463379 -18.5753231048584 0.18160001933574677
19.864139556884766 -18.597810745239258 0.19738465547561646
19.628986358642578 -18.605314254760742 0.21559515595436096
19.435298919677734 -18.649789810180664 0.22669874131679535
12.861703872680664 11.987105369567871 1.8251482248306274
12.940620422363281 11.913385391235352 1.8227418661117554
12.903579711914062 11.73406982421875 1.8364231586456299
12.96028995513916 11.641410827636719 1.8368816375732422
14.378668785095215 12.757328987121582 1.6492420434951782
14.465380668640137 12.676767349243164 1.6462295055389404
13.117115020751953 11.21397590637207 1.8473068475723267
13.170991897583008 11.121118545532227 1.8476396799087524
13.218878746032715 11.02356243133545 1.848689079284668
13.25378131866455 10.915719032287598 1.8513864278793335
13.294804573059082 10.813509941101074 1.8531520366668701
13.322668075561523 10.701241493225098 1.8565704822540283
13.35822582244873 10.595837593078613 1.8588494062423706
13.397693634033203 10.494078636169434 1.8605048656463623
13.433269500732422 10.389801025390625 1.8625726699829102
13.46570110321045 10.28366756439209 1.8649498224258423
13.50130844116211 10.180522918701172 1.866806149482727
13.544136047363281 10.083267211914062 1.8676198720932007
13.57986831665039 9.981156349182129 1.869262933731079
13.606005668640137 9.872559547424316 1.8720505237579346
13.64506721496582 9.773862838745117 1.8730640411376953
13.693175315856934 9.681947708129883 1.8728206157684326
13.720281600952148 9.575580596923828 1.8751860857009888
13.762161254882812 9.479964256286621 1.8755624294281006
13.797628402709961 9.380277633666992 1.876667857170105
13.831565856933594 9.279958724975586 1.8778756856918335
13.873085021972656 9.185066223144531 1.878031611442566
13.916458129882812 9.091644287109375 1.8778676986694336
13.950014114379883 8.992106437683105 1.8788560628890991
13.978676795959473 8.88983154296875 1.8803688287734985
14.036935806274414 8.80656909942627 1.8780858516693115
14.057496070861816 8.699896812438965 1.8804360628128052
14.092554092407227 8.602630615234375 1.880886197090149
14.126948356628418 8.50525951385498 1.8813328742980957
14.170084953308105 8.413374900817871 1.8806129693984985
14.210050582885742 8.31977367401123 1.8802052736282349
14.24423599243164 8.223012924194336 1.8804296255111694
14.278634071350098 8.126636505126953 1.8805445432662964
14.327126502990723 8.038419723510742 1.878849744796753
14.450774192810059 7.9917826652526855 1.8678942918777466
14.966365814208984 8.157618522644043 1.8091050386428833
27.426603317260742 14.733052253723145 0.2969893217086792
27.473857879638672 14.54222583770752 0.29864516854286194
27.50217056274414 14.34217643737793 0.3024340867996216
27.5034236907959 14.129149436950684 0.3093264102935791
27.55011749267578 13.940438270568848 0.31055551767349243
27.52879524230957 13.718422889709473 0.3198173940181732
27.612897872924805 13.549755096435547 0.31622278690338135
27.732669830322266 13.398303031921387 0.3082140386104584
27.918956756591797 13.277915954589844 0.292122483253479
28.25246810913086 13.224873542785645 0.25834599137306213
28.682079315185547 13.212324142456055 0.21307633817195892
44.86866760253906 8.182302474975586 -1.537179708480835
19.279870986938477 0.7581918239593506 1.3887243270874023
19.26699447631836 0.6393627524375916 1.388182282447815
19.32984161376953 0.5227912068367004 1.3787215948104858
12.898964881896973 -0.6808291077613831 2.105423927307129
12.874524116516113 -0.7587658166885376 2.1060893535614014
12.865469932556152 -0.8374601602554321 2.104875087738037
12.887630462646484 -0.9183284044265747 2.0998876094818115
12.802048683166504 -1.307915449142456 2.097496747970581
12.701783180236816 -1.3764727115631104 2.1068572998046875
12.713623046875 -1.4567248821258545 2.102693796157837
12.61757755279541 -1.602817416191101 2.10864520072937
12.616169929504395 -1.68135666847229 2.1059138774871826
12.653608322143555 -1.765424132347107 2.0984058380126953
12.590274810791016 -1.8354160785675049 2.103074789047241
12.542266845703125 -1.907085657119751 2.105844259262085
26.175743103027344 -8.219789505004883 0.23902788758277893
20.169958114624023 -6.470416069030762 1.0102403163909912
20.107858657836914 -6.586900234222412 1.010390281677246
18.90155792236328 -6.4498291015625 1.1525423526763916
19.060943603515625 -6.635115146636963 1.123732566833496
19.016754150390625 -6.750903129577637 1.1215659379959106
20.113052368164062 -7.279347896575928 0.9681222438812256
19.078550338745117 -7.305119037628174 1.0800741910934448
19.04784393310547 -7.427764892578125 1.0755422115325928
20.30928611755371 -8.499852180480957 0.8677805662155151
19.03278160095215 -8.241777420043945 1.0228923559188843
19.058712005615234 -8.392337799072266 1.0097169876098633
19.05362319946289 -8.530152320861816 1.0006574392318726
25.413034439086914 -11.564598083496094 0.10839130729436874
28.301095962524414 -13.727436065673828 -0.35344019532203674
28.298599243164062 -13.941527366638184 -0.36894574761390686
28.301633834838867 -14.15965747833252 -0.38547179102897644
28.269437789916992 -14.36127758026123 -0.3972185552120209
28.22172737121582 -14.55576229095459 -0.40695008635520935
28.12610626220703 -14.72581958770752 -0.40998461842536926
27.61600112915039 -14.675555229187012 -0.35330402851104736
27.49962043762207 -14.831002235412598 -0.3533472418785095
27.397165298461914 -14.993673324584961 -0.3555273115634918
20.543733596801758 -13.119219779968262 0.4887036085128784
20.200193405151367 -13.07522964477539 0.5262773036956787
19.955841064453125 -13.091713905334473 0.5488016605377197
19.716184616088867 -13.108447074890137 0.5707381367683411
19.522327423095703 -13.153212547302246 0.5856630206108093
19.33931541442871 -13.203367233276367 0.5989567637443542
19.26245880126953 -13.325115203857422 0.5955610871315002
19.22381591796875 -13.473737716674805 0.5859923958778381
19.194581985473633 -13.629852294921875 0.5747461915016174
19.222915649414062 -13.828385353088379 0.5540781617164612
19.212663650512695 -14.000917434692383 0.5393288731575012
19.21217918395996 -14.182085990905762 0.522760272026062
19.212570190429688 -14.365559577941895 0.5057904124259949
19.207475662231445 -14.546575546264648 0.489454448223114
19.217395782470703 -14.740743637084961 0.47038599848747253
19.206857681274414 -14.920981407165527 0.45441290736198425
19.2150821685791 -15.117584228515625 0.4350546896457672
19.223936080932617 -15.31670093536377 0.4152910113334656
19.235694885253906 -15.520231246948242 0.3947308361530304
19.223400115966797 -15.70628833770752 0.3779250383377075
19.20037269592285 -15.8851957321167 0.36267000436782837
19.25719451904297 -16.13253402709961 0.3334665894508362
19.16424560546875 -16.2561092376709 0.32965776324272156
19.27208137512207 -16.552265167236328 0.2908877730369568
19.242321014404297 -16.733253479003906 0.2755797505378723
12.825898170471191 12.097036361694336 1.7190463542938232
12.890166282653809 12.009333610534668 1.7188702821731567
12.888012886047363 11.860701560974121 1.7284231185913086
13.901775360107422 12.63746452331543 1.5882412195205688
14.084541320800781 12.646950721740723 1.5710275173187256
13.002229690551758 11.531852722167969 1.7383697032928467
14.49755859375 12.70056438446045 1.5298680067062378
13.135481834411621 11.365642547607422 1.7361204624176025
13.117817878723145 11.21058464050293 1.7469978332519531
13.16027545928955 11.108115196228027 1.7490718364715576
13.20655345916748 11.009366035461426 1.750489592552185
13.245976448059082 10.905409812927246 1.7527748346328735
13.283851623535156 10.80075740814209 1.75516676902771
13.31396770477295 10.690447807312012 1.7585396766662598
13.347127914428711 10.583264350891113 1.761365532875061
13.386518478393555 10.481589317321777 1.763205647468567
13.414156913757324 10.371316909790039 1.766575813293457
13.466228485107422 10.280402183532715 1.7664391994476318
13.500229835510254 10.176074981689453 1.7687095403671265
13.529472351074219 10.068747520446777 1.7715274095535278
13.573927879333496 9.973217010498047 1.7721465826034546
13.599217414855957 9.864092826843262 1.7752914428710938
13.644689559936523 9.77008056640625 1.7755738496780396
13.683029174804688 9.671292304992676 1.7767332792282104
13.719857215881348 9.571829795837402 1.7779996395111084
13.752705574035645 9.470024108886719 1.7797050476074219
13.791399002075195 9.372644424438477 1.7805243730545044
13.822813987731934 9.27071475982666 1.782225251197815
13.863442420959473 9.175336837768555 1.7825955152511597
13.886780738830566 9.068937301635742 1.785178780555725
13.914350509643555 8.965826034545898 1.7870961427688599
13.960467338562012 8.874981880187988 1.7864594459533691
14.007678031921387 8.784965515136719 1.7855944633483887
14.035717010498047 8.683196067810059 1.787170648574829
14.072367668151855 8.587108612060547 1.7875211238861084
14.113475799560547 8.493972778320312 1.7871994972229004
14.153971672058105 8.400654792785645 1.7868729829788208
14.192996978759766 8.306654930114746 1.7866535186767578
14.233124732971191 8.213485717773438 1.7862062454223633
14.267459869384766 8.117186546325684 1.7864257097244263
