# .PCD v0.7 - Point Cloud Data file format
VERSION 0.7
FIELDS x y z
SIZE 4 4 4
TYPE F F F
COUNT 1 1 1
WIDTH 852
HEIGHT 1
VIEWPOINT 0 0 0 1 0 0 0
POINTS 852
DATA ascii
13.693282127380371 9.877236366271973 2.2166051864624023
13.640449523925781 9.838019371032715 1.388981819152832
13.652700424194336 9.849580764770508 0.5431427955627441
32.52695846557617 23.282041549682617 2.423619270324707
13.715405464172363 9.82068920135498 2.216770648956299
13.666467666625977 9.784590721130371 1.3892595767974854
32.55495071411133 23.13075828552246 2.4230594635009766
13.733235359191895 9.761219024658203 2.2173147201538086
13.682170867919922 9.723918914794922 1.3910948038101196
32.57004165649414 22.970922470092773 2.422905445098877
13.756929397583008 9.7060546875 2.2172882556915283
13.70167064666748 9.666111946105957 1.3923057317733765
13.692026138305664 9.662148475646973 0.553654134273529
32.612953186035156 22.822771072387695 2.4218270778656006
13.765746116638184 9.637003898620605 2.2187325954437256
13.72463321685791 9.607316970825195 1.393155574798584
13.70693302154541 9.597806930541992 0.556965172290802
32.61636734008789 22.65607261657715 2.422015905380249
13.791004180908203 9.583221435546875 2.2185146808624268
13.74772834777832 9.552294731140137 1.3937408924102783
13.734053611755371 9.545710563659668 0.5572908520698547
32.606475830078125 22.472593307495117 2.4226369857788086
13.809503555297852 9.521310806274414 2.2190074920654297
13.762045860290527 9.487789154052734 1.395837664604187
13.774785041809082 9.499529838562012 0.5549641847610474
32.5115966796875 22.248647689819336 2.426016330718994
13.834725379943848 9.471257209777832 2.2186455726623535
13.789175033569336 9.43931770324707 1.395532488822937
13.97461223602295 9.569265365600586 0.5180311799049377
32.53520965576172 22.098552703857422 2.425475597381592
13.853157997131348 9.413118362426758 2.2189955711364746
13.80955982208252 9.382786750793457 1.396426796913147
14.186895370483398 9.64222240447998 0.478853315114975
32.556087493896484 21.947162628173828 2.4250054359436035
13.879623413085938 9.360541343688965 2.2185816764831543
13.835888862609863 9.330387115478516 1.3963819742202759
14.201858520507812 9.580279350280762 0.4817495346069336
32.595359802246094 21.816875457763672 2.423898696899414
13.891840934753418 9.302000045776367 2.2193610668182373
13.852161407470703 9.27481460571289 1.3976364135742188
14.051252365112305 9.411233901977539 0.5194313526153564
32.53382873535156 21.611736297607422 2.4261083602905273
13.917890548706055 9.2493314743042 2.218944549560547
13.876017570495605 9.22093677520752 1.3979018926620483
13.884893417358398 9.229970932006836 0.5605597496032715
32.48630142211914 21.425338745117188 2.4278271198272705
13.94213581085205 9.19902515411377 2.218576192855835
13.891865730285645 9.165331840515137 1.3991551399230957
13.92547607421875 9.190678596496582 0.5574477314949036
32.42856979370117 21.21722984313965 2.429877996444702
13.961044311523438 9.138325691223145 2.218872308731079
13.914807319641113 9.107585906982422 1.3996821641921997
13.967062950134277 9.14499568939209 0.5546666979789734
32.4268684387207 21.05494499206543 2.430053472518921
13.980204582214355 9.08141040802002 2.2190258502960205
13.931784629821777 9.04952335357666 1.4008848667144775
13.97182846069336 9.078777313232422 0.5593226552009583
32.4433479309082 20.905113220214844 2.429610252380371
14.003331184387207 9.027170181274414 2.2187955379486084
13.954779624938965 8.995484352111816 1.4011456966400146
13.9928560256958 9.023305892944336 0.5605005025863647
32.511802673339844 20.789073944091797 2.427433967590332
14.019947052001953 8.968851089477539 2.2191390991210938
13.975476264953613 8.940057754516602 1.4017188549041748
13.997078895568848 8.957184791564941 0.5651580095291138
32.53764343261719 20.64603614807129 2.426642656326294
14.044747352600098 8.915868759155273 2.218714475631714
13.995957374572754 8.88459587097168 1.4022912979125977
14.009320259094238 8.896419525146484 0.5680758357048035
32.596073150634766 20.516029357910156 2.4247612953186035
14.06033992767334 8.853726387023926 2.219198703765869
14.013557434082031 8.82401180267334 1.4034407138824463
14.016595840454102 8.82929801940918 0.5722494721412659
32.60448455810547 20.37077522277832 2.424506425857544
14.087408065795898 8.805747985839844 2.2184369564056396
14.036270141601562 8.77357006072998 1.4034329652786255
14.026789665222168 8.771047592163086 0.5752184391021729
32.569087982177734 20.1910400390625 2.4256768226623535
14.103120803833008 8.747342109680176 2.2187774181365967
14.05610179901123 8.718006134033203 1.40400230884552
14.400168418884277 8.934880256652832 0.5027682185173035
32.471099853515625 19.973833084106445 2.4288923740386963
14.127090454101562 8.694158554077148 2.2183475494384766
14.084168434143066 8.667611122131348 1.4033123254776
14.399582862854004 8.865228652954102 0.5082762241363525
32.49359893798828 19.831756591796875 2.4281184673309326
14.157244682312012 8.644810676574707 2.2173376083374023
14.107818603515625 8.61453914642334 1.403249740600586
14.274742126464844 8.719989776611328 0.5395076274871826
32.534732818603516 19.701416015625 2.426710605621338
14.170171737670898 8.585028648376465 2.2178683280944824
14.129146575927734 8.5601224899292 1.4035003185272217
14.125907897949219 8.561697006225586 0.5755560994148254
32.51322937011719 19.533710479736328 2.42734956741333
14.197805404663086 8.534244537353516 2.217047929763794
14.143891334533691 8.5018310546875 1.40469491481781
14.157587051391602 8.513628959655762 0.5741090178489685
32.46519470214844 19.351043701171875 2.428845167160034
14.220978736877441 8.480823516845703 2.216611623764038
14.166921615600586 8.44861888885498 1.404628872871399
14.172189712524414 8.455357551574707 0.5761511921882629
32.41747283935547 19.162019729614258 2.430306911468506
14.243268966674805 8.42358684539795 2.2163164615631104
14.19334602355957 8.394135475158691 1.4041943550109863
14.164706230163574 8.380823135375977 0.582944393157959
32.43231964111328 19.01844024658203 2.429692268371582
14.270326614379883 8.372573852539062 2.2154901027679443
14.209556579589844 8.33703327178955 1.4050713777542114
14.219120025634766 8.346304893493652 0.5766897201538086
32.434635162353516 18.87562370300293 2.4294798374176025
14.291448593139648 8.32146167755127 2.2151002883911133
14.23267650604248 8.287391662597656 1.4047361612319946
14.22735595703125 8.287981033325195 0.5796541571617126
32.506717681884766 18.766067504882812 2.4269425868988037
14.30518913269043 8.262816429138184 2.215433359146118
14.254908561706543 8.233962059020996 1.404664158821106
14.268758773803711 8.245681762695312 0.5760128498077393
32.608795166015625 18.673625946044922 2.4233970642089844
14.344650268554688 8.21904468536377 2.2134385108947754
14.270483016967773 8.176777839660645 1.4055382013320923
14.278002738952637 8.184833526611328 0.5789250135421753
32.68671417236328 18.567123413085938 2.420628786087036
14.3579740524292 8.160320281982422 2.2137694358825684
14.283676147460938 8.11836051940918 1.4067283868789673
14.316954612731934 8.141051292419434 0.5757149457931519
32.716392517089844 18.433319091796875 2.419435501098633
14.394947052001953 8.11506462097168 2.2119626998901367
14.322558403015137 8.074560165405273 1.4041228294372559
14.325758934020996 8.080171585083008 0.5786257386207581
32.75861740112305 18.306846618652344 2.417809009552002
14.43830680847168 8.073297500610352 2.209569215774536
14.341829299926758 8.019696235656738 1.4043614864349365
14.3514986038208 8.028940200805664 0.5780358910560608
32.80156707763672 18.18844985961914 2.416153907775879
14.376860618591309 7.976926803588867 1.4021177291870117
14.364912986755371 7.974163055419922 0.5796844959259033
32.878849029541016 18.074155807495117 2.413320779800415
14.415366172790527 7.933351039886475 0.5742229223251343
32.9460334777832 17.961702346801758 2.4108152389526367
14.922158241271973 8.140100479125977 2.1707844734191895
32.993038177490234 17.838302612304688 2.4089581966400146
14.933774948120117 8.079498291015625 1.3301647901535034
33.0219612121582 17.705345153808594 2.407681465148926
33.0614013671875 17.578271865844727 2.406038761138916
33.073822021484375 17.43715476989746 2.405271530151367
27.74523162841797 14.635154724121094 1.0389405488967896
33.081233978271484 17.293848037719727 2.4046525955200195
27.78931999206543 14.534784317016602 1.0375334024429321
33.097686767578125 17.148374557495117 2.4036972522735596
27.826704025268555 14.42484188079834 1.036806583404541
33.09500503540039 17.00080108642578 2.403378486633301
27.85451889038086 14.316262245178223 1.0367660522460938
33.11619186401367 16.865928649902344 2.4022514820098877
33.116764068603516 16.72098159790039 2.401789665222168
33.12053680419922 16.585369110107422 2.4012293815612793
33.13336181640625 16.447465896606445 2.400329828262329
33.12993240356445 16.30195426940918 2.399951934814453
33.13936996459961 16.16324234008789 2.3991312980651855
33.14823913574219 16.024658203125 2.39831280708313
33.15428924560547 15.885129928588867 2.397571325302124
32.59258270263672 15.624784469604492 0.6385307312011719
33.164283752441406 15.747901916503906 2.396682024002075
32.61293029785156 15.494918823242188 0.6391428112983704
33.16740798950195 15.600752830505371 2.3959763050079346
32.72563171386719 15.40185260772705 0.6317325830459595
33.17399215698242 15.462745666503906 2.3951661586761475
32.99353790283203 15.387626647949219 0.6105803847312927
33.17549133300781 15.32278823852539 2.394509792327881
33.101112365722656 15.297493934631348 0.6034485101699829
33.18777084350586 15.188206672668457 2.393479108810425
33.14954376220703 15.17982006072998 0.6014561057090759
33.176414489746094 15.0502290725708 2.39325213432312
33.16997146606445 15.05645751953125 0.601760983467102
33.19673538208008 14.920023918151855 2.391920328140259
33.19709396362305 14.929378509521484 0.6015490293502808
33.20285415649414 14.783757209777832 2.3910462856292725
33.207794189453125 14.795194625854492 0.6027261018753052
33.19242858886719 14.64057731628418 2.390709400177002
33.131324768066406 14.622884750366211 0.611458957195282
33.21117401123047 14.510650634765625 2.3893826007843018
33.17279815673828 14.503192901611328 0.609860360622406
33.20188903808594 14.368864059448242 2.3889760971069336
33.172672271728516 14.36556339263916 0.6118437647819519
33.22418212890625 14.24109935760498 2.387498140335083
33.199485778808594 14.239899635314941 0.6114379167556763
33.227745056152344 14.098772048950195 2.3865926265716553
33.1846809387207 14.089923858642578 0.6147006750106812
33.251312255859375 13.97208309173584 2.385037660598755
33.20127487182617 13.96052074432373 0.6150953769683838
33.23287582397461 13.828126907348633 2.384875774383545
33.22886276245117 13.83596134185791 0.6144912242889404
33.271522521972656 13.715021133422852 2.3828234672546387
33.21675109863281 13.701980590820312 0.6172046065330505
33.268192291259766 13.578058242797852 2.382124423980713
33.268760681152344 13.587874412536621 0.6144005656242371
33.26895523071289 13.443161010742188 2.381272315979004
33.248756408691406 13.444611549377441 0.6177996397018433
33.2552490234375 13.30285358428955 2.3808910846710205
33.26286315917969 13.315546989440918 0.6181971430778503
33.199153900146484 13.146247863769531 2.381922960281372
33.211605072021484 13.160844802856445 0.6242138147354126
33.17262649536133 13.00205135345459 2.381946086883545
33.145755767822266 13.001202583312988 0.631443977355957
33.159461975097656 12.863617897033691 2.381505250930786
33.15818786621094 12.87283992767334 0.6318550109863281
33.236724853515625 12.760360717773438 2.377999782562256
33.198036193847656 12.755269050598145 0.6298539638519287
33.414371490478516 12.698161125183105 0.6126319766044617
33.53523254394531 12.61042594909668 0.6035597324371338
33.728736877441406 12.53908920288086 2.3585166931152344
33.753971099853516 12.558490753173828 0.5860050916671753
33.81459045410156 12.443594932556152 2.3546838760375977
33.767154693603516 12.43619441986084 0.5860989093780518
33.766143798828125 12.29218578338623 2.3553311824798584
33.767982482910156 12.302939414978027 0.5872840285301208
33.806396484375 12.173431396484375 2.352959632873535
33.80111312866211 12.181653022766113 0.5856404304504395
33.822689056396484 12.046163558959961 2.3513834476470947
33.77277755737305 12.038536071777344 0.5892552733421326
33.79608154296875 11.903989791870117 2.351247787475586
33.79555892944336 11.913987159729004 0.5884214043617249
33.80377197265625 11.784505844116211 0.5888031125068665
33.80677795410156 11.653488159179688 0.5895914435386658
33.802677154541016 11.51007080078125 2.3478193283081055
33.806922912597656 11.521787643432617 0.590584933757782
33.76874542236328 11.36064338684082 2.347822904586792
33.80852508544922 11.384326934814453 0.5914577841758728
33.8080940246582 11.242732048034668 2.3453667163848877
33.80764389038086 11.252909660339355 0.5924558639526367
33.85177230834961 11.12624454498291 2.342744827270508
33.79204177856445 11.116965293884277 0.594677209854126
33.82184982299805 10.99233627319336 2.3426806926727295
33.823760986328125 11.003341674804688 0.592749297618866
33.84088134765625 10.86812973022461 2.3408703804016113
33.86884689331055 10.88753604888916 0.589676022529602
33.835636138916016 10.736368179321289 2.339876413345337
33.8470458984375 10.750433921813965 0.5923112630844116
33.853736877441406 10.612249374389648 2.338066577911377
33.86273956298828 10.625548362731934 0.5916840434074402
33.85466766357422 10.482961654663086 2.3368310928344727
33.86131286621094 10.495519638061523 0.5924882888793945
33.8664665222168 10.350810050964355 2.3351457118988037
33.87548065185547 10.364095687866211 0.5919436812400818
33.871192932128906 10.22317886352539 2.333747386932373
33.875450134277344 10.235018730163574 0.592546284198761
33.87001037597656 10.087591171264648 2.3324756622314453
33.87428665161133 10.099446296691895 0.5932319760322571
33.8696174621582 9.965375900268555 2.331286907196045
33.876304626464844 9.977947235107422 0.5935524702072144
33.88250732421875 9.840852737426758 2.3295633792877197
33.88198471069336 9.85133171081543 0.5935447216033936
33.876426696777344 9.717449188232422 2.3285441398620605
33.880714416503906 9.72933292388916 0.5940731763839722
33.893211364746094 9.594408988952637 2.3266549110412598
33.90465545654297 9.608332633972168 0.592424213886261
33.90232849121094 9.469354629516602 2.3250153064727783
33.89936065673828 9.479232788085938 0.5932431221008301
33.90616989135742 9.343024253845215 2.3235437870025635
33.910396575927734 9.354923248291016 0.5926219820976257
33.913551330566406 9.211520195007324 2.321866035461426
33.910560607910156 9.221465110778809 0.5929086804389954
33.90678024291992 9.082775115966797 2.3207316398620605
33.91824722290039 9.096625328063965 0.5924956202507019
33.89468765258789 8.952911376953125 2.3197684288024902
33.91343307495117 8.968661308288574 0.5931161046028137
33.89266586303711 8.832305908203125 2.318512201309204
33.92107391357422 8.850531578063965 0.5926225185394287
33.920772552490234 8.713356018066406 2.31611967086792
33.917747497558594 8.723423957824707 0.5930392146110535
33.92422866821289 8.58818531036377 2.3145716190338135
33.92361068725586 8.598896980285645 0.5926307439804077
33.941776275634766 8.466726303100586 2.3125159740448
33.92418670654297 8.473226547241211 0.5926366448402405
33.93705749511719 8.339883804321289 2.3112237453460693
33.93638610839844 8.350632667541504 0.5916088223457336
33.9755744934082 8.22375202178955 2.308401346206665
33.92878723144531 8.22336196899414 0.5922391414642334
33.961631774902344 8.088788032531738 2.3073275089263916
33.93179702758789 8.092638969421387 0.5919183492660522
33.97495651245117 7.966800212860107 2.3053553104400635
33.947479248046875 7.971339225769043 0.5904750823974609
33.944026947021484 7.834709644317627 2.3049254417419434
33.95545196533203 7.8483452796936035 0.5896560549736023
33.96132278442383 7.713993549346924 2.3027844429016113
33.98484420776367 7.730365753173828 0.5869616270065308
33.93053436279297 7.588822841644287 2.302400827407837
33.961448669433594 7.606775283813477 0.5887667536735535
33.961605072021484 7.471444129943848 2.29974365234375
33.992435455322266 7.489294528961182 0.5858624577522278
33.95318603515625 7.345489501953125 2.298464775085449
33.97674560546875 7.361667633056641 0.5869218707084656
33.9711799621582 7.225399017333984 2.2962377071380615
33.98981857299805 7.240468978881836 0.5854776501655579
33.976531982421875 7.102717876434326 2.2944419384002686
33.99759292602539 7.118246555328369 0.5844504833221436
33.999778747558594 6.977672100067139 2.291914463043213
33.99881362915039 6.988620281219482 0.5839278101921082
34.004234313964844 6.855031967163086 2.2901182174682617
34.00079345703125 6.865503787994385 0.5833207964897156
34.01069259643555 6.732931137084961 2.288235902786255
33.99744415283203 6.741489410400391 0.5831342935562134
34.005760192871094 6.614896297454834 2.2868285179138184
34.009613037109375 6.6268463134765625 0.5816047787666321
34.01872634887695 6.4943132400512695 2.284684419631958
34.007843017578125 6.503454208374023 0.5812099575996399
34.01296615600586 6.376436233520508 2.2832796573638916
34.01920700073242 6.388843536376953 0.579680860042572
34.0212516784668 6.249056816101074 2.2811858654022217
34.022560119628906 6.260552406311035 0.578741729259491
34.01816940307617 6.125869274139404 2.2795703411102295
34.01945495605469 6.137372970581055 0.578350305557251
34.0318603515625 6.005817413330078 2.2773377895355225
34.03308868408203 6.017326354980469 0.576485276222229
34.03528594970703 5.884041786193848 2.275458574295044
34.029109954833984 5.894282341003418 0.5760949850082397
34.03826904296875 5.7623162269592285 2.2735793590545654
34.03696823120117 5.773421287536621 0.5746511816978455
34.05412292480469 5.636740207672119 2.2711315155029297
34.03799819946289 5.64541482925415 0.5737156867980957
34.05375671386719 5.514673709869385 2.2693419456481934
34.04743194580078 5.525010585784912 0.572060763835907
34.05788803100586 5.393459320068359 2.2673745155334473
34.053985595703125 5.404219150543213 0.5706164240837097
34.066532135009766 5.27304744720459 2.265228748321533
34.05025863647461 5.28192138671875 0.5700196623802185
34.06644058227539 5.157464504241943 2.2634756565093994
34.052589416503906 5.166775703430176 0.5689124464988708
34.07424545288086 5.0370917320251465 2.2613298892974854
34.062801361083984 5.046824932098389 0.5670450329780579
34.07667541503906 4.916012763977051 2.2593629360198975
34.07258224487305 4.9268646240234375 0.5651765465736389
34.07374572753906 4.794283390045166 2.2575767040252686
34.081947326660156 4.806896686553955 0.5633066296577454
34.08273696899414 4.674328327178955 2.255340337753296
34.0736083984375 4.684549331665039 0.562926173210144
34.088836669921875 4.554040431976318 2.2531938552856445
34.08458709716797 4.564962387084961 0.5608440637588501
34.075462341308594 4.425244331359863 2.2516467571258545
34.09343719482422 4.439084053039551 0.558847963809967
34.09060287475586 4.306304931640625 2.249138116836548
34.08625793457031 4.317275047302246 0.5582572221755981
34.12267303466797 4.189443588256836 2.2459895610809326
34.108306884765625 4.19921875 0.5551061630249023
34.11962890625 4.068271636962891 2.244114398956299
34.11016082763672 4.078695297241211 0.5536614060401917
34.088645935058594 3.961576223373413 0.5542668104171753
33.74313735961914 3.8021819591522217 0.5827838778495789
33.396934509277344 3.645246744155884 0.6113513708114624
33.54594421386719 3.5317084789276123 2.2573540210723877
33.37455749511719 3.525027275085449 0.6118906140327454
33.56542205810547 3.4153804779052734 2.2546029090881348
33.2823600769043 3.3979287147521973 0.6184393167495728
33.64225387573242 3.298703670501709 2.2496016025543213
33.38111114501953 3.2844929695129395 0.6083462238311768
33.6783332824707 3.1836330890655518 2.2461941242218018
33.273128509521484 3.156707286834717 0.6161994338035583
33.694114685058594 3.066539764404297 2.2435240745544434
33.27132034301758 3.0394511222839355 0.6148197054862976
33.69155502319336 2.953730583190918 2.2416250705718994
32.96341323852539 2.9012081623077393 0.6400411128997803
33.706539154052734 2.8365588188171387 2.2389514446258545
32.628135681152344 2.757037401199341 0.6675558090209961
33.71613311767578 2.718916893005371 2.2364630699157715
32.98490905761719 2.6712934970855713 0.6349570751190186
33.71037292480469 2.600090265274048 2.2345328330993652
33.309181213378906 2.580592155456543 0.6051117777824402
33.719139099121094 2.482436180114746 2.2320425510406494
32.91785430908203 2.434791088104248 0.6374281048774719
33.722511291503906 2.364403247833252 2.22973895072937
32.95823287963867 2.3221852779388428 0.6321855783462524
33.71549987792969 2.245713233947754 2.227810859680176
33.16472625732422 2.2204644680023193 0.6124396324157715
33.72090148925781 2.122002363204956 2.225287914276123
33.060550689697266 2.0918660163879395 0.6196111440658569
33.710540771484375 2.0032782554626465 2.2234551906585693
32.93814468383789 1.9687711000442505 0.6284373998641968
33.69477844238281 1.884373426437378 2.221813440322876
15.811532974243164 0.8907757997512817 2.1206717491149902
33.71351623535156 1.7674312591552734 2.2188472747802734
15.814436912536621 0.8355972170829773 2.119502067565918
33.7091178894043 1.6551660299301147 2.216857671737671
15.819500923156738 0.7832913994789124 2.118173837661743
12.554265975952148 0.573793888092041 3.0207977294921875
15.831982612609863 0.7285423278808594 2.116132974624634
12.566134452819824 0.530400276184082 3.0194873809814453
15.841782569885254 0.6736099123954773 2.1143085956573486
12.482990264892578 0.48327353596687317 3.021803379058838
15.838951110839844 0.6181334853172302 2.1135711669921875
19.30843162536621 0.7565777897834778 0.8507058620452881
12.474573135375977 0.43935927748680115 3.021261692047119
15.838411331176758 0.5627728700637817 2.112616539001465
19.323131561279297 0.6896428465843201 0.8475766181945801
12.443593978881836 0.3926289975643158 3.0215377807617188
15.852696418762207 0.5051339268684387 2.1102941036224365
12.549727439880371 0.35212886333465576 3.0165822505950928
15.854252815246582 0.4498140811920166 2.109119415283203
19.309818267822266 0.5509188175201416 0.8470245003700256
12.605780601501465 0.309673547744751 3.013535261154175
15.863086700439453 0.39467403292655945 2.1072890758514404
19.3535099029541 0.4845893681049347 0.8398066759109497
12.61668872833252 0.2680923342704773 3.0122623443603516
15.866692543029785 0.34213995933532715 2.1059534549713135
33.7760124206543 0.5964034795761108 2.1931211948394775
15.885108947753906 0.28708508610725403 2.1032450199127197
33.7902717590332 0.478708952665329 2.1901333332061768
15.88839340209961 0.23168952763080597 2.1018481254577637
33.794132232666016 0.3608158528804779 2.1875312328338623
15.884014129638672 0.1761922538280487 2.1011087894439697
33.80757522583008 0.24297255277633667 2.184537887573242
32.903045654296875 0.24799223244190216 0.599834680557251
32.90348434448242 0.13317784667015076 0.5973939895629883
32.910987854003906 0.012624174356460571 0.5941706299781799
12.671618461608887 -0.04253486543893814 3.003612518310547
32.8757438659668 -0.10210616141557693 0.5948088765144348
12.738795280456543 -0.08722658455371857 3.000028371810913
12.795822143554688 -0.13228291273117065 2.9968268871307373
12.772756576538086 -0.1766204982995987 2.996760845184326
32.88465881347656 -0.4464154541492462 0.5863835215568542
12.65217113494873 -0.21688885986804962 3.000584840774536
32.85788345336914 -0.5550021529197693 0.5862714648246765
12.623819351196289 -0.2604677975177765 3.00072979927063
33.719451904296875 -0.6873156428337097 0.5071491599082947
33.847530364990234 -0.8199679851531982 2.1599724292755127
33.71910858154297 -0.8050327301025391 0.5044226050376892
33.84435272216797 -0.9380793571472168 2.157456874847412
33.59638214111328 -0.919411301612854 0.5125406980514526
33.85325622558594 -1.0565694570541382 2.154445171356201
33.06755828857422 -1.020399808883667 0.5567880272865295
33.836769104003906 -1.1742653846740723 2.1524245738983154
33.2377815246582 -1.1417754888534546 0.5388091802597046
33.37271499633789 -1.2630318403244019 0.5239096879959106
12.933874130249023 -0.5357265472412109 2.345438003540039
12.545903205871582 -0.5678649544715881 2.9968128204345703
12.956709861755371 -0.581976056098938 2.342252731323242
12.681136131286621 -0.616142988204956 2.990419626235962
33.34454345703125 -1.6117075681686401 0.5175743699073792
13.005654335021973 -0.6774654388427734 2.9763364791870117
13.138772010803223 -0.6798021793365479 2.323673725128174
12.998178482055664 -0.7225683331489563 2.975569248199463
13.133739471435547 -0.7255068421363831 2.32291841506958
12.974005699157715 -0.7142468094825745 1.6922457218170166
12.951196670532227 -0.7081272602081299 1.0428024530410767
12.811002731323242 -0.7569900155067444 2.982051134109497
12.97691822052002 -0.7622546553611755 2.335767984390259
12.939159393310547 -0.7576244473457336 1.6957623958587646
12.923937797546387 -0.7518784999847412 1.0464962720870972
12.904729843139648 -0.7524276375770569 0.38728761672973633
12.798267364501953 -0.8010653257369995 2.9815003871917725
12.87716293334961 -0.8014839291572571 2.343506336212158
12.923938751220703 -0.8019981384277344 1.696523904800415
12.913689613342285 -0.7965099215507507 1.0469317436218262
12.877528190612793 -0.7959406971931458 0.3921854794025421
11.98279094696045 -0.7918856739997864 3.013486623764038
12.881646156311035 -0.8469039797782898 2.341876983642578
12.930804252624512 -0.8477365970611572 1.6941803693771362
12.910643577575684 -0.8415600657463074 1.0459697246551514
12.90353775024414 -0.8427668213844299 0.3841935396194458
11.977418899536133 -0.833522617816925 3.012695074081421
12.908329010009766 -0.8939169645309448 2.3382341861724854
12.148626327514648 -0.8902115225791931 3.0046582221984863
12.92721939086914 -0.9428390264511108 2.3352103233337402
12.212647438049316 -0.9377749562263489 3.001008987426758
12.901412010192871 -0.9862299561500549 2.3362622261047363
12.475674629211426 -1.0018244981765747 2.9892067909240723
12.88538932800293 -1.0302480459213257 2.336421251296997
12.506905555725098 -1.0482804775238037 2.9868485927581787
12.898990631103516 -1.0766565799713135 2.3338897228240967
12.441107749938965 -1.084304690361023 2.988516330718994
12.41978931427002 -1.1261311769485474 2.988304615020752
33.63822555541992 -3.1600470542907715 0.44866082072257996
12.769522666931152 -1.2478232383728027 2.971660614013672
33.67137145996094 -3.2817561626434326 0.44209912419319153
12.80480670928955 -1.2964085340499878 2.9690608978271484
33.5554313659668 -3.388716459274292 0.4490452706813812
12.815065383911133 -1.342648983001709 2.9674863815307617
33.686798095703125 -3.5208048820495605 0.4334648847579956
13.224715232849121 -1.434647798538208 2.9492340087890625
33.784812927246094 -3.656266927719116 0.42067110538482666
15.940449714660645 -1.7150453329086304 0.44374626874923706
13.371001243591309 -1.4977731704711914 2.941934585571289
33.88296127319336 -3.7865846157073975 0.4079863429069519
15.929250717163086 -1.7701069116592407 0.4434930682182312
13.363161087036133 -1.5441367626190186 2.9410393238067627
33.85693359375 -3.903366804122925 0.40658488869667053
15.920303344726562 -1.8253918886184692 0.44277167320251465
13.2385892868042 -1.5765634775161743 2.9450247287750244
33.72666931152344 -4.007669448852539 0.41468480229377747
15.842883110046387 -1.8725581169128418 0.4551813006401062
12.578713417053223 -1.54019296169281 2.971543788909912
33.80935287475586 -4.131232261657715 0.403462290763855
15.904618263244629 -1.9333642721176147 0.4409211575984955
12.565780639648438 -1.5831407308578491 2.9709160327911377
33.6314582824707 -4.228672981262207 0.4158858358860016
16.107084274291992 -2.0150837898254395 0.39937299489974976
34.00920486450195 -4.408881187438965 2.0661306381225586
33.67058181762695 -4.35302734375 0.40838387608528137
15.941413879394531 -2.050882339477539 0.428684800863266
33.98359680175781 -4.52621603012085 2.064005136489868
33.74626159667969 -4.482626914978027 0.3974703550338745
15.882804870605469 -2.0997235774993896 0.4373549520969391
34.00707244873047 -4.650195598602295 2.0597870349884033
33.838714599609375 -4.615164279937744 0.3849535882472992
15.811883926391602 -2.146528720855713 0.44838282465934753
33.99547576904297 -4.769534587860107 2.057032346725464
33.9084587097168 -4.745294570922852 0.3744676411151886
15.88188362121582 -2.2125332355499268 0.43215951323509216
34.01226043701172 -4.899054050445557 2.052889347076416
33.95466232299805 -4.878709316253662 0.3658888041973114
16.16266632080078 -2.312112808227539 0.374956339597702
34.0170783996582 -5.020998001098633 2.04939603805542
33.97906494140625 -5.003330707550049 0.3594770133495331
15.93561840057373 -2.336405038833618 0.41608181595802307
34.01158142089844 -5.141542911529541 2.046321153640747
15.861577033996582 -2.3821351528167725 0.4275941848754883
34.02787399291992 -5.265549659729004 2.0422942638397217
34.00188446044922 -5.249459266662598 0.34891751408576965
15.801965713500977 -2.4296181201934814 0.43629276752471924
34.02491760253906 -5.380669593811035 2.0392377376556396
33.98652267456055 -5.3625335693359375 0.34626975655555725
15.781477928161621 -2.4800732135772705 0.4375227093696594
34.02801513671875 -5.502963542938232 2.0357348918914795
33.99931335449219 -5.486250877380371 0.3407544791698456
15.816125869750977 -2.5421371459960938 0.4278603792190552
34.03066635131836 -5.62534236907959 2.032228469848633
34.001827239990234 -5.608503818511963 0.33614999055862427
15.840838432312012 -2.602879762649536 0.420077383518219
34.04026412963867 -5.749055862426758 2.0284008979797363
33.99653625488281 -5.7295989990234375 0.3322291076183319
15.741838455200195 -2.6430788040161133 0.4363347589969635
34.04695510864258 -5.872481346130371 2.024676561355591
34.01288986206055 -5.854527950286865 0.3262471854686737
15.712926864624023 -2.69466233253479 0.4389282464981079
34.05214309692383 -6.001965045928955 2.0208215713500977
34.00811767578125 -5.982128143310547 0.3219653069972992
15.80184555053711 -2.7695963382720947 0.41834527254104614
15.946515083312988 -2.85239577293396 0.38695043325424194
15.892751693725586 -2.900076389312744 0.39425426721572876
34.10359191894531 -6.3737616539001465 2.0082454681396484
34.01008987426758 -6.344204425811768 0.3082428276538849
16.131420135498047 -2.998983860015869 0.3444662094116211
34.078575134277344 -6.492264270782471 2.005793333053589
33.97771453857422 -6.46097993850708 0.3066110610961914
16.077199935913086 -3.0470130443573 0.35176214575767517
34.08746337890625 -6.617335796356201 2.001835346221924
33.99870681762695 -6.588029861450195 0.2999193072319031
16.015613555908203 -3.09330415725708 0.3604828715324402
34.07139205932617 -6.737702369689941 1.9989529848098755
34.03387451171875 -6.718198299407959 0.2918420135974884
16.076738357543945 -3.1633899211883545 0.34509265422821045
34.04266357421875 -6.855572700500488 1.996610403060913
34.034385681152344 -6.841823101043701 0.28698232769966125
16.099056243896484 -3.2262179851531982 0.3372620642185211
33.964576721191406 -6.963288307189941 1.996435284614563
33.973472595214844 -6.9530510902404785 0.2878846228122711
16.13796615600586 -3.292678117752075 0.3261139690876007
33.927730560302734 -7.079217910766602 1.9944255352020264
33.93413543701172 -7.068510055541992 0.28671735525131226
16.15497589111328 -3.3549556732177734 0.31922009587287903
33.91365051269531 -7.206082344055176 1.9912058115005493
33.9150505065918 -7.194343090057373 0.2833471894264221
16.118301391601562 -3.409031629562378 0.3226824104785919
33.91503143310547 -7.330191135406494 1.9874595403671265
33.85786437988281 -7.30581521987915 0.2838027775287628
16.221250534057617 -3.4900434017181396 0.298726886510849
33.92571258544922 -7.456541538238525 1.9832749366760254
33.856224060058594 -7.429250717163086 0.27894464135169983
16.127199172973633 -3.5287671089172363 0.31362417340278625
33.93592834472656 -7.583057403564453 1.9790860414505005
33.90515899658203 -7.564149379730225 0.2692219913005829
16.104961395263672 -3.582879066467285 0.31430816650390625
33.93971252441406 -7.702152729034424 1.9753497838974
33.901512145996094 -7.681454658508301 0.26471489667892456
16.104732513427734 -3.638944625854492 0.3107859790325165
33.865203857421875 -7.803406238555908 1.9751148223876953
34.00176239013672 -7.822822093963623 0.2502358853816986
16.159332275390625 -3.7076809406280518 0.2963480055332184
33.89114761352539 -7.934063911437988 1.9701536893844604
33.99340057373047 -7.9459547996521 0.24582090973854065
33.9092903137207 -8.063263893127441 1.9655145406723022
34.030601501464844 -8.08005142211914 0.23699288070201874
33.88325500488281 -8.182133674621582 1.9628525972366333
34.03582763671875 -8.20691967010498 0.23117788136005402
33.96595001220703 -8.327686309814453 1.9552290439605713
34.047828674316406 -8.335699081420898 0.22466182708740234
34.05531692504883 -8.475728034973145 1.9472590684890747
34.061763763427734 -8.465264320373535 0.2179078608751297
34.09321212768555 -8.611648559570312 1.9415969848632812
34.09210205078125 -8.59929084777832 0.2095189243555069
34.09274673461914 -8.744580268859863 1.9374587535858154
34.1010856628418 -8.73464298248291 0.20285826921463013
34.09815216064453 -8.872933387756348 1.9332250356674194
34.13037872314453 -8.86923599243164 0.19445618987083435
34.13689041137695 -9.010358810424805 1.927430272102356
34.127845764160156 -8.995891571044922 0.18908213078975677
34.1268196105957 -9.135242462158203 1.9238543510437012
34.146484375 -9.128425598144531 0.1816016584634781
34.13558578491211 -9.265400886535645 1.9193854331970215
34.12617874145508 -9.250776290893555 0.17785769701004028
34.13180923461914 -9.392416954040527 1.9154695272445679
34.10063552856445 -9.371779441833496 0.17458193004131317
34.13959503173828 -9.52287769317627 1.9109923839569092
34.09623718261719 -9.498729705810547 0.16919881105422974
34.13487243652344 -9.650110244750977 1.9070713520050049
34.05783462524414 -9.616292953491211 0.16709531843662262
34.14167785644531 -9.780863761901855 1.902586579322815
34.093204498291016 -9.754936218261719 0.1577213704586029
34.14558029174805 -9.91108512878418 1.898210048675537
34.07781982421875 -9.879384994506836 0.1532697230577469
34.137657165527344 -10.044594764709473 1.894151210784912
34.072174072265625 -10.013300895690918 0.14751416444778442
34.130985260009766 -10.172223091125488 1.89021897315979
34.02483367919922 -10.128580093383789 0.14611677825450897
34.128623962402344 -10.301370620727539 1.8860589265823364
33.96281051635742 -10.239338874816895 0.14613495767116547
19.755191802978516 -5.951675891876221 0.5233878493309021
34.132381439208984 -10.426131248474121 1.881798505783081
19.574199676513672 -5.968039512634277 0.5462623238563538
34.15530776977539 -10.563628196716309 1.8763846158981323
19.458457946777344 -6.007096290588379 0.5590798258781433
34.15624237060547 -10.694695472717285 1.8719866275787354
34.080501556396484 -10.658982276916504 0.11616583168506622
19.333242416381836 -6.042465686798096 0.5733436346054077
34.173336029052734 -10.83117961883545 1.866788625717163
19.17027473449707 -6.065090179443359 0.5933486819267273
34.18275833129883 -10.965624809265137 1.8619263172149658
19.045089721679688 -6.098729133605957 0.6076495051383972
34.17503356933594 -11.094870567321777 1.8578572273254395
18.94109535217285 -6.138437271118164 0.6187435388565063
34.178680419921875 -11.228092193603516 1.8532148599624634
18.87466812133789 -6.189835071563721 0.6241185069084167
34.18655776977539 -11.363054275512695 1.8483402729034424
18.843338012695312 -6.252535343170166 0.62412428855896
34.177337646484375 -11.492630958557129 1.844261884689331
18.823524475097656 -6.31903076171875 0.6223395466804504
34.18181228637695 -11.627110481262207 1.8394935131072998
18.838621139526367 -6.397402763366699 0.6151725649833679
34.171897888183594 -11.763659477233887 1.835166096687317
18.835874557495117 -6.473615646362305 0.6104441285133362
16.444538116455078 -5.645308971405029 0.10081127285957336
34.18710708618164 -11.902544975280762 1.8298133611679077
16.42215919494629 -5.701842784881592 0.10004571825265884
34.16643142700195 -12.0292387008667 1.8261854648590088
18.913496017456055 -6.6483941078186035 0.5885441899299622
34.192344665527344 -12.172686576843262 1.8202461004257202
34.13992691040039 -12.281744956970215 1.8183623552322388
16.64154624938965 -5.977189064025879 0.9296543598175049
34.1553955078125 -12.422146797180176 1.812877893447876
18.91547203063965 -6.868894577026367 0.5731639266014099
34.18670654296875 -12.568840026855469 1.8065741062164307
16.241622924804688 -5.955852031707764 0.11025235801935196
34.250179290771484 -12.728084564208984 1.7986345291137695
18.843427658081055 -6.992114067077637 0.5738990306854248
16.195175170898438 -6.0030975341796875 0.11431293934583664
34.33400344848633 -12.895830154418945 1.789633870124817
18.83953285217285 -7.065638065338135 0.569226086139679
16.17157554626465 -6.0587029457092285 0.11356531828641891
34.32133865356445 -13.027972221374512 1.7853960990905762
18.853858947753906 -7.146237850189209 0.5616661906242371
16.120248794555664 -6.103789806365967 0.11859764158725739
34.33148193359375 -13.16912841796875 1.779989242553711
18.85399055480957 -7.221713542938232 0.5562667846679688
16.146703720092773 -6.178409576416016 0.10725987702608109
34.331748962402344 -13.313797950744629 1.7747972011566162
18.8525390625 -7.300566673278809 0.5507930517196655
34.3221435546875 -13.448100090026855 1.7703157663345337
18.85666847229004 -7.378021240234375 0.5446664094924927
34.35148620605469 -13.598122596740723 1.7638381719589233
18.83978271484375 -7.4474077224731445 0.5417888760566711
34.35246658325195 -13.730469703674316 1.7590093612670898
18.8607177734375 -7.528159141540527 0.5331993699073792
34.362091064453125 -13.873639106750488 1.7534575462341309
18.852458953857422 -7.601322174072266 0.528873085975647
34.36882400512695 -14.016098022460938 1.7480179071426392
18.857662200927734 -7.680120468139648 0.5223743319511414
34.3680534362793 -14.155921936035156 1.7429275512695312
18.85796356201172 -7.7571635246276855 0.5165970325469971
34.380558013916016 -14.301667213439941 1.7371231317520142
18.86709976196289 -7.838101863861084 0.5093678832054138
34.367130279541016 -14.437029838562012 1.7326149940490723
18.871334075927734 -7.917283535003662 0.502859890460968
34.373870849609375 -14.581252098083496 1.7270373106002808
18.877521514892578 -7.997556209564209 0.4959864020347595
34.393516540527344 -14.738584518432617 1.7204920053482056
18.870588302612305 -8.076395988464355 0.4908508062362671
34.3967399597168 -14.882315635681152 1.715020775794983
18.88292694091797 -8.159852981567383 0.4828828275203705
34.4039421081543 -15.028247833251953 1.7093067169189453
18.890378952026367 -8.241515159606934 0.47563639283180237
18.91106605529785 -8.329315185546875 0.46620672941207886
34.473594665527344 -15.346197128295898 1.694876790046692
18.978832244873047 -8.438467025756836 0.44913992285728455
34.422393798828125 -15.460397720336914 1.6923813819885254
16.513338088989258 -7.407721996307373 0.8404199481010437
34.43859100341797 -15.612390518188477 1.68604576587677
16.433103561401367 -7.440801620483398 0.8478916883468628
34.431434631347656 -15.754293441772461 1.6809027194976807
16.43607521057129 -7.511460304260254 0.841907799243927
34.41918182373047 -15.894242286682129 1.675995945930481
16.42527961730957 -7.576015472412109 0.8381064534187317
34.43070983886719 -16.05296516418457 1.669510841369629
16.352352142333984 -7.615250587463379 0.8440765738487244
34.43760299682617 -16.20278549194336 1.663512945175171
16.307567596435547 -7.663841724395752 0.8457444906234741
34.455142974853516 -16.358205795288086 1.656904697418213
16.31850814819336 -7.73871374130249 0.8383020758628845
34.45463943481445 -16.498226165771484 1.6515072584152222
16.276948928833008 -7.785288333892822 0.8396724462509155
34.459659576416016 -16.64877700805664 1.6454908847808838
16.285112380981445 -7.85923433303833 0.8325907588005066
34.455074310302734 -16.79518699645996 1.6399530172348022
34.47005081176758 -16.951688766479492 1.633318305015564
34.49105453491211 -17.111825942993164 1.6263118982315063
34.466712951660156 -17.24996566772461 1.6217302083969116
16.58884620666504 -8.293695449829102 0.7588916420936584
34.47079849243164 -17.402772903442383 1.6155635118484497
16.55076026916504 -8.34706974029541 0.7590872049331665
34.402191162109375 -17.526691436767578 1.6130406856536865
16.497802734375 -8.396428108215332 0.7614182233810425
34.35399627685547 -17.65348243713379 1.6096769571304321
16.490190505981445 -8.465234756469727 0.7564951777458191
34.307552337646484 -17.78130340576172 1.606192708015442
16.477901458740234 -8.531816482543945 0.7523033618927002
34.27391052246094 -17.915952682495117 1.6019752025604248
16.509191513061523 -8.621315956115723 0.7407816052436829
34.27729415893555 -18.07038116455078 1.5956721305847168
16.439409255981445 -8.658117294311523 0.7461176514625549
34.2457160949707 -18.19915008544922 1.591582179069519
16.454097747802734 -8.735755920410156 0.7375865578651428
34.32709884643555 -18.39639663696289 1.5808428525924683
16.325197219848633 -8.74057674407959 0.7528396844863892
34.40971755981445 -18.595617294311523 1.5699611902236938
16.17470932006836 -8.732854843139648 0.7717817425727844
34.320343017578125 -18.702434539794922 1.5686815977096558
16.096145629882812 -8.763216972351074 0.7786228656768799
34.287540435791016 -18.840126037597656 1.5641993284225464
16.03274154663086 -8.801470756530762 0.7829014658927917
16.246767044067383 -8.996736526489258 0.7397005558013916
16.204261779785156 -9.047338485717773 0.7402939200401306
34.433876037597656 -19.392866134643555 1.5366120338439941
16.24724578857422 -9.142237663269043 0.7266026735305786
34.44182586669922 -19.556062698364258 1.529624581336975
16.298904418945312 -9.246461868286133 0.7109994292259216
34.50323486328125 -19.750564575195312 1.5195213556289673
16.382225036621094 -9.369575500488281 0.689861536026001
34.492332458496094 -19.904542922973633 1.5135118961334229
15.970074653625488 -9.208024024963379 0.7538201808929443
34.50883483886719 -20.075014114379883 1.5058767795562744
16.020999908447266 -9.312155723571777 0.7382183074951172
34.53748321533203 -20.253416061401367 1.4974840879440308
16.05219078063965 -9.405506134033203 0.7259241938591003
34.550987243652344 -20.43193817138672 1.4895740747451782
16.138731002807617 -9.535958290100098 0.7035990357398987
34.53507614135742 -20.58562660217285 1.4836639165878296
16.08177375793457 -9.578289031982422 0.7064195275306702
34.554901123046875 -20.76131248474121 1.4756208658218384
16.067108154296875 -9.645794868469238 0.7018601894378662
34.545536041259766 -20.911958694458008 1.469582438468933
16.127918243408203 -9.7553129196167 0.6844315528869629
34.56170654296875 -21.08700180053711 1.4616484642028809
34.551551818847656 -21.246719360351562 1.4552160501480103
34.53645706176758 -21.403993606567383 1.449029564857483
34.503746032714844 -21.550832748413086 1.443848967552185
34.51902770996094 -21.728303909301758 1.435760736465454
34.44493103027344 -21.849964141845703 1.4329761266708374
34.4317741394043 -22.019073486328125 1.426137924194336
34.4909782409668 -22.22701072692871 1.415242075920105
34.538673400878906 -22.42882537841797 1.4049659967422485
34.574710845947266 -22.615646362304688 1.3956987857818604
34.57670974731445 -22.789749145507812 1.388068675994873
34.53839874267578 -22.937896728515625 1.382852554321289
34.522300720214844 -23.101327896118164 1.3762316703796387
34.548946380615234 -23.294239044189453 1.3669236898422241
34.640750885009766 -23.532516479492188 1.353510856628418
34.69419479370117 -23.755203247070312 1.3419921398162842
34.70545196533203 -23.941349029541016 1.3334118127822876
34.69942855834961 -24.116458892822266 1.3258506059646606
34.77457046508789 -24.340171813964844 1.3135319948196411
34.85028839111328 -24.941181182861328 1.284321904182434
34.777042388916016 -25.072864532470703 1.2807203531265259
34.790157318115234 -25.26742935180664 1.271560788154602
34.79385757446289 -25.465513229370117 1.2625155448913574
34.788997650146484 -25.648998260498047 1.2543745040893555
34.79530715942383 -25.841699600219727 1.2454475164413452
34.80668258666992 -26.03923797607422 1.236121654510498
34.81830596923828 -26.219011306762695 1.2275770902633667
34.83184051513672 -26.420326232910156 1.2179721593856812
34.83316421508789 -26.60384178161621 1.2095361948013306
34.842098236083984 -26.81351661682129 1.199647068977356
34.84284591674805 -27.008358001708984 1.1906672716140747
34.82494354248047 -27.18970489501953 1.1828571557998657
34.85133361816406 -27.40674591064453 1.1720274686813354
34.825748443603516 -27.584001541137695 1.1645960807800293
34.883262634277344 -27.828359603881836 1.1515125036239624
34.843135833740234 -28.006038665771484 1.1444571018218994
34.801265716552734 -28.17300796508789 1.1379292011260986
34.74899673461914 -28.332143783569336 1.1320576667785645
34.70760726928711 -28.500761032104492 1.1253949403762817
34.82128143310547 -28.798316955566406 1.1080284118652344
34.87384033203125 -29.047475814819336 1.0947359800338745
34.87343978881836 -29.254032135009766 1.0850014686584473
34.88917922973633 -29.475440979003906 1.0740649700164795
34.86387634277344 -29.663341522216797 1.0659047365188599
34.86989212036133 -29.8790340423584 1.0554800033569336
34.875247955322266 -30.106111526489258 1.0445103645324707
34.87905502319336 -30.322629928588867 1.0340652465820312
34.89115905761719 -30.54776382446289 1.0229445695877075
34.847564697265625 -30.714433670043945 1.016219139099121
34.86132049560547 -30.943571090698242 1.004813313484192
34.86459732055664 -31.164857864379883 0.9940645694732666
34.91128921508789 -31.4266300201416 0.9800934791564941
34.93437194824219 -31.668991088867188 0.9677133560180664
34.932212829589844 -31.890005111694336 0.9570645689964294
34.90688705444336 -32.09111785888672 0.9480175375938416
34.92820739746094 -32.336544036865234 0.9354690313339233
34.931365966796875 -32.5895881652832 0.9230374097824097
34.94093322753906 -32.827518463134766 0.9111366868019104
34.94382858276367 -33.06076431274414 0.8996293544769287
19.807783126831055 -18.735437393188477 0.6807085871696472
19.718656539916992 -18.78213882446289 0.6825001239776611
19.562744140625 -18.75789451599121 0.6944155693054199
-13.979985356330872 27.86924409866333 0.5763188600540161
-11.793650507926941 27.86924409866333 0.5763188600540161
-11.793650507926941 34.103618144989014 0.5763188600540161
-13.979985356330872 34.103618144989014 0.5763188600540161
-13.979985356330872 27.86924409866333 3.160009264945984
-11.793650507926941 27.86924409866333 3.160009264945984
-11.793650507926941 34.103618144989014 3.160009264945984
-13.979985356330872 34.103618144989014 3.160009264945984
19.188860177993774 -16.972742795944214 -0.15076154470443726
20.87256407737732 -16.972742795944214 -0.15076154470443726
20.87256407737732 -12.811635255813599 -0.15076154470443726
19.188860177993774 -12.811635255813599 -0.15076154470443726
19.188860177993774 -16.972742795944214 1.3792771697044373
20.87256407737732 -16.972742795944214 1.3792771697044373
20.87256407737732 -12.811635255813599 1.3792771697044373
19.188860177993774 -12.811635255813599 1.3792771697044373
18.825446665287018 -9.872137427330017 -0.12118524312973022
20.458145558834076 -9.872137427330017 -0.12118524312973022
20.458145558834076 -5.874345421791077 -0.12118524312973022
18.825446665287018 -5.874345421791077 -0.12118524312973022
18.825446665287018 -9.872137427330017 1.3965758681297302
20.458145558834076 -9.872137427330017 1.3965758681297302
20.458145558834076 -5.874345421791077 1.3965758681297302
18.825446665287018 -5.874345421791077 1.3965758681297302
19.414282500743866 -22.469565272331238 -0.11980140209197998
21.011887848377228 -22.469565272331238 -0.11980140209197998
21.011887848377228 -18.533753514289856 -0.11980140209197998
19.414282500743866 -18.533753514289856 -0.11980140209197998
19.414282500743866 -22.469565272331238 1.38835608959198
21.011887848377228 -22.469565272331238 1.38835608959198
21.011887848377228 -18.533753514289856 1.38835608959198
19.414282500743866 -18.533753514289856 1.38835608959198
