# .PCD v0.7 - Point Cloud Data file format
VERSION 0.7
FIELDS x y z
SIZE 4 4 4
TYPE F F F
COUNT 1 1 1
WIDTH 850
HEIGHT 1
VIEWPOINT 0 0 0 1 0 0 0
POINTS 850
DATA ascii
13.728484153747559 9.361466407775879 0.7643457055091858
13.759942054748535 9.260041236877441 0.7679075002670288
13.801345825195312 9.165667533874512 0.7692509889602661
13.82480239868164 9.059791564941406 0.7741726040840149
13.86072063446045 8.962531089782715 0.7763635516166687
13.897629737854004 8.866228103637695 0.7782098054885864
13.936381340026855 8.771383285522461 0.7795402407646179
14.00044059753418 8.692505836486816 0.7755656838417053
14.032129287719727 8.593615531921387 0.7780827879905701
14.063976287841797 8.495171546936035 0.7804264426231384
14.10191535949707 8.4006929397583 0.7813971638679504
14.143473625183105 8.308561325073242 0.7815069556236267
14.181020736694336 8.214258193969727 0.7822978496551514
14.218801498413086 8.120293617248535 0.7829127907752991
14.341805458068848 8.074504852294922 0.7663506269454956
14.393284797668457 7.9878315925598145 0.7640252709388733
14.938590049743652 8.171245574951172 0.6633356809616089
15.134594917297363 8.158474922180176 0.6323702335357666
15.984319686889648 8.490655899047852 0.4720601439476013
19.177738189697266 0.7867003679275513 0.10327661782503128
15.753524780273438 0.5494069457054138 0.7325301766395569
12.844823837280273 -0.6558015942573547 1.2426170110702515
12.8677339553833 -0.7361370921134949 1.2358107566833496
12.875422477722168 -0.815848171710968 1.2317450046539307
16.059362411499023 -1.6126558780670166 0.6151671409606934
16.107421875 -1.7173670530319214 0.6020151376724243
15.992664337158203 -1.804442286491394 0.6194260120391846
15.993592262268066 -1.9040002822875977 0.61492919921875
15.879800796508789 -1.989349603652954 0.6320117712020874
15.863987922668457 -2.0863168239593506 0.6304787397384644
15.897236824035645 -2.190006732940674 0.6195269823074341
15.891870498657227 -2.2887227535247803 0.6157724857330322
15.940311431884766 -2.395634651184082 0.6016584634780884
15.812302589416504 -2.475720167160034 0.6210317611694336
16.054428100585938 -2.614659547805786 0.569680392742157
16.362974166870117 -2.8714935779571533 0.49979257583618164
16.228635787963867 -2.9507014751434326 0.5199084877967834
16.208860397338867 -3.0499930381774902 0.5179545879364014
16.23381233215332 -3.1579723358154297 0.5072667598724365
16.160749435424805 -3.2468302249908447 0.5153545141220093
16.15744400024414 -3.349470615386963 0.5098710656166077
16.111207962036133 -3.4431612491607666 0.5125798583030701
16.304311752319336 -3.5892128944396973 0.4687044322490692
16.17713737487793 -3.6654763221740723 0.48687827587127686
16.174036026000977 -3.769301652908325 0.48082035779953003
16.062307357788086 -3.8473732471466064 0.49586278200149536
16.241086959838867 -5.512147426605225 0.34129267930984497
16.148080825805664 -5.591405391693115 0.3510233759880066
16.21491050720215 -5.726300239562988 0.32809749245643616
16.247419357299805 -5.850252151489258 0.31195247173309326
16.267030715942383 -5.9704203605651855 0.29825133085250854
16.293128967285156 -6.093803405761719 0.28302544355392456
16.127466201782227 -6.145017623901367 0.30717575550079346
16.17142105102539 -6.275777816772461 0.28797051310539246
16.406396865844727 -7.434574127197266 0.13873903453350067
16.359140396118164 -7.534639358520508 0.13673235476016998
16.252592086791992 -7.606945037841797 0.1473255455493927
12.636082649230957 12.858250617980957 0.47632092237472534
12.668471336364746 12.734430313110352 0.4861680865287781
12.678853988647461 12.589872360229492 0.5011991858482361
12.65911865234375 12.417387008666992 0.5233237147331238
12.709192276000977 12.314846992492676 0.5279931426048279
13.107105255126953 12.545886993408203 0.4478684663772583
13.117574691772461 12.403016090393066 0.4621817171573639
12.820907592773438 11.97475814819336 0.550117552280426
12.866223335266113 11.870529174804688 0.555121660232544
12.902739524841309 11.758894920349121 0.5620297789573669
12.953742027282715 11.661097526550293 0.565293550491333
13.0032958984375 11.562459945678711 0.5687258243560791
12.987018585205078 11.406458854675293 0.5874363780021667
13.028833389282227 11.30272102355957 0.5922577977180481
13.075847625732422 11.204025268554688 0.5956859588623047
13.114625930786133 11.098814964294434 0.6008488535881042
13.158653259277344 10.998600006103516 0.604617714881897
13.201188087463379 10.89763355255127 0.6085567474365234
13.243741989135742 10.797181129455566 0.6123183369636536
13.272525787353516 10.686116218566895 0.6190401315689087
13.322027206420898 10.592263221740723 0.6208782196044922
13.334481239318848 10.469619750976562 0.6309127807617188
13.38250732421875 10.375580787658691 0.6327449679374695
13.410338401794434 10.266379356384277 0.6389395594596863
13.45697021484375 10.172070503234863 0.6407641172409058
13.484015464782715 10.063438415527344 0.6467814445495605
13.528467178344727 9.968290328979492 0.6487739086151123
13.552355766296387 9.858492851257324 0.6551393866539001
13.589803695678711 9.759114265441895 0.6583518385887146
13.641803741455078 9.670464515686035 0.6582306027412415
13.666610717773438 9.562912940979004 0.6638909578323364
13.69304370880127 9.457098960876465 0.6690253615379333
13.742284774780273 9.367401123046875 0.6690669059753418
14.02699089050293 9.436269760131836 0.6183250546455383
14.076844215393066 9.34516716003418 0.6181492209434509
14.08493709564209 9.226832389831543 0.6267620921134949
14.140887260437012 9.140280723571777 0.6249948143959045
14.168917655944824 9.035918235778809 0.6290311217308044
13.986250877380371 8.799443244934082 0.6774731278419495
13.994426727294922 8.685471534729004 0.6852368116378784
14.020201683044434 8.583036422729492 0.6891225576400757
14.061258316040039 8.490276336669922 0.6896539926528931
14.100858688354492 8.396831512451172 0.6903567314147949
14.144087791442871 8.305709838867188 0.6901716589927673
14.184172630310059 8.212892532348633 0.6905117630958557
14.23903751373291 8.128679275512695 0.6876622438430786
14.260810852050781 8.025752067565918 0.6915326714515686
14.366195678710938 7.9696574211120605 0.6780394911766052
14.719242095947266 8.048090934753418 0.613645076751709
15.18552017211914 8.18271541595459 0.5262830853462219
14.535834312438965 7.604393005371094 0.6748287081718445
14.597574234008789 7.523220539093018 0.6697914600372314
15.741612434387207 0.5466071367263794 0.6465604901313782
12.885550498962402 -0.6599752306938171 1.16274094581604
12.859371185302734 -0.7377532720565796 1.1651990413665771
12.868988037109375 -0.8175371885299683 1.160688042640686
15.989872932434082 -1.608099341392517 0.5381240248680115
16.013479232788086 -1.709778904914856 0.5293970704078674
16.00814437866211 -1.8086163997650146 0.5261576771736145
16.00999641418457 -1.9083844423294067 0.5214002132415771
16.014148712158203 -2.0086119174957275 0.5160708427429199
15.800601959228516 -2.0804014205932617 0.5530862808227539
15.81924057006836 -2.1816890239715576 0.5447380542755127
15.888729095458984 -2.2907063961029053 0.5263035297393799
15.846794128417969 -2.384019613265991 0.5295414924621582
15.903243064880371 -2.492403268814087 0.5133651494979858
15.826212882995605 -2.5799434185028076 0.5232753753662109
16.368160247802734 -2.7714710235595703 0.4111737012863159
16.344635009765625 -2.870784044265747 0.4101622998714447
16.253868103027344 -2.957794189453125 0.4223270118236542
16.185808181762695 -3.0481603145599365 0.42992788553237915
16.235761642456055 -3.160867929458618 0.41402769088745117
16.108837127685547 -3.2389121055603027 0.43312087655067444
16.08536720275879 -3.3370461463928223 0.43156862258911133
16.125608444213867 -3.4487645626068115 0.4171847999095917
16.256135940551758 -3.5811562538146973 0.3845760226249695
16.103269577026367 -3.651279926300049 0.40851494669914246
16.111692428588867 -3.7573225498199463 0.4000522196292877
16.12742805480957 -5.586986064910889 0.2592136263847351
16.135889053344727 -5.701143264770508 0.2479400485754013
16.20169448852539 -5.836556434631348 0.22441701591014862
16.165145874023438 -5.935807228088379 0.22225874662399292
16.186786651611328 -6.056828498840332 0.20765268802642822
16.092060089111328 -6.134325981140137 0.21756501495838165
16.098487854003906 -6.250290393829346 0.20587335526943207
12.678855895996094 12.892537117004395 0.36582350730895996
12.664958953857422 12.721784591674805 0.38794493675231934
12.660629272460938 12.56277847290039 0.4072289764881134
12.736339569091797 12.484213829040527 0.40585097670555115
12.675849914550781 12.27375602722168 0.4386933743953705
13.091057777404785 12.521608352661133 0.35169315338134766
13.3953275680542 12.656682968139648 0.2931521534919739
12.821378707885742 11.966654777526855 0.45308607816696167
12.85580062866211 11.85245132446289 0.46097227931022644
12.896581649780273 11.744900703430176 0.46707040071487427
12.94311237335205 11.643217086791992 0.47155699133872986
12.998443603515625 11.54990005493164 0.47371411323547363
13.02502155303955 11.43167495727539 0.48266705870628357
13.055102348327637 11.317423820495605 0.4905463457107544
13.090252876281738 11.208353996276855 0.4969925880432129
13.109537124633789 11.086568832397461 0.5070229172706604
13.154248237609863 10.987043380737305 0.5107776522636414
13.193681716918945 10.88362979888916 0.5156058669090271
13.224716186523438 10.77392864227295 0.5222269892692566
13.267934799194336 10.674737930297852 0.5257933139801025
13.311973571777344 10.57664680480957 0.5289967060089111
13.350668907165527 10.474770545959473 0.533275306224823
13.370733261108398 10.358957290649414 0.5416896343231201
13.404726028442383 10.254648208618164 0.5466854572296143
13.446578979492188 10.156832695007324 0.549697995185852
13.489313125610352 10.060064315795898 0.5523465275764465
13.530574798583984 9.962569236755371 0.5551714301109314
13.567968368530273 9.862628936767578 0.5587143898010254
13.608642578125 9.765472412109375 0.5613518357276917
13.59326171875 9.628950119018555 0.5764488577842712
13.686339378356934 9.569644927978516 0.5669777393341064
13.667498588562012 9.432452201843262 0.582443356513977
13.956356048583984 9.506277084350586 0.5291678309440613
14.032780647277832 9.433131217956543 0.5232557654380798
13.804807662963867 9.157670974731445 0.5845304131507874
13.84058666229248 9.05990982055664 0.587148904800415
13.868252754211426 8.957249641418457 0.5913962721824646
13.920060157775879 8.87044620513916 0.5901995301246643
14.195259094238281 8.924159049987793 0.5401597619056702
14.012016296386719 8.689718246459961 0.5899643898010254
14.011823654174805 8.5712890625 0.5996529459953308
14.073853492736816 8.491294860839844 0.5957080125808716
14.106698036193848 8.393760681152344 0.5979396104812622
13.988778114318848 8.20804500579834 0.6323958039283752
13.997631072998047 8.098461151123047 0.6393779516220093
14.243085861206055 8.12453842163086 0.5956872701644897
14.299978256225586 8.041375160217285 0.59224933385849
14.379602432250977 7.9706902503967285 0.5838750004768372
14.674585342407227 8.01719856262207 0.5298326015472412
15.179267883300781 8.17273235321045 0.43168556690216064
15.263442039489746 8.097922325134277 0.42245426774024963
15.335941314697266 8.016463279724121 0.4155852496623993
15.730254173278809 0.5410899519920349 0.560385525226593
12.8572998046875 -0.7419724464416504 1.093202829360962
12.860990524291992 -0.8213717341423035 1.0897754430770874
15.880846977233887 -1.7008357048034668 0.4652441740036011
15.975939750671387 -1.8102213144302368 0.4419218897819519
15.98554801940918 -1.910723090171814 0.43553483486175537
15.94975757598877 -2.0057899951934814 0.43811681866645813
15.771444320678711 -2.081772804260254 0.46920785307884216
15.743396759033203 -2.1764442920684814 0.47006455063819885
15.942883491516113 -2.303783893585205 0.4249894917011261
15.818456649780273 -2.3850080966949463 0.44499507546424866
15.758552551269531 -2.4749817848205566 0.4519166946411133
15.735888481140137 -2.5704736709594727 0.4512127935886383
16.096189498901367 -3.0366873741149902 0.35535141825675964
16.162487030029297 -3.1520378589630127 0.3357399106025696
16.121274948120117 -3.2468440532684326 0.33793333172798157
16.12751007080078 -3.3512332439422607 0.33029621839523315
16.326723098754883 -3.4972805976867676 0.2828849256038666
16.09198760986328 -3.550476551055908 0.3244629502296448
16.085729598999023 -3.65278697013855 0.3189851939678192
16.042543411254883 -3.7466890811920166 0.3210010528564453
16.257131576538086 -5.6378278732299805 0.1347762644290924
16.207931518554688 -5.732522487640381 0.135604590177536
16.19505500793457 -5.840120315551758 0.1284555196762085
16.19618034362793 -5.953185081481934 0.11810866743326187
16.114856719970703 -6.035908222198486 0.12554408609867096
16.105451583862305 -6.145446300506592 0.11719576269388199
12.674363136291504 12.758101463317871 0.2656290829181671
12.733833312988281 12.662120819091797 0.2688639163970947
12.636238098144531 12.412303924560547 0.31320586800575256
12.660223007202148 12.284618377685547 0.3251168131828308
12.751237869262695 12.222392082214355 0.31931403279304504
12.865514755249023 12.181807518005371 0.30740463733673096
12.853438377380371 12.022124290466309 0.32798460125923157
12.878155708312988 11.898394584655762 0.33878087997436523
12.930152893066406 11.800647735595703 0.34236836433410645
12.963919639587402 11.686917304992676 0.35039040446281433
13.007789611816406 11.58301830291748 0.35563546419143677
13.039068222045898 11.468634605407715 0.363840252161026
13.082791328430176 11.365900993347168 0.3687102198600769
13.116796493530273 11.255382537841797 0.3758012652397156
13.146943092346191 11.142333030700684 0.383633017539978
13.200312614440918 11.049516677856445 0.385527640581131
13.216687202453613 10.926411628723145 0.3963263928890228
13.26325798034668 10.828999519348145 0.3995140790939331
13.242586135864258 10.677767753601074 0.4188629984855652
13.294357299804688 10.585953712463379 0.4203770160675049
13.338550567626953 10.488435745239258 0.42355912923812866
13.366527557373047 10.37872314453125 0.4304594397544861
13.393665313720703 10.269059181213379 0.43735986948013306
13.43171215057373 10.168346405029297 0.44146549701690674
13.477686882019043 10.074020385742188 0.44351842999458313
13.50957202911377 9.969595909118652 0.4487367868423462
13.546242713928223 9.869205474853516 0.45264777541160583
13.582194328308105 9.768738746643066 0.4565563201904297
13.619827270507812 9.669906616210938 0.4599021077156067
13.67124080657959 9.58112621307373 0.45988067984580994
13.808526992797852 9.551872253417969 0.43984535336494446
14.119580268859863 9.639817237854004 0.37974488735198975
13.75684642791748 9.26927375793457 0.4747534692287445
13.825313568115234 9.192893028259277 0.47021979093551636
13.891716003417969 9.114940643310547 0.4660502076148987
13.92552375793457 9.015697479248047 0.4691820442676544
13.89903736114502 8.878312110900879 0.4858189523220062
13.970284461975098 8.80390453338623 0.4801311492919922
14.382316589355469 8.941038131713867 0.3976173400878906
14.018658638000488 8.59647274017334 0.48957860469818115
14.050554275512695 8.498141288757324 0.49232763051986694
14.084303855895996 8.401248931884766 0.49450984597206116
14.125860214233398 8.309239387512207 0.4948067367076874
14.175312995910645 8.221961975097656 0.4932153820991516
14.20206069946289 8.121712684631348 0.49651679396629333
14.27944278717041 8.05037784576416 0.48850342631340027
14.298969268798828 7.946436882019043 0.4931163191795349
14.724287986755371 8.065218925476074 0.40863025188446045
14.898372650146484 8.042403221130371 0.37938329577445984
15.204499244689941 8.087843894958496 0.3213714361190796
15.741451263427734 0.5591626763343811 0.4556751251220703
12.89061450958252 -0.6496211290359497 1.005431890487671
12.851810455322266 -0.7267273664474487 1.0107392072677612
12.864375114440918 -0.8066354393959045 1.0054575204849243
16.064210891723633 -1.602656364440918 0.32815808057785034
15.997149467468262 -1.6951559782028198 0.33769911527633667
15.940268516540527 -1.7880977392196655 0.345045268535614
15.892583847045898 -1.881560206413269 0.3503928780555725
15.9094820022583 -1.982624888420105 0.3422679007053375
15.780046463012695 -2.0649032592773438 0.3643404245376587
16.06263542175293 -2.2022252082824707 0.3008122742176056
15.796311378479004 -2.2645485401153564 0.35111990571022034
15.764264106750488 -2.358771562576294 0.35267284512519836
15.736493110656738 -2.453444004058838 0.35322269797325134
15.654017448425293 -2.5390846729278564 0.36508873105049133
15.658005714416504 -2.6384570598602295 0.3587826192378998
16.097408294677734 -2.8142166137695312 0.2610538601875305
15.973212242126465 -2.995016574859619 0.27524030208587646
16.032936096191406 -3.108203649520874 0.25651806592941284
16.079381942749023 -3.219738721847534 0.24041207134723663
16.07135772705078 -3.3208651542663574 0.23565220832824707
16.05503273010254 -3.420384168624878 0.23251494765281677
16.07634735107422 -3.5282270908355713 0.22125282883644104
16.055871963500977 -3.6271843910217285 0.2187219113111496
16.02715492248535 -3.724252462387085 0.2178199291229248
12.680684089660645 12.755597114562988 0.15127164125442505
12.66701889038086 12.586945533752441 0.17464186251163483
12.65107250213623 12.418254852294922 0.1982138454914093
12.684990882873535 12.300122261047363 0.20789498090744019
12.98875904083252 11.845952033996582 0.2171662151813507
13.021361351013184 11.730599403381348 0.22587519884109497
13.062573432922363 11.623773574829102 0.23209963738918304
13.086749076843262 11.502625465393066 0.24252760410308838
13.104004859924316 11.376469612121582 0.2544868290424347
13.141817092895508 11.269062042236328 0.26090049743652344
13.176562309265137 11.159713745117188 0.2678868770599365
13.199170112609863 11.040916442871094 0.2777448296546936
13.224603652954102 10.925384521484375 0.28664618730545044
13.271173477172852 10.827949523925781 0.2899889647960663
13.309405326843262 10.72419261932373 0.2952454686164856
13.346097946166992 10.619762420654297 0.30069148540496826
13.376611709594727 10.511038780212402 0.30747953057289124
13.411724090576172 10.406548500061035 0.3129221796989441
13.454628944396973 10.308588981628418 0.31624871492385864
13.467881202697754 10.18858528137207 0.32668671011924744
13.512407302856445 10.09288215637207 0.32923996448516846
13.543630599975586 9.987696647644043 0.3348686397075653
13.58042049407959 9.887125015258789 0.33895522356033325
13.615692138671875 9.785902976989746 0.34323227405548096
13.655036926269531 9.68802547454834 0.34634989500045776
13.699320793151855 9.593972206115723 0.34811440110206604
13.751036643981934 9.505317687988281 0.34794408082962036
13.801477432250977 9.292658805847168 0.3597550392150879
13.83246898651123 9.19101333618164 0.3640173375606537
13.883246421813965 9.102785110473633 0.3634428381919861
13.90216064453125 8.994024276733398 0.37021487951278687
13.935151100158691 8.894874572753906 0.37350359559059143
13.954168319702148 8.787293434143066 0.3798888921737671
14.007390975952148 8.701552391052246 0.37813544273376465
14.036666870117188 8.601136207580566 0.3818037509918213
14.079512596130371 8.50931167602539 0.38217201828956604
14.123444557189941 8.418286323547363 0.38214701414108276
14.16171646118164 8.324058532714844 0.3832821547985077
14.201062202453613 8.230659484863281 0.38402441143989563
14.249163627624512 8.142441749572754 0.38262319564819336
14.36944580078125 7.979447841644287 0.373960942029953
14.579460144042969 7.979712009429932 0.3355301320552826
15.748366355895996 0.5545328855514526 0.3539857566356659
12.882952690124512 -0.6533694267272949 0.9247812628746033
12.85588264465332 -0.7310879826545715 0.9278290867805481
12.856667518615723 -0.8102851510047913 0.9249105453491211
16.18256187438965 -1.6194871664047241 0.20001645386219025
16.035675048828125 -1.704228401184082 0.2268497198820114
15.843645095825195 -1.7822028398513794 0.26323992013931274
15.776603698730469 -1.8727623224258423 0.27296334505081177
15.882818222045898 -1.9842729568481445 0.2456101030111313
15.812681198120117 -2.0741355419158936 0.2557561993598938
16.01534080505371 -2.2007627487182617 0.20741085708141327
15.9013671875 -2.2846128940582275 0.22668731212615967
15.819864273071289 -2.372081995010376 0.23892873525619507
15.78331470489502 -2.4657347202301025 0.24141958355903625
15.96054744720459 -2.593858242034912 0.1977449208498001
16.06155776977539 -2.7115514278411865 0.17025348544120789
16.0961971282959 -2.8191111087799072 0.15689235925674438
16.161876678466797 -2.932962656021118 0.13664354383945465
15.973955154418945 -3.000253200531006 0.17120669782161713
15.972084999084473 -3.101515531539917 0.16534468531608582
16.00121307373047 -3.2092156410217285 0.15259131789207458
15.990352630615234 -3.309267282485962 0.14839042723178864
15.993210792541504 -3.4123692512512207 0.14105424284934998
12.687559127807617 12.302518844604492 0.10155917704105377
13.757378578186035 9.634791374206543 0.23365820944309235
13.810142517089844 9.546341896057129 0.23332737386226654
13.804226875305176 9.294685363769531 0.25948813557624817
13.838513374328613 9.195209503173828 0.26312944293022156
13.85571002960205 9.084915161132812 0.2707492709159851
13.869609832763672 8.97315502166748 0.278967946767807
13.94874095916748 8.903751373291016 0.27124926447868347
14.07551097869873 8.625161170959473 0.2739526033401489
14.121016502380371 8.534625053405762 0.2737794816493988
14.172672271728516 8.447867393493652 0.27200213074684143
14.22295093536377 8.360298156738281 0.27041730284690857
14.263364791870117 8.267022132873535 0.27102527022361755
14.288707733154297 8.16529655456543 0.2750299274921417
16.242704391479492 0.772033154964447 0.1559126079082489
15.753644943237305 0.5552214980125427 0.2581271827220917
12.874984741210938 -0.6526962518692017 0.8489246368408203
12.845008850097656 -0.7302026152610779 0.852737545967102
12.854561805725098 -0.8098837733268738 0.8478826284408569
15.837082862854004 -1.9780313968658447 0.15931040048599243
15.737979888916016 -2.0638182163238525 0.17618419229984283
15.81847095489502 -2.1731863021850586 0.1534436196088791
15.812129020690918 -2.2712652683258057 0.1496577113866806
15.830300331115723 -2.373115062713623 0.14032304286956787
15.926962852478027 -2.487631320953369 0.11347544193267822
15.780668258666992 -2.6636104583740234 0.13450415432453156
13.792037010192871 9.279561996459961 0.1694740653038025
13.858041763305664 9.201308250427246 0.1652943193912506
13.862198829650879 9.082347869873047 0.17643031477928162
13.897479057312012 8.984410285949707 0.17959782481193542
13.946935653686523 8.895858764648438 0.17908070981502533
13.965179443359375 8.787741661071777 0.18612909317016602
14.071459770202637 8.264769554138184 0.21482713520526886
14.13415813446045 8.185680389404297 0.20997513830661774
15.758705139160156 0.5502889752388 0.16769450902938843
12.849964141845703 -0.7348042726516724 0.7785986661911011
12.845821380615234 -0.813656210899353 0.7766999006271362
15.717386245727539 -1.7726365327835083 0.10501926392316818
15.682503700256348 -1.866227388381958 0.10818715393543243
15.675146102905273 -1.96297287940979 0.10503631830215454
15.632359504699707 -2.055126428604126 0.1097424179315567
12.848336219787598 -0.7198691368103027 0.69933021068573
12.866652488708496 -0.8001019358634949 0.6923050880432129
12.843462944030762 -0.7259501814842224 0.6175256371498108
12.861698150634766 -0.8061602115631104 0.6103582978248596
12.837175369262695 -0.7230162024497986 0.538567841053009
12.847624778747559 -0.8026947975158691 0.5331377387046814
12.836162567138672 -0.7250654101371765 0.46748602390289307
12.855291366577148 -0.805282473564148 0.45981934666633606
12.832897186279297 -0.7145736217498779 0.3901137113571167
12.851078987121582 -0.7946931719779968 0.3825531303882599
12.821893692016602 -0.715751588344574 0.30695921182632446
12.85064697265625 -0.7964606881141663 0.29649171233177185
12.806568145751953 -0.7123572826385498 0.2321573793888092
12.873867988586426 -0.7953397035598755 0.21122945845127106
12.819747924804688 -0.7174675464630127 0.15888985991477966
12.89076042175293 -0.8007827401161194 0.13654674589633942
12.660123825073242 12.735549926757812 1.2916547060012817
12.676231384277344 12.66324520111084 1.295657992362976
12.783097267150879 12.77031135559082 0.37205126881599426
12.6990385055542 12.597972869873047 1.2984397411346436
12.776628494262695 12.675329208374023 0.3835366368293762
12.72861385345459 12.53965950012207 1.2999986410140991
12.70472526550293 12.51659107208252 0.41082239151000977
12.745128631591797 12.473106384277344 1.3034348487854004
12.723041534423828 12.452018737792969 0.41553109884262085
12.75993824005127 12.400896072387695 1.3074383735656738
12.777971267700195 12.332180976867676 1.3108304738998413
12.802846908569336 12.270355224609375 1.3129979372024536
31.0346736907959 29.53318977355957 0.334186315536499
12.824175834655762 12.201138496398926 1.3160392045974731
31.050329208374023 29.342525482177734 0.3408639430999756
12.846668243408203 12.137578010559082 1.318511724472046
31.052303314208984 29.140167236328125 0.3488369882106781
12.865255355834961 12.0706148147583 1.3215968608856201
12.897235870361328 12.101526260375977 0.43020734190940857
32.32881164550781 30.125303268432617 2.400055408477783
31.109790802001953 28.990842819213867 0.3510930836200714
12.887163162231445 12.007049560546875 1.3240689039230347
12.926542282104492 12.044705390930176 0.43229928612709045
32.40825653076172 29.99928855895996 2.398587942123413
31.092069625854492 28.782554626464844 0.3604762852191925
12.903067588806152 11.942361831665039 1.32719886302948
12.940872192382812 11.978375434875488 0.4374314248561859
32.481380462646484 29.857261657714844 2.3973772525787354
31.226964950561523 28.70594596862793 0.35478344559669495
12.929883003234863 11.883840560913086 1.3287492990493774
12.964226722717285 11.916488647460938 0.4408058524131775
32.52621841430664 29.6898136138916 2.3971002101898193
31.29356575012207 28.566551208496094 0.3559236228466034
12.952781677246094 11.821928977966309 1.3309125900268555
12.97821044921875 11.846281051635742 0.4463210701942444
32.53881072998047 29.49388313293457 2.3978888988494873
13.040621757507324 11.82226848602295 2.193065643310547
12.969890594482422 11.755005836486816 1.3339967727661133
13.004638671875 11.787699699401855 0.44883787631988525
32.50584411621094 29.25810432434082 2.4001901149749756
13.052046775817871 11.750006675720215 2.1951146125793457
12.990379333496094 11.691426277160645 1.3364667892456055
13.0216646194458 11.72083854675293 0.4534960985183716
32.44314193725586 28.98727798461914 2.4035208225250244
13.063301086425781 11.673867225646973 2.1973037719726562
13.008903503417969 11.622271537780762 1.3395050764083862
13.04958724975586 11.659933090209961 0.4559653401374817
32.459896087646484 28.79924774169922 2.4040799140930176
13.087075233459473 11.613324165344238 2.1980559825897217
13.034366607666016 11.563640594482422 1.341051459312439
13.067856788635254 11.594721794128418 0.46019434928894043
32.52072525024414 28.65110206604004 2.4031260013580322
13.101231575012207 11.544513702392578 2.199735403060913
13.057722091674805 11.503334045410156 1.3429044485092163
13.08768081665039 11.53115177154541 0.46399444341659546
32.560916900634766 28.495405197143555 2.4027907848358154
13.129953384399414 11.49281120300293 2.19978928565979
13.075090408325195 11.44201946258545 1.3454184532165527
13.116349220275879 11.479602813720703 0.4652657210826874
32.577789306640625 28.320077896118164 2.4032163619995117
13.147188186645508 11.431229591369629 2.2009570598602295
13.09219741821289 11.380715370178223 1.3479318618774414
13.128091812133789 11.413447380065918 0.47039827704429626
32.58173751831055 28.124568939208984 2.4041035175323486
13.166139602661133 11.367365837097168 2.2020785808563232
13.112885475158691 11.318757057189941 1.3500910997390747
13.15829086303711 11.35953140258789 0.4716208875179291
32.60749053955078 27.948894500732422 2.4042317867279053
13.186698913574219 11.305130958557129 2.2030136585235596
13.13895320892334 11.261636734008789 1.3513256311416626
13.17892074584961 11.297529220581055 0.4749895930290222
32.600067138671875 27.745849609375 2.4054479598999023
13.212678909301758 11.247737884521484 2.2033894062042236
13.164782524108887 11.204469680786133 1.3525587320327759
13.201156616210938 11.237115859985352 0.4779277741909027
32.6202507019043 27.567392349243164 2.4057109355926514
13.240323066711426 11.191910743713379 2.2035772800445557
13.188477516174316 11.145658493041992 1.3540990352630615
13.223132133483887 11.176685333251953 0.48086559772491455
32.639591217041016 27.38913345336914 2.405977249145508
13.260101318359375 11.129615783691406 2.204509973526001
13.208121299743652 11.083630561828613 1.3562554121017456
13.242959022521973 11.114654541015625 0.4842322766780853
32.647464752197266 27.192581176757812 2.406646490097046
13.279617309570312 11.063406944274902 2.2055823802948
13.227502822875977 11.017704963684082 1.3586738109588623
13.266325950622559 11.05188274383545 0.48712167143821716
32.65155792236328 27.003629684448242 2.4073705673217773
13.293067932128906 10.996344566345215 2.2070751190185547
13.244675636291504 10.954094886779785 1.3611384630203247
13.293196678161621 10.996113777160645 0.48876717686653137
32.6605224609375 26.819740295410156 2.407907247543335
13.317771911621094 10.93881893157959 2.2074460983276367
13.265401840209961 10.893648147583008 1.3629854917526245
13.302713394165039 10.926226615905762 0.4942830801010132
32.68022537231445 26.64558982849121 2.40805983543396
13.340307235717773 10.879677772521973 2.208003282546997
13.287790298461914 10.834756851196289 1.364522099494934
13.323355674743652 10.865743637084961 0.4972180724143982
32.687461853027344 26.46219825744629 2.408604145050049
13.35677719116211 10.815807342529297 2.2091214656829834
13.313785552978516 10.778963088989258 1.3654396533966064
13.349480628967285 10.80989933013916 0.4988603889942169
32.693809509277344 26.27907943725586 2.409153461456299
13.384625434875488 10.761323928833008 2.2091147899627686
13.329886436462402 10.715350151062012 1.3679027557373047
13.36961841583252 10.749372482299805 0.5017939209938049
32.709049224853516 26.104032516479492 2.40938138961792
13.40056324005127 10.697447776794434 2.2102322578430176
13.353461265563965 10.657944679260254 1.369127869606018
13.395275115966797 10.69344711303711 0.5034339427947998
32.709754943847656 25.9183349609375 2.4100704193115234
13.425989151000977 10.641334533691406 2.2104110717773438
13.36707592010498 10.592801094055176 1.3719003200531006
13.412981986999512 10.631353378295898 0.5067964792251587
32.717979431152344 25.730335235595703 2.410517692565918
13.44518756866455 10.576659202575684 2.2112927436828613
13.390028953552246 10.531492233276367 1.3733865022659302
13.434185981750488 10.56844425201416 0.509680449962616
32.722782135009766 25.54987335205078 2.411020517349243
13.468161582946777 10.518939971923828 2.2116575241088867
13.408939361572266 10.470970153808594 1.375228762626648
13.457173347473145 10.510900497436523 0.5117487907409668
32.730674743652344 25.37274932861328 2.4113969802856445
13.486955642700195 10.458133697509766 2.212397336959839
13.433469772338867 10.414999961853027 1.37614107131958
13.470191955566406 10.445783615112305 0.5159727334976196
32.72740173339844 25.197023391723633 2.41209077835083
13.501704216003418 10.39815902709961 2.2133729457855225
13.452043533325195 10.35831069946289 1.377719759941101
13.492825508117676 10.392065048217773 0.5176562070846558
32.73562240600586 25.021955490112305 2.412410259246826
13.531866073608398 10.346442222595215 2.212981939315796
13.47218132019043 10.299261093139648 1.3792502880096436
13.5053071975708 10.326982498168945 0.5218803286552429
32.74501419067383 24.848651885986328 2.412667989730835
13.54991626739502 10.285595893859863 2.2137203216552734
13.49404525756836 10.24169635772705 1.380469560623169
13.517499923706055 10.26193618774414 0.5261050462722778
32.7515983581543 24.67407989501953 2.4129960536956787
13.573681831359863 10.229253768920898 2.2138919830322266
13.509725570678711 10.1796236038208 1.3826203346252441
13.53923511505127 10.204340934753418 0.5281705856323242
32.75936508178711 24.501262664794922 2.413262367248535
13.583244323730469 10.16241455078125 2.2153844833374023
13.537059783935547 10.126483917236328 1.3829056024551392
13.560736656188965 10.14671802520752 0.5302355289459229
32.6981086730957 24.278045654296875 2.4157931804656982
13.600512504577637 10.101580619812012 2.2161216735839844
13.552236557006836 10.064401626586914 1.3850555419921875
13.582000732421875 10.089068412780762 0.532299280166626
32.54717254638672 23.990312576293945 2.421269655227661
13.627553939819336 10.048144340515137 2.2159135341644287
13.575133323669434 10.008225440979004 1.385960578918457
13.59509563446045 10.025548934936523 0.5360918045043945
32.42085647583008 23.723114013671875 2.425905227661133
13.644330978393555 9.987282752990723 2.2166495323181152
13.595799446105957 9.950545310974121 1.3871761560440063
13.633748054504395 9.980963706970215 0.5342621803283691
32.432647705078125 23.54983139038086 2.4259650707244873
13.674674987792969 9.932827949523926 2.216201066970825
13.621963500976562 9.893381118774414 1.3877198696136475
13.671984672546387 9.932401657104492 0.5328134894371033
32.51657485961914 23.437969207763672 2.4235951900482178
13.694999694824219 9.874848365783691 2.2165565490722656
13.642158508300781 9.835639953613281 1.3889333009719849
13.662396430969238 9.852959632873535 0.5413633584976196
32.502559661865234 23.256006240844727 2.4244446754455566
13.709003448486328 9.812493324279785 2.2174806594848633
13.662116050720215 9.777876853942871 1.3901457786560059
32.54476547241211 23.123523712158203 2.423396110534668
13.73120403289795 9.75977611541748 2.2175042629241943
13.684191703796387 9.725354194641113 1.3907828330993652
32.578208923339844 22.9766845703125 2.422636032104492
13.744708061218262 9.697434425354004 2.218427896499634
13.697616577148438 9.663253784179688 1.3929295539855957
13.708121299743652 9.673503875732422 0.5501888394355774
32.571998596191406 22.794113159179688 2.423180341720581
13.775959014892578 9.64415168762207 2.2177820205688477
13.722599983215332 9.605894088745117 1.3934677839279175
13.719033241271973 9.606277465820312 0.5543655157089233
32.60405731201172 22.647520065307617 2.4224228858947754
13.788958549499512 9.58180046081543 2.2187047004699707
13.743654251098633 9.549466133117676 1.3943649530410767
13.740119934082031 9.5499267578125 0.55599045753479
32.5778694152832 22.461261749267578 2.4235689640045166
13.816055297851562 9.52938175201416 2.218295097351074
13.764480590820312 9.49300479888916 1.3952617645263672
13.765029907226562 9.496337890625 0.556747555732727
32.52603530883789 22.258527755737305 2.425539493560791
13.834725379943848 9.471257209777832 2.2186455726623535
13.780988693237305 9.433714866638184 1.3967822790145874
32.5251579284668 22.100017547607422 2.4257965087890625
13.851520538330078 9.415535926818848 2.2190449237823486
13.807929992675781 9.385194778442383 1.396475911140442
14.185225486755371 9.644698143005371 0.4789036512374878
32.55848693847656 21.95703887939453 2.4249160289764404
13.873860359191895 9.360177040100098 2.219012498855591
13.82809829711914 9.328639030456543 1.397369623184204
14.19611644744873 9.580001831054688 0.4826681911945343
32.555904388427734 21.79046630859375 2.4252002239227295
13.895983695983887 9.30477523803711 2.2189793586730957
13.852161407470703 9.27481460571289 1.3976364135742188
14.053299903869629 9.412605285644531 0.5189970135688782
32.535911560058594 21.61311912536621 2.426039457321167
13.917890548706055 9.2493314743042 2.218944549560547
13.878085136413574 9.222309112548828 1.3975884914398193
13.895143508911133 9.236783027648926 0.558388352394104
32.44412612915039 21.3894100189209 2.4292256832122803
13.941657066345215 9.195220947265625 2.2187178134918213
13.88724422454834 9.158812522888184 1.4000455141067505
13.933234214782715 9.192315101623535 0.5560946464538574
32.42229461669922 21.213125228881836 2.430084228515625
13.963130950927734 9.139692306518555 2.2186808586120605
13.90858268737793 9.103511810302734 1.4006223678588867
13.962944030761719 9.142300605773926 0.5555359125137329
32.43263626098633 21.050647735595703 2.42986798286438
13.979695320129395 9.077613830566406 2.219167709350586
13.933356285095215 9.047093391418457 1.4008350372314453
13.975464820861816 9.077679634094238 0.5588383078575134
32.453285217285156 20.90351104736328 2.429286479949951
14.009093284606934 9.027427673339844 2.2183620929718018
13.952171325683594 8.990363121032715 1.4017232656478882
13.99855899810791 9.02353286743164 0.5595808029174805
32.5196418762207 20.78609275817871 2.4271793365478516
14.02150821685791 8.966404914855957 2.2190892696380615
13.97284984588623 8.93494701385498 1.402296781539917
14.013147354125977 8.964027404785156 0.5620622634887695
32.5714111328125 20.667457580566406 2.425530195236206
14.042642593383789 8.914533615112305 2.2189064025878906
13.995957374572754 8.88459587097168 1.4022912979125977
14.028027534484863 8.908296585083008 0.5641587972640991
32.6072998046875 20.531034469604492 2.4243898391723633
14.0651273727417 8.860163688659668 2.218672513961792
14.01832103729248 8.830421447753906 1.4025487899780273
14.131706237792969 8.905228614807129 0.5479194521903992
32.58753204345703 20.360185623168945 2.4250643253326416
14.083178520202637 8.803105354309082 2.2188215255737305
14.038374900817871 8.774884223937988 1.403118371963501
14.087325096130371 8.808893203735352 0.5625884532928467
32.53722381591797 20.171289443969727 2.426727056503296
14.105238914489746 8.748655319213867 2.21858549118042
14.060317993164062 8.720621109008789 1.4033732414245605
14.398077011108398 8.93358325958252 0.5032036304473877
32.496646881103516 19.98954200744629 2.4280505180358887
14.131339073181152 8.696771621704102 2.2179622650146484
14.07360553741455 8.661110877990723 1.404885172843933
14.35975456237793 8.840712547302246 0.5165563821792603
32.46799850463867 19.816133499145508 2.428962469100952
14.144479751586914 8.637017250061035 2.218494176864624
14.099349975585938 8.609371185302734 1.4045084714889526
32.52320098876953 19.686683654785156 2.4270877838134766
14.16952896118164 8.58126449584961 2.218010663986206
14.128511428833008 8.556373596191406 1.4037648439407349
32.5080680847168 19.522890090942383 2.427515745162964
14.190743446350098 8.526633262634277 2.2177696228027344
14.153871536254883 8.504470825195312 1.4033842086791992
14.165390968322754 8.514963150024414 0.5727498531341553
32.39558029174805 19.301889419555664 2.431136131286621
14.218167304992676 8.475788116455078 2.216947317123413
14.170517921447754 8.447416305541992 1.404262900352478
14.171539306640625 8.451624870300293 0.576537013053894
32.43253707885742 19.170921325683594 2.4298102855682373
14.234686851501465 8.418513298034668 2.217089891433716
14.191208839416504 8.392873764038086 1.4045099020004272
14.166823387145996 8.382076263427734 0.5825080871582031
32.41607666015625 19.016511917114258 2.430233955383301
14.262422561645508 8.3712797164917 2.2161216735839844
14.214526176452637 8.343276977539062 1.4041757583618164
14.202814102172852 8.34006118774414 0.5797975063323975
32.4605598449707 18.890708923339844 2.42862606048584
14.284984588623047 8.317699432373047 2.215681314468384
14.224103927612305 8.282400131225586 1.405998945236206
14.225229263305664 8.286742210388184 0.5800908803939819
32.49806594848633 18.76107406616211 2.42722749710083
14.315982818603516 8.269048690795898 2.2144641876220703
14.252758026123047 8.232720375061035 1.404979944229126
14.25170612335205 8.23582935333252 0.5795091390609741
32.59794998168945 18.667417526245117 2.4237544536590576
14.33816146850586 8.215327262878418 2.2140204906463623
14.257570266723633 8.169380187988281 1.4074342250823975
14.288681030273438 8.190953254699707 0.5767389535903931
32.69975280761719 18.574527740478516 2.420199155807495
14.3666410446167 8.16524600982666 2.2129926681518555
14.285831451416016 8.119584083557129 1.406412124633789
14.310535430908203 8.137401580810547 0.577026903629303
32.737022399902344 18.437419891357422 2.4187428951263428
14.378987312316895 8.102766990661621 2.213465452194214
14.323959350585938 8.072060585021973 1.4040716886520386
14.322868347167969 8.075255393981934 0.579449474811554
32.779258728027344 18.31087875366211 2.4171149730682373
14.431008338928223 8.065917015075684 2.2102952003479004
14.345386505126953 8.018404960632324 1.4039937257766724
14.319273948669434 8.010917663574219 0.5846004486083984
32.77534103393555 18.17391014099121 2.417020082473755
14.392038345336914 7.985346794128418 1.3999017477035522
14.3670654296875 7.975356578826904 0.5792469382286072
32.88008117675781 18.08230209350586 2.4132943153381348
14.418306350708008 7.938239097595215 0.5733989477157593
32.94289779663086 17.967449188232422 2.410933494567871
14.964503288269043 8.16657829284668 2.1669397354125977
32.998714447021484 17.848814010620117 2.4087865352630615
14.930193901062012 8.08092212677002 1.3305351734161377
33.01446533203125 17.7087459564209 2.407945156097412
33.04730224609375 17.57817268371582 2.4065213203430176
33.06415557861328 17.439428329467773 2.405609130859375
27.77134132385254 14.655115127563477 1.0364981889724731
33.084861755371094 17.30309295654297 2.4045515060424805
27.79783058166504 14.54541015625 1.0366549491882324
33.08138656616211 17.14725112915039 2.40425705909729
27.828624725341797 14.431991577148438 1.0365148782730103
33.10093688964844 17.011144638061523 2.4032022953033447
27.818782806396484 14.30402946472168 1.0398062467575073
33.10657501220703 16.868303298950195 2.4025912284851074
27.826152801513672 14.1853666305542 1.0415323972702026
33.11831283569336 16.729013442993164 2.401761293411255
33.12724304199219 16.588726043701172 2.4010071754455566
33.131126403808594 16.44635581970215 2.4004039764404297
33.13441467285156 16.304161071777344 2.3998029232025146
33.13936996459961 16.16324234008789 2.3991312980651855
33.15552520751953 16.02104949951172 2.398043632507324
33.15705490112305 15.87934684753418 2.397451877593994
32.61777114868164 15.629866600036621 0.6364400386810303
33.15800476074219 15.73783016204834 2.396862745285034
32.5796012878418 15.472124099731445 0.6421855688095093
33.16469192504883 15.606539726257324 2.3960955142974854
32.66883850097656 15.382084846496582 0.6365941762924194
33.16676712036133 15.466422080993652 2.395437002182007
32.98182678222656 15.389166831970215 0.6114901900291443
33.1773567199707 15.330672264099121 2.3944790363311768
33.116554260253906 15.311634063720703 0.6019846200942993
33.1760368347168 15.189837455749512 2.393901824951172
33.140106201171875 15.182489395141602 0.6021696925163269
33.18551254272461 15.054357528686523 2.392948865890503
33.16770553588867 15.055428504943848 0.6019589900970459
33.199012756347656 14.921046257019043 2.3918442726135254
33.19709396362305 14.929378509521484 0.6015490293502808
33.205142974853516 14.784775733947754 2.3909707069396973
33.180477142333984 14.783025741577148 0.6051090955734253
33.203861236572266 14.645618438720703 2.3903284072875977
33.181488037109375 14.64501953125 0.6070857048034668
33.213462829589844 14.511651039123535 2.3893063068389893
33.17279815673828 14.503192901611328 0.609860360622406
33.21586227416992 14.368030548095703 2.388472557067871
33.16602325439453 14.355817794799805 0.6125199794769287
33.222068786621094 14.233335494995117 2.387531280517578
33.18821716308594 14.228218078613281 0.6125131845474243
33.2183837890625 14.101639747619629 2.3869433403015137
33.198299407958984 14.102534294128418 0.6134248375892639
33.2304573059082 13.97014045715332 2.3857758045196533
33.2103385925293 13.971144676208496 0.6142174005508423
33.22815704345703 13.832964897155762 2.385073184967041
33.22186279296875 13.839842796325684 0.6150104999542236
33.22993850708008 13.697881698608398 2.384218692779541
33.232879638671875 13.708630561828613 0.6158052086830139
33.26356506347656 13.576169967651367 2.382279872894287
33.24338150024414 13.577509880065918 0.6166014671325684
33.25504684448242 13.437543869018555 2.381740093231201
33.28572082519531 13.459558486938477 0.6145946979522705
33.23668670654297 13.295430183410645 2.3815157413482666
33.25823974609375 13.313694953918457 0.6185983419418335
33.18285369873047 13.133097648620605 2.3824281692504883
33.22547912597656 13.159637451171875 0.6230900883674622
33.1539421081543 12.988057136535645 2.38253116607666
33.15497589111328 12.998147964477539 0.6307221055030823
33.15470886230469 12.855121612548828 2.3816208839416504
33.151126861572266 12.863448143005371 0.6325390338897705
33.23427963256836 12.75277042388916 2.3780364990234375
33.174659729003906 12.739652633666992 0.6319453716278076
33.39352798461914 12.696907043457031 0.6143625974655151
33.51905059814453 12.61101245880127 0.6048901081085205
33.724212646484375 12.544103622436523 2.3587183952331543
33.751792907714844 12.564379692077637 0.586126983165741
33.73954772949219 12.415985107421875 2.3572232723236084
33.75312805175781 12.431029319763184 0.5873100161552429
33.78023910522461 12.297314643859863 2.354854106903076
33.79139709472656 12.311466217041016 0.585264265537262
33.789939880371094 12.16750717163086 2.353517770767212
33.784706115722656 12.175740242004395 0.5870552062988281
33.80150604248047 12.038619995117188 2.352102041244507
33.74930953979492 12.030170440673828 0.5912782549858093
33.77958297729492 11.898178100585938 2.351808786392212
33.790863037109375 11.912330627441406 0.5888266563415527
33.818138122558594 11.77268123626709 2.3493919372558594
33.80816650390625 11.779427528381348 0.588477373123169
33.80221939086914 11.635079383850098 2.3488645553588867
33.808799743652344 11.647590637207031 0.5894684195518494
33.811771392822266 11.506587028503418 2.347454309463501
33.82071304321289 11.519904136657715 0.5894469618797302
33.8306999206543 11.388052940368652 2.345764636993408
33.82780838012695 11.397385597229004 0.5897520184516907
33.82036209106445 11.253363609313965 2.3450043201446533
33.82933044433594 11.266680717468262 0.5905449986457825
33.83084487915039 11.12590503692627 2.3435168266296387
33.83271789550781 11.136881828308105 0.5911372303962708
33.83610153198242 10.996967315673828 2.342193365097046
33.83087158203125 11.005653381347656 0.5921381711959839
33.85991287231445 10.87424087524414 2.340219736099243
33.84749984741211 10.880675315856934 0.5915104746818542
33.826114654541016 10.733346939086914 2.340203046798706
33.8470458984375 10.750433921813965 0.5923112630844116
33.8632698059082 10.615238189697266 2.3377394676208496
33.83897399902344 10.618090629577637 0.5937259197235107
33.85409927368164 10.476314544677734 2.336789846420288
33.85361099243164 10.486663818359375 0.5931816101074219
33.865875244140625 10.344170570373535 2.335103750228882
33.85107421875 10.350172996520996 0.5940698385238647
33.880149841308594 10.219432830810547 2.3333773612976074
33.86290740966797 10.224788665771484 0.5936509370803833
33.87001037597656 10.087591171264648 2.3324756622314453
33.867122650146484 10.097311019897461 0.5938465595245361
33.87854766845703 9.96158218383789 2.330916166305542
33.87563705444336 9.971334457397461 0.5936338305473328
33.86570739746094 9.835973739624023 2.3301424980163574
33.877197265625 9.849940299987793 0.5939555764198303
33.8829231262207 9.712915420532227 2.328253984451294
33.87761306762695 9.72204875946045 0.5943604111671448
33.88766098022461 9.586453437805176 2.3267810344696045
33.891937255859375 9.598345756530762 0.5935348272323608
33.88307189941406 9.463977813720703 2.3256826400756836
33.89216613769531 9.477219581604004 0.5938600301742554
33.89411926269531 9.339706420898438 2.3239612579345703
33.90712356567383 9.216126441955566 2.322157382965088
33.90037536621094 9.087396621704102 2.3210232257843018
33.907630920410156 8.96265697479248 2.319387912750244
33.919097900390625 8.976489067077637 0.5926199555397034
33.91596221923828 8.832056999206543 2.3176302909851074
33.922603607177734 8.844614028930664 0.5924979448318481
33.934383392333984 8.710542678833008 2.3155736923217773
33.9240837097168 8.718748092651367 0.5925021171569824
33.94603729248047 8.593704223632812 2.3138105869293213
33.94662094116211 8.467935562133789 2.3123464584350586
