# .PCD v0.7 - Point Cloud Data file format
VERSION 0.7
FIELDS x y z
SIZE 4 4 4
TYPE F F F
COUNT 1 1 1
WIDTH 852
HEIGHT 1
VIEWPOINT 0 0 0 1 0 0 0
POINTS 852
DATA ascii
13.085758209228516 11.368478775024414 0.36796918511390686
13.128728866577148 11.265621185302734 0.3728356957435608
13.1454439163208 11.14106273651123 0.38400378823280334
13.199559211730957 11.0488862991333 0.3857133388519287
13.227289199829102 10.935176849365234 0.39372768998146057
13.233573913574219 10.804763793945312 0.4067571461200714
13.260945320129395 10.692569732666016 0.41440340876579285
13.297431945800781 10.588400840759277 0.41963329911231995
13.33777904510498 10.487828254699707 0.4237452447414398
13.37739372253418 10.387158393859863 0.42785415053367615
13.413158416748047 10.284004211425781 0.43270498514175415
13.452862739562988 10.184356689453125 0.43643563985824585
13.487130165100098 10.08107852935791 0.44128188490867615
13.51036262512207 9.970179557800293 0.44855040311813354
13.543066024780273 9.866891860961914 0.4533943235874176
13.594955444335938 9.77791690826416 0.453569233417511
13.639052391052246 9.683555603027344 0.45541912317276
13.680895805358887 9.587891578674316 0.45763811469078064
13.79883098602295 9.545166015625 0.4420890510082245
14.114712715148926 9.636494636535645 0.38086748123168945
13.76580810546875 9.275312423706055 0.47269436717033386
13.815497398376465 9.186366081237793 0.4724673926830292
13.877754211425781 9.105779647827148 0.46923568844795227
13.923049926757812 9.0140962600708 0.46974441409111023
13.924698829650879 8.894702911376953 0.48000308871269226
13.96280574798584 8.79919147491455 0.48182055354118347
14.368134498596191 8.932223320007324 0.4008103609085083
14.004424095153809 8.58774471282959 0.4927731454372406
14.045512199401855 8.495091438293457 0.4934557378292084
14.104547500610352 8.413323402404785 0.48999452590942383
14.143637657165527 8.319695472717285 0.4908539652824402
14.181260108947754 8.225411415100098 0.4918970465660095
14.217406272888184 8.130486488342285 0.4931248426437378
14.276877403259277 8.048931121826172 0.48906901478767395
14.301543235778809 7.947867393493652 0.49255040287971497
14.711368560791016 8.05814266204834 0.41146183013916016
14.916520118713379 8.052199363708496 0.37541693449020386
15.056246757507324 8.008989334106445 0.3536882698535919
15.731656074523926 0.5588149428367615 0.45765411853790283
12.87887191772461 -0.649029016494751 1.0078282356262207
12.853766441345215 -0.7268381714820862 1.0103391408920288
12.845795631408691 -0.8054699897766113 1.0092566013336182
16.00084686279297 -1.596333622932434 0.34120503067970276
16.060470581054688 -1.7018672227859497 0.3246443271636963
15.934428215026855 -1.7874424457550049 0.3462509512901306
15.810872077941895 -1.8718842267990112 0.3672853708267212
16.012516021728516 -1.9954673051834106 0.3209376633167267
15.765477180480957 -2.0629968643188477 0.36736100912094116
16.050020217895508 -2.200495481491089 0.3034317195415497
15.8108549118042 -2.2666337490081787 0.3480956554412842
15.796229362487793 -2.3635551929473877 0.3460155129432678
15.739398002624512 -2.4538967609405518 0.3526170253753662
15.712990760803223 -2.5486512184143066 0.35276684165000916
15.646419525146484 -2.6365039348602295 0.3612077534198761
16.095478057861328 -2.8138792514801025 0.26145875453948975
15.98379898071289 -2.997001886367798 0.2730128765106201
16.032936096191406 -3.108203649520874 0.25651806592941284
16.060178756713867 -3.215893030166626 0.2444671243429184
16.05889129638672 -3.318288803100586 0.23828960955142975
16.061737060546875 -3.4218125343322754 0.23109395802021027
16.053396224975586 -3.5231893062591553 0.22612835466861725
16.066377639770508 -3.6295578479766846 0.21648617088794708
16.041460037231445 -3.727576732635498 0.2147691696882248
12.685125350952148 12.604936599731445 0.16969433426856995
12.628653526306152 12.396248817443848 0.20430582761764526
12.666666984558105 12.282353401184082 0.21284668147563934
13.038864135742188 11.746367454528809 0.2212914228439331
13.070639610290527 11.630950927734375 0.22999773919582367
13.085274696350098 11.501330375671387 0.2429097294807434
13.125497817993164 11.39513111114502 0.24894049763679504
13.151503562927246 11.277368545532227 0.2584132254123688
13.186299324035645 11.167960166931152 0.2653982639312744
13.199170112609863 11.040916442871094 0.2777448296546936
13.231413841247559 10.931011199951172 0.2849218249320984
13.27269458770752 10.829190254211426 0.28960567712783813
13.309405326843262 10.72419261932373 0.2952454686164856
13.344562530517578 10.61854076385498 0.30107539892196655
13.370437622070312 10.506187438964844 0.30901551246643066
13.416375160217285 10.41015911102295 0.3117694854736328
13.430480003356934 10.29008674621582 0.3222070038318634
13.474142074584961 10.193321228027344 0.325148344039917
13.520269393920898 10.0987548828125 0.32731589674949646
13.541260719299316 9.98594856262207 0.3354460597038269
13.582006454467773 9.888279914855957 0.33857014775276184
13.615692138671875 9.785902976989746 0.34323227405548096
13.655036926269531 9.68802547454834 0.34634989500045776
13.699320793151855 9.593972206115723 0.34811440110206604
13.742157936096191 9.49917984008789 0.3500669598579407
13.800662994384766 9.292110443115234 0.3599480390548706
13.843092918395996 9.19807243347168 0.36150431632995605
13.873400688171387 9.096328735351562 0.3657638728618622
13.891451835632324 8.98709774017334 0.37273046374320984
13.955825805664062 8.908071517944336 0.368663489818573
13.961639404296875 8.791998863220215 0.37814560532569885
14.038339614868164 8.602161407470703 0.38141581416130066
14.076993942260742 8.50778865814209 0.3827543556690216
14.124287605285645 8.418789863586426 0.3819531500339508
14.15664291381836 8.321075439453125 0.38444769382476807
14.210397720336914 8.23607063293457 0.3818866014480591
14.227020263671875 8.12978744506836 0.387678861618042
14.364301681518555 7.976590633392334 0.3751288652420044
14.557089805603027 7.967467784881592 0.3405941128730774
15.732712745666504 0.5539811849594116 0.35724779963493347
12.858813285827637 -0.7312545776367188 0.9272118210792542
12.865457534790039 -0.8108388185501099 0.9230571985244751
16.2059268951416 -1.6218247413635254 0.19505539536476135
16.0424861907959 -1.7049520015716553 0.22540198266506195
15.807673454284668 -1.7781574726104736 0.2708975374698639
15.729972839355469 -1.8672281503677368 0.28290361166000366
15.868255615234375 -1.9824541807174683 0.24871854484081268
15.805891990661621 -2.0732452869415283 0.25720763206481934
16.003711700439453 -2.199165105819702 0.2099006175994873
15.935256958007812 -2.2894809246063232 0.21942128241062164
15.845982551574707 -2.375997543334961 0.23332005739212036
15.770750999450684 -2.4637725353240967 0.24412164092063904
15.934479713439941 -2.5896224975585938 0.20336051285266876
16.043231964111328 -2.708458423614502 0.17420747876167297
16.054771423339844 -2.811856746673584 0.16584648191928864
16.206144332885742 -2.9409947395324707 0.12705862522125244
16.02682113647461 -3.010181427001953 0.15973976254463196
15.982645034790039 -3.1035659313201904 0.16304990649223328
16.003129959106445 -3.2096002101898193 0.1521737277507782
15.987479209899902 -3.3086726665496826 0.14901722967624664
15.992254257202148 -3.412165403366089 0.14126314222812653
12.677000999450684 12.292278289794922 0.10450083762407303
13.77664566040039 9.648285865783691 0.2288932502269745
13.80933666229248 9.545784950256348 0.23352575302124023
13.7928466796875 9.28702163696289 0.26227179169654846
13.828718185424805 9.188700675964355 0.26551660895347595
13.86882209777832 9.093513488769531 0.26756423711776733
13.877836227416992 8.97847843170166 0.2769765853881836
13.953697204589844 8.906914710998535 0.27005383372306824
14.065485000610352 8.619016647338867 0.2763475179672241
14.115984916687012 8.531584739685059 0.2749773859977722
14.170989036560059 8.446864128112793 0.2724018692970276
14.217883110046387 8.357318878173828 0.27161645889282227
14.25997257232666 8.265055656433105 0.2718251645565033
14.311675071716309 8.178422927856445 0.26962748169898987
16.21926498413086 0.7709171175956726 0.16093522310256958
15.743873596191406 0.5548762679100037 0.2602223753929138
12.851839065551758 -0.7305902242660522 0.8512572646141052
12.851635932922363 -0.8096997141838074 0.848517119884491
15.851627349853516 -1.979846715927124 0.1561174839735031
15.747669219970703 -2.0650877952575684 0.1740543097257614
15.826213836669922 -2.1742496490478516 0.1517391800880432
15.816964149475098 -2.2719595432281494 0.14859145879745483
15.814840316772461 -2.3707988262176514 0.1437368541955948
15.904762268066406 -2.484165668487549 0.11838550865650177
15.782594680786133 -2.663935422897339 0.13407672941684723
13.781478881835938 9.272456169128418 0.17212794721126556
13.853148460388184 9.19805908203125 0.16651971638202667
13.877755165100098 9.09254264831543 0.1725478321313858
13.908164978027344 8.991320610046387 0.17694000899791718
13.946935653686523 8.895858764648438 0.17908070981502533
13.953581809997559 8.780441284179688 0.18899418413639069
14.072304725646973 8.265265464782715 0.21462194621562958
15.741135597229004 0.5496731400489807 0.17156124114990234
12.8441162109375 -0.7344708442687988 0.7798990607261658
12.847770690917969 -0.813779354095459 0.7762659788131714
15.72805404663086 -1.7738384008407593 0.10262240469455719
15.684441566467285 -1.8664577007293701 0.10775123536586761
15.685799598693848 -1.9643054008483887 0.10263662785291672
15.627522468566895 -2.0544910430908203 0.11083366721868515
12.855149269104004 -0.7202510833740234 0.6977725028991699
12.848165512084961 -0.7989518642425537 0.696535050868988
12.848322868347168 -0.7262246608734131 0.6163833737373352
12.851982116699219 -0.8055515885353088 0.6126440167427063
12.842029571533203 -0.7232890725135803 0.5373966693878174
12.855386734008789 -0.8031789064407349 0.5312626957893372
12.841010093688965 -0.7253383994102478 0.4662894904613495
12.845601081848145 -0.8046770095825195 0.46221402287483215
12.841609001159668 -0.7150589227676392 0.3879093825817108
12.841402053833008 -0.7940945625305176 0.3850034475326538
12.829626083374023 -0.7161829471588135 0.30495113134384155
12.840019226074219 -0.7958024144172668 0.2992539405822754
12.819113731384277 -0.713053822517395 0.22882211208343506
12.844928741455078 -0.7935547828674316 0.21893000602722168
12.819747924804688 -0.7174675464630127 0.15888985991477966
12.882089614868164 -0.8002455830574036 0.13890108466148376
12.659659385681152 12.739519119262695 1.2913938760757446
12.674030303955078 12.665457725524902 1.2957020998001099
12.759969711303711 12.75164794921875 0.37721604108810425
12.700372695922852 12.60368537902832 1.2978729009628296
12.783170700073242 12.686234474182129 0.38144683837890625
12.72861385345459 12.53965950012207 1.2999986410140991
12.7626371383667 12.57363510131836 0.39673349261283875
12.741973876953125 12.465676307678223 1.304307460784912
12.728724479675293 12.45324420928955 0.41463226079940796
12.762093544006348 12.398670196533203 1.3073939085006714
12.783327102661133 12.337348937988281 1.3099122047424316
12.801054954528809 12.268637657165527 1.3133043050765991
31.081905364990234 29.588455200195312 0.32895150780677795
12.823851585388184 12.205084800720215 1.3157776594161987
31.052467346191406 29.35478973388672 0.3402352035045624
12.842755317687988 12.138114929199219 1.318862795829773
31.056318283081055 29.154117584228516 0.3480232357978821
12.870394706726074 12.07965087890625 1.3204158544540405
12.88795280456543 12.097034454345703 0.43196362257003784
32.34892654418945 30.144044876098633 2.3993711471557617
31.113441467285156 28.994243621826172 0.3507238030433655
12.921134948730469 12.039669036865234 0.43358302116394043
32.418983459472656 29.99872398376465 2.398287773132324
31.10805892944336 28.787290573120117 0.3592589497566223
12.951990127563477 11.984481811523438 0.4352457523345947
32.486900329589844 29.862335205078125 2.3971896171569824
31.21595001220703 28.69582176208496 0.3558925986289978
12.926227569580078 11.880481719970703 1.3293631076812744
12.969666481018066 11.921489715576172 0.43952131271362305
32.516990661621094 29.68138885498047 2.3974125385284424
31.28620147705078 28.55982780456543 0.3566634953022003
12.952781677246094 11.821928977966309 1.3309125900268555
12.989127159118652 11.856244087219238 0.44375091791152954
32.542510986328125 29.49724006652832 2.397763729095459
13.018454551696777 11.802175521850586 2.1952874660491943
12.9735689163208 11.758338928222656 1.3333826065063477
13.004638671875 11.787699699401855 0.44883787631988525
32.52627944946289 29.2764949798584 2.39949893951416
13.05019474029541 11.74833869934082 2.1952998638153076
12.995912551879883 11.696406364440918 1.3355447053909302
13.023494720458984 11.72248649597168 0.4530675411224365
32.47722244262695 29.027912139892578 2.4023125171661377
13.066845893859863 11.681132316589355 2.196793556213379
13.012433052062988 11.629498481750488 1.3386282920837402
13.049399375915527 11.663850784301758 0.45558246970176697
32.451133728027344 28.801591873168945 2.404320001602173
13.086915969848633 11.617259979248047 2.197916269302368
13.037927627563477 11.570855140686035 1.3401745557785034
13.07321548461914 11.603541374206543 0.45852503180503845
32.54135513305664 28.669275283813477 2.402430772781372
13.110584259033203 11.552754402160645 2.1988072395324707
13.065171241760254 11.509894371032715 1.341673731803894
13.09876823425293 11.54092025756836 0.4614206850528717
32.579044342041016 28.50124168395996 2.4022326469421387
13.130077362060547 11.48887825012207 2.1999289989471436
13.078946113586426 11.441370964050293 1.345064401626587
13.116486549377441 11.475693702697754 0.4656488299369812
32.60536193847656 28.334064483642578 2.4023406505584717
13.15106201171875 11.430572509765625 2.2007250785827637
13.097919464111328 11.381685256958008 1.347270131111145
13.133790969848633 11.414389610290527 0.46949347853660583
32.5874137878418 28.129467010498047 2.4039130210876465
13.164252281188965 11.365736961364746 2.2022647857666016
13.118518829345703 11.323617935180664 1.3491668701171875
13.156425476074219 11.357922554016113 0.47205036878585815
32.616981506347656 27.9570255279541 2.4039127826690674
13.192377090454102 11.309999465942383 2.2024552822113037
13.13895320892334 11.261636734008789 1.3513256311416626
13.177053451538086 11.295927047729492 0.47541892528533936
32.62480926513672 27.766904830932617 2.404618263244629
13.208883285522461 11.244504928588867 2.2037618160247803
13.164782524108887 11.204469680786133 1.3525587320327759
13.199281692504883 11.235520362854004 0.47835734486579895
32.64125061035156 27.58513641357422 2.4050073623657227
13.232707977294922 11.18547248840332 2.2043230533599854
13.190372467041016 11.147260665893555 1.353790521621704
13.215606689453125 11.170326232910156 0.48258429765701294
32.655853271484375 27.393075942993164 2.40547776222229
13.263948440551758 11.128902435302734 2.2042768001556396
13.21574878692627 11.086108207702637 1.355283260345459
13.24111270904541 11.109177589416504 0.4850452244281769
32.666664123535156 27.208574295043945 2.40600323677063
13.279617309570312 11.063406944274902 2.2055823802948
13.231314659118652 11.020878791809082 1.3580563068389893
13.268218040466309 11.053458213806152 0.486691951751709
32.670814514160156 27.019554138183594 2.406726837158203
13.29883098602295 11.001111030578613 2.206514358520508
13.248499870300293 10.957255363464355 1.3605211973190308
13.287504196166992 10.991405487060547 0.49005743861198425
32.67983627319336 26.83559799194336 2.407261848449707
13.317771911621094 10.93881893157959 2.2074460983276367
13.263484954833984 10.892073631286621 1.363294243812561
13.312230110168457 10.934041976928711 0.4921317398548126
32.67829132080078 26.644012451171875 2.4081246852874756
13.336442947387695 10.876527786254883 2.2083775997161865
13.291635513305664 10.837891578674316 1.3639036417007446
13.327173233032227 10.868856430053711 0.49635714292526245
32.69328689575195 26.466917037963867 2.408409595489502
13.362590789794922 10.820512771606445 2.208559513092041
13.306071281433105 10.772719383239746 1.366676926612854
13.353307723999023 10.812997817993164 0.4979993402957916
32.696441650390625 26.271806716918945 2.409102439880371
13.380668640136719 10.754303932189941 2.209630012512207
13.335616111755371 10.716132164001465 1.3672369718551636
13.371482849121094 10.747039794921875 0.501746654510498
32.709693908691406 26.0952091217041 2.409396171569824
13.408269882202148 10.699774742126465 2.209622383117676
13.349493980407715 10.650973320007324 1.3700093030929565
13.399053573608398 10.692646026611328 0.5029556751251221
32.72602844238281 25.921939849853516 2.4095635414123535
13.431748390197754 10.642088890075684 2.209988594055176
13.374751091003418 10.59508991241455 1.3709241151809692
13.418685913085938 10.632071495056152 0.5058873891830444
32.72976303100586 25.739604949951172 2.410125732421875
13.447147369384766 10.578201293945312 2.2111048698425293
13.39198112487793 10.533025741577148 1.3730764389038086
13.439992904663086 10.57301139831543 0.5083873867988586
32.73999786376953 25.57250213623047 2.4104158878326416
13.462401390075684 10.518220901489258 2.212080955505371
13.409074783325195 10.474834442138672 1.3749665021896362
13.457290649414062 10.514764785766602 0.5113651752471924
32.73613357543945 25.386119842529297 2.411184787750244
13.483163833618164 10.458959579467773 2.2126331329345703
13.431660652160645 10.417343139648438 1.3761885166168213
13.476162910461426 10.454168319702148 0.514295220375061
32.74522399902344 25.21074104309082 2.4114990234375
13.49972915649414 10.396638870239258 2.2135610580444336
13.454009056091309 10.359823226928711 1.3774093389511108
13.48697280883789 10.387557029724121 0.5189507007598877
32.747535705566406 25.03106117248535 2.4120147228240967
13.525924682617188 10.341899871826172 2.2135472297668457
13.476122856140137 10.302273750305176 1.3786296844482422
13.513132095336914 10.332965850830078 0.5201538801193237
32.74899673461914 24.85167121887207 2.412536382675171
13.543959617614746 10.281075477600098 2.2142858505249023
13.499972343444824 10.246194839477539 1.3795382976531982
13.527308464050293 10.269381523132324 0.523946225643158
32.77954864501953 24.69513511657715 2.412069797515869
13.567708969116211 10.224753379821777 2.2144579887390137
13.519632339477539 10.187088012695312 1.381066918373108
13.553000450134277 10.214714050292969 0.5251473784446716
32.76737594604492 24.507253646850586 2.412997245788574
13.58124828338623 10.160922050476074 2.2155730724334717
13.537059783935547 10.126483917236328 1.3829056024551392
13.564678192138672 10.149666786193848 0.5293715000152588
32.74247741699219 24.302127838134766 2.4143478870391846
13.60827350616455 10.10366439819336 2.2155067920684814
13.557968139648438 10.064993858337402 1.3843854665756226
13.60351848602295 10.101377487182617 0.5279292464256287
32.64793395996094 24.0557861328125 2.4179558753967285
13.627294540405273 10.044286727905273 2.2160544395446777
13.578868865966797 10.007328033447266 1.385601282119751
13.614672660827637 10.036322593688965 0.5321527123451233
32.47138214111328 23.75139045715332 2.4242541790008545
13.650091171264648 9.987844467163086 2.2162227630615234
13.603535652160645 9.952566146850586 1.3861943483352661
13.6474027633667 9.987309455871582 0.5316188931465149
32.44276428222656 23.557174682617188 2.425630807876587
13.672659873962402 9.931363105773926 2.2163901329040527
13.61995792388916 9.891924858093262 1.3880311250686646
13.64409351348877 9.912142753601074 0.5388699769973755
32.520599365234375 23.449491500854492 2.4234423637390137
13.69126033782959 9.87578010559082 2.216794729232788
13.646486282348633 9.842371940612793 1.3880469799041748
13.656695365905762 9.852461814880371 0.5422771573066711
32.51680374145508 23.274770736694336 2.4239556789398193
13.715405464172363 9.82068920135498 2.216770648956299
13.662433624267578 9.781702995300293 1.3898826837539673
13.666747093200684 9.787555694580078 0.5465020537376404
32.53254318237305 23.114837646484375 2.4238007068634033
13.735267639160156 9.762662887573242 2.2171247005462646
13.676103591918945 9.71960735321045 1.392030119895935
13.682531356811523 9.726977348327637 0.5494284629821777
32.567996978759766 22.969482421875 2.422973155975342
13.758966445922852 9.707491874694824 2.2170984745025635
13.703697204589844 9.667542457580566 1.3919936418533325
13.67995548248291 9.653632164001465 0.5562531352043152
32.60271453857422 22.81560516357422 2.422165632247925
13.77800178527832 9.64558219909668 2.2175920009613037
13.72463321685791 9.607316970825195 1.393155574798584
13.721052169799805 9.60768985748291 0.5539319515228271
32.6162109375 22.647531509399414 2.4220356941223145
13.802909851074219 9.58792495727539 2.2175142765045166
13.74734878540039 9.548481941223145 1.3940043449401855
13.735706329345703 9.543314933776855 0.5572421550750732
32.581787109375 22.455577850341797 2.423452377319336
13.81566047668457 9.525555610656738 2.2184362411499023
13.768171310424805 9.492011070251465 1.3949004411697388
13.770729064941406 9.496732711791992 0.5558314323425293
32.52603530883789 22.258527755737305 2.425539493560791
13.834725379943848 9.471257209777832 2.2186455726623535
13.783032417297363 9.435113906860352 1.396470069885254
13.905537605285645 9.521974563598633 0.5327792763710022
32.50419616699219 22.07749366760254 2.426499366760254
13.851099014282227 9.411720275878906 2.2191860675811768
13.80545711517334 9.379998207092285 1.3970521688461304
14.186895370483398 9.64222240447998 0.478853315114975
32.560237884521484 21.9499568939209 2.424868106842041
13.877555847167969 9.359149932861328 2.2187724113464355
13.829717636108398 9.326227188110352 1.3973203897476196
14.205939292907715 9.58303165435791 0.4808816909790039
32.589134216308594 21.812705993652344 2.4241044521331787
13.895983695983887 9.30477523803711 2.2189793586730957
13.848037719726562 9.272053718566895 1.3982625007629395
32.537986755371094 21.614500045776367 2.4259705543518066
13.924116134643555 9.253469467163086 2.2183713912963867
13.86568832397461 9.214073181152344 1.3994674682617188
13.884893417358398 9.229970932006836 0.5605597496032715
32.475868225097656 21.418458938598633 2.428171157836914
13.94213581085205 9.19902515411377 2.218576192855835
13.889795303344727 9.163966178894043 1.3994685411453247
13.939861297607422 9.200170516967773 0.5544065833091736
32.4473876953125 21.229541778564453 2.4292571544647217
13.963130950927734 9.139692306518555 2.2186808586120605
13.914807319641113 9.107585906982422 1.3996821641921997
13.954705238342285 9.136907577514648 0.5572742819786072
32.42897033691406 21.056306838989258 2.4299840927124023
13.982295989990234 9.082767486572266 2.218834400177002
13.92762565612793 9.046821594238281 1.4015116691589355
13.975957870483398 9.081459999084473 0.5584530234336853
32.45804977416992 20.914587020874023 2.4291253089904785
14.00961685180664 9.031222343444824 2.2182202339172363
13.9526948928833 8.994141578674316 1.4014593362808228
13.988718032836914 9.020638465881348 0.561370313167572
32.516014099121094 20.791767120361328 2.4272944927215576
14.024147987365723 8.971536636352539 2.2187552452087402
13.965028762817383 8.93337631225586 1.4032881259918213
14.011594772338867 8.966471672058105 0.5621121525764465
32.59612274169922 20.675159454345703 2.4247186183929443
14.04840087890625 8.914752960205078 2.2184722423553467
13.987030029296875 8.87551212310791 1.4038113355636597
14.017096519470215 8.897933959960938 0.5667200684547424
32.58761215209961 20.510704040527344 2.4250404834747314
14.062450408935547 8.85505485534668 2.2190065383911133
14.013557434082031 8.82401180267334 1.4034407138824463
14.004095077514648 8.821425437927246 0.5748620629310608
32.63347244262695 20.380971908569336 2.423550605773926
14.084709167480469 8.800647735595703 2.218771457672119
14.037792205810547 8.771120071411133 1.4033827781677246
14.055449485778809 8.785560607910156 0.5695062875747681
32.5478515625 20.177873611450195 2.4263768196105957
14.10100269317627 8.746027946472168 2.2189700603485107
14.05610179901123 8.718006134033203 1.40400230884552
14.402259826660156 8.936178207397461 0.502332329750061
32.50516128540039 19.994779586791992 2.427769899368286
14.124968528747559 8.692852973937988 2.2185401916503906
14.082054138183594 8.666311264038086 1.4036270380020142
14.424742698669434 8.880714416503906 0.5030465126037598
32.51279067993164 19.84347152709961 2.427485704421997
14.146608352661133 8.63831615447998 2.218301296234131
14.103583335876465 8.611954689025879 1.4038790464401245
32.53900909423828 19.70400619506836 2.426569700241089
14.163774490356445 8.581153869628906 2.218447208404541
14.122783660888672 8.556268692016602 1.4044448137283325
32.493953704833984 19.52212905883789 2.427985191345215
14.199941635131836 8.535530090332031 2.2168548107147217
14.143891334533691 8.5018310546875 1.40469491481781
14.168133735656738 8.519970893859863 0.5719281435012817
32.413673400878906 19.320337295532227 2.4305431842803955
14.220978736877441 8.480823516845703 2.216611623764038
14.175442695617676 8.45369815826416 1.4033679962158203
14.193329811096191 8.46796703338623 0.5717868804931641
32.40886306762695 19.156932830810547 2.4305903911590576
14.24112319946289 8.422317504882812 2.2165098190307617
14.191208839416504 8.392873764038086 1.4045099020004272
14.160468101501465 8.378316879272461 0.5838173627853394
32.417236328125 19.009592056274414 2.4301891326904297
14.268176078796387 8.371313095092773 2.215683698654175
14.215973854064941 8.34079647064209 1.4041248559951782
14.227612495422363 8.351288795471191 0.5749430060386658
32.44975662231445 18.884422302246094 2.428981304168701
14.282831192016602 8.316445350646973 2.2158751487731934
14.228389739990234 8.284896850585938 1.405367374420166
14.223101615905762 8.285502433776855 0.5805279612541199
32.48291778564453 18.752328872680664 2.427727699279785
14.309505462646484 8.26530933380127 2.215045928955078
14.25061321258545 8.231481552124023 1.4052953720092773
14.253838539123535 8.237060546875 0.5790719389915466
32.59794998168945 18.667417526245117 2.4237544536590576
14.33383560180664 8.212849617004395 2.2144083976745605
14.270483016967773 8.176777839660645 1.4055382013320923
14.269460678100586 8.179938316345215 0.5806735157966614
32.71061706542969 18.580698013305664 2.4198403358459473
14.355807304382324 8.159089088439941 2.213963508605957
14.290144920349121 8.122035026550293 1.4057798385620117
14.31481647491455 8.139835357666016 0.5761520266532898
32.7120361328125 18.430866241455078 2.419578790664673
14.381918907165527 8.107721328735352 2.2131285667419434
14.322558403015137 8.074560165405273 1.4041228294372559
14.304319381713867 8.068081855773926 0.5830003619194031
32.75861740112305 18.306846618652344 2.417809009552002
14.423078536987305 8.064785957336426 2.210930347442627
14.350488662719727 8.024537086486816 1.4030956029891968
14.34290599822998 8.024134635925293 0.579786479473114
32.77752685546875 18.175121307373047 2.416947841644287
14.387702941894531 7.982940196990967 1.4005346298217773
14.369217872619629 7.976551055908203 0.5788090825080872
32.87665939331055 18.072952270507812 2.413393259048462
14.419679641723633 7.935723781585693 0.5733471512794495
32.94164276123047 17.959308624267578 2.4109604358673096
14.939663887023926 8.149646759033203 2.1692252159118652
33.019412994384766 17.852563858032227 2.4080870151519775
14.916324615478516 8.070058822631836 1.3327008485794067
33.00214385986328 17.694719314575195 2.4083356857299805
33.063602447509766 17.579444885253906 2.4059653282165527
33.0804557800293 17.44065284729004 2.4050519466400146
33.08787536621094 17.297319412231445 2.4044320583343506
27.787113189697266 14.53363037109375 1.0377289056777954
33.0954704284668 17.147226333618164 2.403770685195923
27.826704025268555 14.42484188079834 1.036806583404541
33.10834503173828 17.007652282714844 2.4029366970062256
27.83013343811035 14.303732872009277 1.0389223098754883
33.10728454589844 16.861392974853516 2.4025461673736572
27.830839157104492 14.181642532348633 1.0412367582321167
33.120540618896484 16.73013687133789 2.4016876220703125
33.125003814697266 16.587604522705078 2.4010815620422363
33.13336181640625 16.447465896606445 2.400329828262329
33.14338684082031 16.308576583862305 2.399505615234375
33.14610290527344 16.166526794433594 2.3989083766937256
33.15498733520508 16.027923583984375 2.3980889320373535
33.15879440307617 15.887290000915527 2.397421360015869
33.16202926635742 15.746832847595215 2.396756887435913
33.16740798950195 15.600752830505371 2.3959763050079346
33.17626190185547 15.4638032913208 2.3950912952423096
33.17549133300781 15.32278823852539 2.394509792327881
33.17148971557617 15.187756538391113 2.3940532207489014
33.176414489746094 15.0502290725708 2.39325213432312
33.187618255615234 14.915925025939941 2.3922245502471924
33.19601058959961 14.780710220336914 2.391275405883789
33.21528625488281 14.65065860748291 2.389946222305298
33.220333099365234 14.51465129852295 2.3890762329101562
33.22711944580078 14.379780769348145 2.3881325721740723
33.240264892578125 14.247992515563965 2.386960029602051
33.236942291259766 14.102676391601562 2.386284589767456
33.246707916259766 13.970149040222168 2.3851921558380127
33.237491607666016 13.830046653747559 2.384721040725708
33.264591217041016 13.712163925170898 2.383056402206421
33.22596740722656 13.705780029296875 0.6164055466651917
33.261253356933594 13.575225830078125 2.382357358932495
33.250301361083984 13.58033561706543 0.6160008907318115
33.24578094482422 13.433798789978027 2.3820509910583496
33.26492691040039 13.451150894165039 0.6163970828056335
33.26220703125 13.30563735961914 2.380657196044922
33.26980209350586 13.318324089050293 0.617596447467804
33.22471237182617 13.156365394592285 2.3810625076293945
33.204654693603516 13.15809154510498 0.624815046787262
33.17029571533203 13.001136779785156 2.3820252418518066
33.14807891845703 13.002113342285156 0.6312435865402222
33.1804313659668 12.871750831604004 2.380798816680908
33.15818786621094 12.87283992767334 0.6318550109863281
33.24372100830078 12.763046264648438 2.377763509750366
33.186405181884766 12.750800132751465 0.630859375
33.37710189819336 12.684000968933105 0.6158521771430969
33.525901794433594 12.606917381286621 0.6043655872344971
33.74279022216797 12.544313430786133 2.358041286468506
33.7422981262207 12.554147720336914 0.587012529373169
33.75596237182617 12.42202377319336 2.356667995452881
33.78820037841797 12.443944931030273 0.5842832922935486
33.79197311401367 12.301587104797363 2.3544561862945557
33.77500534057617 12.305497169494629 0.5866776704788208
33.77112579345703 12.160736083984375 2.3541555404663086
33.784706115722656 12.175740242004395 0.5870552062988281
33.79915237426758 12.037781715393066 2.352181911468506
33.77277755737305 12.038536071777344 0.5892552733421326
33.78194046020508 11.899009704589844 2.3517282009124756
33.7744140625 11.906532287597656 0.5902437567710876
33.7854118347168 11.767899513244629 2.350557565689087
33.79435729980469 11.781225204467773 0.5896133780479431
33.823822021484375 11.649113655090332 2.3481826782226562
33.787925720214844 11.646991729736328 0.5912135243415833
33.76719665527344 11.497992515563965 2.349027156829834
33.806922912597656 11.521787643432617 0.590584933757782
33.80189514160156 11.371794700622559 2.3466923236846924
33.80852508544922 11.384326934814453 0.5914577841758728
33.819942474365234 11.246672630310059 2.3449625968933105
33.817100524902344 11.256056785583496 0.5916418433189392
33.830406188964844 11.119223594665527 2.343475341796875
33.82991409301758 11.129422187805176 0.5914205312728882
33.83848190307617 10.997740745544434 2.3421120643615723
33.82850646972656 11.004883766174316 0.5923415422439575
33.87657165527344 10.879589080810547 2.3396496772766113
33.8380126953125 10.877625465393066 0.5923258662223816
33.85707473754883 10.743169784545898 2.339141368865967
33.84467315673828 10.749680519104004 0.5925148725509644
33.84610366821289 10.620328903198242 0.5931134819984436
33.8517951965332 10.492569923400879 0.5933050513267517
33.8664665222168 10.350810050964355 2.3351457118988037
33.856422424316406 10.358264923095703 0.5935797095298767
33.84488296508789 10.215237617492676 2.334652900695801
33.86113357543945 10.230695724487305 0.5937742590904236
33.84846115112305 10.08117389678955 2.3332178592681885
33.86234664916992 10.095887184143066 0.5942566394805908
33.888797760009766 9.97101879119873 2.3306257724761963
33.88825225830078 9.981467247009277 0.592526376247406
33.887306213378906 9.842246055603027 2.329397439956665
33.87480545043945 9.84924602508545 0.5941608548164368
33.89804458618164 9.723648071289062 2.327796459197998
33.8855094909668 9.730707168579102 0.5936626195907593
33.888404846191406 9.593049049377441 2.3268213272094727
33.883079528808594 9.602219581604004 0.5942751169204712
33.90473175048828 9.470025062561035 2.324932336807251
33.90896224975586 9.481914520263672 0.5924197435379028
33.90134811401367 9.341696739196777 2.3237111568450928
33.89358901977539 9.350286483764648 0.5940638184547424
33.91596221923828 9.212174415588379 2.321782350540161
33.90815353393555 9.220810890197754 0.5931150317192078
33.91402053833008 9.084712982177734 2.3204805850982666
33.91584396362305 9.095980644226074 0.5927025079727173
33.921260833740234 8.959928512573242 2.3188445568084717
33.925472259521484 8.971846580505371 0.5920835137367249
33.9144287109375 8.83797550201416 2.317753553390503
33.92589569091797 8.851790428161621 0.5922091007232666
33.923187255859375 8.713977813720703 2.316035509109497
33.9298095703125 8.726527214050293 0.5920050144195557
33.91212463378906 8.585121154785156 2.314995050430298
33.9380989074707 8.602569580078125 0.5913894772529602
33.924808502197266 8.462493896484375 2.3131091594696045
33.92902755737305 8.474434852600098 0.5922223925590515
33.92734909057617 8.33749771118164 2.311563014984131
33.941226959228516 8.351822853088379 0.5911931991577148
33.95128631591797 8.217876434326172 2.3092522621154785
33.94089126586914 8.226295471191406 0.591201663017273
33.961631774902344 8.088788032531738 2.3073275089263916
33.95118713378906 8.097261428833008 0.5902565717697144
33.962799072265625 7.963951110839844 2.3057827949523926
33.947479248046875 7.971339225769043 0.5904750823974609
33.9708137512207 7.840888500213623 2.303983211517334
33.957881927490234 7.848906993865967 0.5894474387168884
33.96619415283203 7.715100288391113 2.302612781524658
33.967838287353516 7.726497650146484 0.5884198546409607
33.98905944824219 7.6019086837768555 2.3003363609313965
33.959014892578125 7.606230735778809 0.5889753103256226
33.98600387573242 7.476810455322266 2.2988815307617188
33.931610107421875 7.475896835327148 0.5910769701004028
33.982486724853516 7.351826190948486 2.297429323196411
33.964569091796875 7.359030246734619 0.58796626329422
33.99318313598633 7.230076313018799 2.2954583168029785
33.98007583618164 7.238393306732178 0.5863131284713745
34.013214111328125 7.110384464263916 2.2931413650512695
33.98052978515625 7.114673137664795 0.585914671421051
33.999778747558594 6.977672100067139 2.291914463043213
33.98661422729492 6.986112594604492 0.5849745273590088
34.01158142089844 6.856513500213623 2.2898571491241455
34.00079345703125 6.865503787994385 0.5833207964897156
34.01559829711914 6.7339019775390625 2.2880613803863525
34.0072135925293 6.74342679977417 0.5822956562042236
34.025386810302734 6.618712425231934 2.2861287593841553
34.00716781616211 6.626369953155518 0.5818142890930176
34.008907318115234 6.4924397468566895 2.2850348949432373
34.0004997253418 6.502050399780273 0.5818403363227844
34.015419006347656 6.376895904541016 2.283191204071045
34.01186752319336 6.38746452331543 0.5803110003471375
34.008968353271484 6.246801853179932 2.281625986099243
33.99070739746094 6.254693031311035 0.5814769268035889
34.03538131713867 6.128967761993408 2.278953790664673
34.01455307006836 6.13648796081543 0.5787718296051025
34.0318603515625 6.005817413330078 2.2773377895355225
34.030635833740234 6.016892433166504 0.5766959190368652
34.03774642944336 5.884467601776123 2.2753701210021973
34.03402328491211 5.895132541656494 0.5756729245185852
34.0579719543457 5.765650749206543 2.272869348526001
34.03942108154297 5.773837566375732 0.5744402408599854
34.05412292480469 5.636740207672119 2.2711315155029297
34.055198669433594 5.648266792297363 0.5722362995147705
34.061153411865234 5.515870571136475 2.2690744400024414
34.057273864746094 5.526606559753418 0.5712146162986755
34.062828063964844 5.394240379333496 2.267195701599121
34.05644607543945 5.404609680175781 0.5704044699668884
34.05080032348633 5.27669620513916 2.265890121459961
34.05919647216797 5.289391040802002 0.5692970752716064
34.05902862548828 5.15634298324585 2.263744592666626
34.057518005371094 5.167523384094238 0.5684881806373596
34.054473876953125 5.034169673919678 2.2620484828948975
34.077579498291016 5.049014568328857 0.5657719969749451
34.0470085144043 4.911734104156494 2.2604432106018066
34.079978942871094 4.927934169769287 0.5645393133163452
34.063846588134766 4.792891025543213 2.257937431335449
34.0770149230957 4.806201934814453 0.5637325644493103
34.080265045166016 4.673989772796631 2.2554311752319336
34.0859489440918 4.686245441436768 0.5618627667427063
34.09626388549805 4.555032730102539 2.252922296524048
34.09199523925781 4.565954685211182 0.5602052807807922
34.09528350830078 4.427816867828369 2.2509217262268066
34.078617095947266 4.437155246734619 0.5601269006729126
34.0980339050293 4.307243824005127 2.2488646507263184
34.08872604370117 4.317586898803711 0.558043897151947
34.135074615478516 4.190964698791504 2.2455332279205322
34.12066650390625 4.200739860534668 0.554038405418396
34.08295440673828 4.07544469833374 0.5560114979743958
34.10101318359375 3.963013172149658 0.5531983375549316
33.73075866699219 3.800788402557373 0.5838540196418762
33.558353424072266 3.6514530181884766 2.2589080333709717
33.38950729370117 3.6444363594055176 0.6119940876960754
33.54594421386719 3.5317084789276123 2.2573540210723877
33.34482955932617 3.5218896865844727 0.6144623160362244
33.55299377441406 3.414116621017456 2.255064010620117
33.289791107177734 3.3986871242523193 0.6177961826324463
33.617393493652344 3.296267509460449 2.250525712966919
33.34889221191406 3.2813243865966797 0.6111373901367188
33.683311462402344 3.184102773666382 2.246009111404419
33.29048538208008 3.158352851867676 0.6146948933601379
33.70406723022461 3.0674448013305664 2.2431528568267822
33.23411178588867 3.0360546112060547 0.6180457472801208
33.69155502319336 2.953730583190918 2.2416250705718994
33.11476516723633 2.914519786834717 0.6269100904464722
33.7189826965332 2.8376049995422363 2.2384860515594482
32.65047073364258 2.7589235305786133 0.6656166315078735
33.71613311767578 2.718916893005371 2.2364630699157715
33.01221466064453 2.6735033988952637 0.6325851678848267
33.71285629272461 2.6002819538116455 2.2344393730163574
33.301727294921875 2.5800156593322754 0.6057591438293457
33.71664047241211 2.482252597808838 2.2321367263793945
32.88556671142578 2.4324052333831787 0.6402354836463928
33.722511291503906 2.364403247833252 2.22973895072937
32.968170166015625 2.3228847980499268 0.6313207149505615
33.718379974365234 2.2399957180023193 2.2275917530059814
33.2098274230957 2.2176618576049805 0.6084221601486206
33.72837829589844 2.1224725246429443 2.2250053882598877
33.09037780761719 2.0937514305114746 0.6170121431350708
33.69558334350586 2.0023903846740723 2.2240216732025146
32.95803451538086 1.969958782196045 0.6267033815383911
33.70226287841797 1.884791374206543 2.221529483795166
15.821477890014648 0.8913348913192749 2.1198043823242188
33.710723876953125 1.77318274974823 2.219067096710205
15.81678295135498 0.8384878635406494 2.1193437576293945
33.7091178894043 1.6551660299301147 2.216857671737671
15.81701374053955 0.7831685543060303 2.1183907985687256
15.83446979522705 0.7286564707756042 2.115915298461914
15.834320068359375 0.6732935309410095 2.1149611473083496
12.480494499206543 0.4831773042678833 3.0218987464904785
15.833971977233887 0.6179398894309998 2.114006996154785
19.301008224487305 0.756287693977356 0.8517252206802368
12.462088584899902 0.43892166018486023 3.021739959716797
15.835922241210938 0.5626847743988037 2.1128344535827637
19.320653915405273 0.689554750919342 0.8479167819023132
12.41612720489502 0.39176684617996216 3.022592067718506
15.840252876281738 0.5047389268875122 2.111384868621826
12.504777908325195 0.3508749008178711 3.018311023712158
15.854252815246582 0.4498140811920166 2.109119415283203
19.30486488342285 0.5507780909538269 0.8477051258087158
15.868067741394043 0.39479729533195496 2.106851577758789
19.33370018005371 0.48409539461135864 0.842529833316803
15.876705169677734 0.3395833969116211 2.1050198078155518
12.602516174316406 0.2237992286682129 3.011906623840332
15.867681503295898 0.2867722809314728 2.1047773361206055
33.79527282714844 0.47877946496009827 2.1899399757385254
15.880924224853516 0.23158156871795654 2.1025054454803467
33.794132232666016 0.3608158528804779 2.1875312328338623
15.886506080627441 0.17621955275535583 2.100889205932617
33.802574157714844 0.24293695390224457 2.184732675552368
12.561772346496582 0.047716088593006134 3.0098226070404053
12.61177921295166 0.0016865379875525832 3.0068933963775635
12.661625862121582 -0.04249973222613335 3.0040030479431152
32.8757438659668 -0.10210616141557693 0.5948088765144348
12.726305961608887 -0.0871390625834465 3.0005180835723877
32.89986801147461 -0.2169889658689499 0.5901661515235901
12.780834197998047 -0.1321256011724472 2.99741530418396
33.10039138793945 -0.33383607864379883 0.5698683261871338
12.795271873474121 -0.17470239102840424 2.9959239959716797
32.87727737426758 -0.4405774176120758 0.5871672630310059
12.682182312011719 -0.21519464254379272 2.99945068359375
12.636307716369629 -0.2607274651527405 3.000236749649048
33.72941207885742 -0.6875192523002625 0.506264328956604
33.84003829956055 -0.8197860717773438 2.1602683067321777
33.71662521362305 -0.8049731850624084 0.5046434998512268
33.85184097290039 -0.9382875561714172 2.1571595668792725
33.58393478393555 -0.9190699458122253 0.5136479735374451
33.84825897216797 -1.0564132928848267 2.1546435356140137
33.017784118652344 -1.0188608169555664 0.5612188577651978
33.85424041748047 -1.174872636795044 2.1517293453216553
33.18303298950195 -1.1398913860321045 0.5436866283416748
33.205989837646484 -1.256711721420288 0.5387778282165527
12.946313858032227 -0.536243736743927 2.344327449798584
12.55089282989502 -0.568091630935669 2.996613025665283
12.95422077178955 -0.5818639397621155 2.342475414276123
12.676146507263184 -0.6158996820449829 2.9906198978424072
33.34454345703125 -1.6117075681686401 0.5175743699073792
13.00316047668457 -0.6773350834846497 2.9764368534088135
13.148717880249023 -0.6803183555603027 2.3227832317352295
13.01563835144043 -0.7235414981842041 2.9748659133911133
13.128767967224121 -0.725231409072876 2.3233642578125
12.95669937133789 -0.713291347026825 1.6946580410003662
12.830951690673828 -0.7581719160079956 2.981245756149292
12.97691822052002 -0.7622546553611755 2.335767984390259
12.941630363464355 -0.7577695846557617 1.6954175233840942
12.921483993530273 -0.7517353892326355 1.0469621419906616
12.912008285522461 -0.7528531551361084 0.38553065061569214
12.815718650817871 -0.8021604418754578 2.9807944297790527
12.919410705566406 -0.8041201233863831 2.339711904525757
12.914053916931152 -0.8013831973075867 1.6979039907455444
12.90633487701416 -0.7960551977157593 1.0483299493789673
12.884805679321289 -0.7963915467262268 0.3904277980327606
12.531142234802246 -0.8282168507575989 2.991257429122925
12.879162788391113 -0.8467402458190918 2.342100143432617
12.935744285583496 -0.848061203956604 1.6934901475906372
12.922898292541504 -0.8423607349395752 1.0436389446258545
12.898687362670898 -0.8424493074417114 0.3853655159473419
11.952499389648438 -0.8317843079566956 3.013707399368286
12.898392677307129 -0.8932274580001831 2.3391284942626953
12.128695487976074 -0.8887476325035095 3.005469560623169
12.922250747680664 -0.9424760341644287 2.335657835006714
12.18525218963623 -0.9356667995452881 3.002126693725586
12.90886116027832 -0.9868005514144897 2.335590362548828
12.443306922912598 -0.9992199540138245 2.990530014038086
12.870494842529297 -1.0290549993515015 2.33776593208313
12.511885643005371 -1.0486984252929688 2.986644744873047
12.448573112487793 -1.0849566459655762 2.9882099628448486
12.417301177978516 -1.125905156135559 2.9884068965911865
33.675411224365234 -3.1635429859161377 0.44528716802597046
12.772008895874023 -1.248066782951355 2.971557855606079
33.59702682495117 -3.274505615234375 0.4488507807254791
12.79735279083252 -1.2956527471542358 2.969369649887085
33.58515548706055 -3.3917198181152344 0.4463427662849426
12.815065383911133 -1.342648983001709 2.9674863815307617
33.69174575805664 -3.52132248878479 0.43301481008529663
13.157666206359863 -1.4273638725280762 2.9520223140716553
33.77986145019531 -3.655730724334717 0.42112216353416443
15.952656745910645 -1.7163602113723755 0.4414044916629791
13.368517875671387 -1.4974948167800903 2.942038059234619
33.87553405761719 -3.7857542037963867 0.4086636006832123
15.956098556518555 -1.773093581199646 0.4383385181427002
13.36068058013916 -1.5438497066497803 2.941143035888672
33.871768951416016 -3.905078411102295 0.405228853225708
15.94469928741455 -1.8281923532485962 0.438084214925766
13.246309280395508 -1.5751396417617798 2.944762706756592
33.729854583740234 -4.002078056335449 0.4145844280719757
15.884679794311523 -1.8746923208236694 0.44726842641830444
12.6159029006958 -1.544752836227417 2.9699835777282715
33.801937103271484 -4.1303253173828125 0.4041416347026825
15.907055854797363 -1.9336607456207275 0.4404521882534027
12.536043167114258 -1.5793893337249756 2.9721662998199463
33.63887023925781 -4.229604721069336 0.41520681977272034
16.082717895507812 -2.0120325088500977 0.4040665030479431
33.9794807434082 -4.405026435852051 2.0673828125
33.59897232055664 -4.3437652587890625 0.41495874524116516
15.909753799438477 -2.0468051433563232 0.4347877502441406
33.99844741821289 -4.528194904327393 2.0633771419525146
33.74626159667969 -4.482626914978027 0.3974703550338745
15.89254093170166 -2.1010119915008545 0.43547654151916504
34.00212478637695 -4.6495184898376465 2.0599958896636963
33.82391357421875 -4.613144397735596 0.3863161504268646
15.811883926391602 -2.146528720855713 0.44838282465934753
33.99052429199219 -4.7688398361206055 2.0572426319122314
33.91585159301758 -4.746330261230469 0.3737857937812805
15.840542793273926 -2.20676851272583 0.4401494860649109
34.00484085083008 -4.897984981536865 2.0532047748565674
33.98423385620117 -4.882960319519043 0.3631591796875
15.987664222717285 -2.2870562076568604 0.4088113307952881
34.004722595214844 -5.019174098968506 2.049922227859497
33.96675109863281 -5.001515865325928 0.36061570048332214
15.911325454711914 -2.33284068107605 0.4207857549190521
34.01898956298828 -5.14266300201416 2.046004295349121
34.000545501708984 -5.127809524536133 0.35328757762908936
15.871286392211914 -2.3835947513580322 0.4257124066352844
34.018001556396484 -5.264021396636963 2.0427167415618896
34.0092658996582 -5.2505998611450195 0.34823310375213623
15.835942268371582 -2.4348464012145996 0.4297018349170685
34.02985382080078 -5.381450653076172 2.0390260219573975
34.001277923583984 -5.36486291885376 0.3449006676673889
15.82028579711914 -2.4861767292022705 0.4299877882003784
34.03047561645508 -5.503361701965332 2.035628080368042
34.006690979003906 -5.487441539764404 0.3400692939758301
15.818548202514648 -2.542527198791504 0.4273894727230072
34.02573776245117 -5.6245269775390625 2.0324413776397705
33.99691390991211 -5.607692718505859 0.33660688996315
15.797231674194336 -2.5957093238830566 0.42856064438819885
34.04026412963867 -5.749055862426758 2.0284008979797363
34.01126480102539 -5.732082366943359 0.33085665106773376
15.756365776062012 -2.645519733428955 0.4335058033466339
34.03956604003906 -5.871206283569336 2.024996280670166
34.003074645996094 -5.852838516235352 0.3271627426147461
15.732285499572754 -2.6979846954345703 0.4351547658443451
34.053192138671875 -5.996023654937744 2.020949125289917
