# .PCD v0.7 - Point Cloud Data file format
VERSION 0.7
FIELDS x y z
SIZE 4 4 4
TYPE F F F
COUNT 1 1 1
WIDTH 845
HEIGHT 1
VIEWPOINT 0 0 0 1 0 0 0
POINTS 845
DATA ascii
12.990473747253418 11.546621322631836 1.097786545753479
13.034709930419922 11.443885803222656 1.1012390851974487
13.062479972839355 11.32742691040039 1.1077253818511963
13.090065956115723 11.211700439453125 1.114067792892456
13.115216255187988 11.094783782958984 1.1207002401351929
13.162205696105957 10.9970121383667 1.1229865550994873
13.202386856079102 10.894041061401367 1.126428484916687
13.241801261901855 10.790990829467773 1.129867672920227
13.273513793945312 10.682282447814941 1.1346111297607422
13.305167198181152 10.57420539855957 1.1392085552215576
13.340666770935059 10.469806671142578 1.1429328918457031
13.371479034423828 10.362337112426758 1.1473824977874756
13.40776252746582 10.259693145751953 1.1506671905517578
13.440134048461914 10.154607772827148 1.1545321941375732
13.48044490814209 10.056017875671387 1.156792163848877
13.520055770874023 9.95731258392334 1.1590487957000732
13.552560806274414 9.853843688964844 1.1624703407287598
13.592345237731934 9.756119728088379 1.1644291877746582
13.620949745178223 9.65084171295166 1.1682852506637573
13.660122871398926 9.55351448059082 1.1700924634933472
13.698617935180664 9.456070899963379 1.17189621925354
13.733161926269531 9.356284141540527 1.1742830276489258
13.773566246032715 9.260842323303223 1.1754940748214722
13.810020446777344 9.163068771362305 1.177288293838501
13.84744930267334 9.066278457641602 1.1787859201431274
13.88587474822998 8.97044563293457 1.1799864768981934
13.909463882446289 8.865443229675293 1.1836823225021362
13.95155143737793 8.772598266601562 1.1839946508407593
13.991341590881348 8.6785249710083 1.1845966577529907
14.027128219604492 8.582228660583496 1.1857839822769165
14.067342758178711 8.488883018493652 1.1860830783843994
14.109489440917969 8.396883010864258 1.1859352588653564
14.149331092834473 8.30368423461914 1.1860777139663696
14.193696975708008 8.21328067779541 1.1853291988372803
14.23748779296875 8.122644424438477 1.184574842453003
14.277251243591309 8.029839515686035 1.184407114982605
14.387337684631348 7.976171970367432 1.172092318534851
14.737690925598145 8.052812576293945 1.118708610534668
15.21401309967041 8.192498207092285 1.0440356731414795
19.234806060791016 0.7789251208305359 0.5696595907211304
15.745999336242676 0.540861964225769 1.1241556406021118
19.267789840698242 0.5436575412750244 0.5605554580688477
12.869976997375488 -0.7430810928344727 1.5547187328338623
12.852104187011719 -0.821182906627655 1.555106520652771
16.526004791259766 -3.223788022994995 0.8683483004570007
16.56747055053711 -3.337553024291992 0.8557818531990051
16.444889068603516 -3.4180192947387695 0.8706477880477905
16.4570255279541 -3.526047468185425 0.8627876043319702
16.4549617767334 -3.631378412246704 0.8571975827217102
16.528236389160156 -3.7540807723999023 0.8387442231178284
19.88846778869629 -5.82086706161499 0.18884341418743134
19.59111976623535 -5.864663124084473 0.23151811957359314
19.299665451049805 -5.906768798828125 0.2732798755168915
19.171316146850586 -5.996462821960449 0.28666672110557556
18.883811950683594 -6.034073829650879 0.32789185643196106
18.79631805419922 -6.133559226989746 0.3341100811958313
16.203243255615234 -5.397761344909668 0.7815304398536682
16.39637565612793 -5.5741729736328125 0.7392972111701965
16.32236671447754 -5.661055088043213 0.7440478801727295
16.11494255065918 -5.7002129554748535 0.7724330425262451
16.440200805664062 -5.9290852546691895 0.7059845924377441
18.814510345458984 -6.916154384613037 0.2728607952594757
18.81562614440918 -7.048017978668213 0.2624073326587677
18.825965881347656 -7.184024810791016 0.2501239478588104
18.822467803955078 -7.31542444229126 0.24015215039253235
18.838233947753906 -7.455036163330078 0.226524218916893
18.838356018066406 -7.589221954345703 0.21554158627986908
18.8411865234375 -7.725189208984375 0.20388749241828918
18.84305191040039 -7.861477851867676 0.19222451746463776
18.868457794189453 -8.008482933044434 0.17606084048748016
18.8656063079834 -8.144372940063477 0.16487884521484375
18.85637092590332 -8.278153419494629 0.15468977391719818
16.370153427124023 -7.3069868087768555 0.6031098365783691
18.904233932495117 -8.577662467956543 0.12144490331411362
16.285655975341797 -7.510528564453125 0.5973959565162659
16.19424819946289 -7.589347839355469 0.6035706400871277
16.301883697509766 -7.762270450592041 0.5722988843917847
16.18877410888672 -7.8307647705078125 0.582330584526062
16.756378173828125 -8.619603157043457 0.42698225378990173
16.55771827697754 -8.646461486816406 0.45261213183403015
16.47521209716797 -8.732610702514648 0.45593252778053284
16.24208641052246 -8.737289428710938 0.4883648753166199
16.221519470214844 -8.855155944824219 0.47961515188217163
16.19925308227539 -8.97262191772461 0.4710313081741333
16.134048461914062 -9.066489219665527 0.47070327401161194
16.112825393676758 -9.185280799865723 0.4616142809391022
16.06686019897461 -9.290339469909668 0.45724791288375854
16.014259338378906 -9.391692161560059 0.45406752824783325
15.95339298248291 -9.488216400146484 0.45241373777389526
15.919797897338867 -9.60114574432373 0.4451865553855896
12.553516387939453 12.765639305114746 0.9275111556053162
12.59846019744873 12.655476570129395 0.9330027103424072
12.637614250183105 12.540365219116211 0.93953937292099
12.675832748413086 12.425251007080078 0.9460746049880981
12.71950912475586 12.316328048706055 0.9512596726417542
12.752328872680664 12.19776725769043 0.9585421085357666
12.784893035888672 12.079946517944336 0.965674102306366
12.836732864379883 11.981073379516602 0.9686023592948914
12.83987045288086 11.837785720825195 0.9814406037330627
12.89582633972168 11.744173049926758 0.9831627607345581
12.940829277038574 11.641060829162598 0.986984372138977
12.97692584991455 11.53061294555664 0.9924582242965698
13.001753807067871 11.411029815673828 1.000038981437683
13.043535232543945 11.307116508483887 1.0040048360824585
13.079276084899902 11.198619842529297 1.0090235471725464
13.117199897766113 11.092659950256348 1.013437032699585
13.160386085510254 10.99172592163086 1.0166410207748413
13.193678855895996 10.883130073547363 1.0216543674468994
13.22996997833252 10.77765941619873 1.0259106159210205
13.260074615478516 10.667814254760742 1.031224012374878
13.297845840454102 10.564767837524414 1.0348721742630005
13.334074974060059 10.46104907989502 1.038669466972351
13.370315551757812 10.357887268066406 1.0423132181167603
13.405011177062988 10.254072189331055 1.0461065769195557
13.436569213867188 10.148432731628418 1.0503532886505127
13.472094535827637 10.046337127685547 1.0536878108978271
13.513240814208984 9.948872566223145 1.055804967880249
13.548103332519531 9.847213745117188 1.058982491493225
13.583033561706543 9.746075630187988 1.0620057582855225
13.616426467895508 9.644305229187012 1.0651792287826538
13.65394401550293 9.545890808105469 1.0674368143081665
13.695648193359375 9.45074462890625 1.0687766075134277
13.735067367553711 9.35433292388916 1.0704177618026733
13.768898010253906 9.25448226928711 1.0729705095291138
13.806140899658203 9.15729808807373 1.0747575759887695
13.83857536315918 9.05729866027832 1.077305555343628
13.873624801635742 8.959388732910156 1.0792397260665894
13.912162780761719 8.864043235778809 1.080405831336975
13.94754409790039 8.766983985900879 1.0820276737213135
13.986457824707031 8.67242431640625 1.0828801393508911
14.02136516571045 8.575654029846191 1.084342122077942
14.062383651733398 8.482863426208496 1.0845731496810913
14.102788925170898 8.389890670776367 1.0847995281219482
14.14002799987793 8.29524040222168 1.0854823589324951
14.18946647644043 8.207868576049805 1.0838545560836792
14.223773956298828 8.111878395080566 1.0848361253738403
14.263467788696289 8.019163131713867 1.0847361087799072
14.430459022521973 7.997157096862793 1.0618226528167725
14.718230247497559 8.039241790771484 1.0174353122711182
15.221050262451172 8.193306922912598 0.9350141882896423
14.61137580871582 7.635751724243164 1.0561940670013428
19.251325607299805 0.7771329283714294 0.44626593589782715
15.73439884185791 0.538303554058075 1.0273394584655762
19.263521194458008 0.541079044342041 0.44043564796447754
12.902915000915527 -0.6675066351890564 1.4707953929901123
12.857932090759277 -0.7442963719367981 1.475886344909668
12.841036796569824 -0.8223861455917358 1.4761887788772583
16.24310874938965 -2.7588462829589844 0.833159863948822
16.24028968811035 -2.9638876914978027 0.8231713771820068
16.24178123474121 -3.067274808883667 0.8175011277198792
16.26003074645996 -3.174191474914551 0.8087997436523438
16.074649810791016 -3.2405576705932617 0.8354347348213196
16.236509323120117 -3.3770055770874023 0.8014786839485168
16.113924026489258 -3.454832077026367 0.8170334696769714
16.227773666381836 -3.583552598953247 0.7911198139190674
16.19550895690918 -3.6808271408081055 0.7906634211540222
16.068601608276367 -3.7558655738830566 0.8067682385444641
16.051605224609375 -3.855954885482788 0.803459644317627
19.013364791870117 -5.949766159057617 0.1889335960149765
18.858741760253906 -6.02876615524292 0.20773009955883026
18.787240982055664 -6.133306980133057 0.21136941015720367
16.221189498901367 -5.406208038330078 0.67079758644104
16.157487869262695 -5.495440483093262 0.6741102933883667
16.335323333740234 -5.668053150177002 0.6329545378684998
16.405742645263672 -5.8055925369262695 0.6112629175186157
16.448205947875977 -5.93451452255249 0.5945155024528503
16.02920913696289 -5.894867420196533 0.663133442401886
15.96468734741211 -5.982693672180176 0.6661445498466492
18.807193756103516 -7.179693698883057 0.12677806615829468
18.81559944152832 -7.315604209899902 0.11430413275957108
16.29670524597168 -7.157192230224609 0.5150502920150757
16.315948486328125 -7.285512447357178 0.5006011724472046
16.304628372192383 -7.400907039642334 0.49184659123420715
16.34258460998535 -7.5395402908325195 0.47339770197868347
16.2117919921875 -7.600332260131836 0.4874846339225769
16.17334747314453 -7.703848838806152 0.4835790693759918
16.604162216186523 -8.415628433227539 0.35105544328689575
16.56931495666504 -8.526310920715332 0.3453478217124939
16.28059959411621 -8.504676818847656 0.390096515417099
16.477401733398438 -8.736737251281738 0.33794087171554565
16.388385772705078 -8.818964004516602 0.34269312024116516
16.146873474121094 -8.817380905151367 0.37814390659332275
16.188528060913086 -8.969682693481445 0.35643184185028076
16.272689819335938 -9.147432327270508 0.325796902179718
16.0815486907959 -9.170490264892578 0.35102924704551697
16.241912841796875 -9.39463996887207 0.30428794026374817
16.22430992126465 -9.51798152923584 0.2937019467353821
16.13134002685547 -9.597169876098633 0.2985137701034546
12.556172370910645 12.763534545898438 0.8315100073814392
12.60738468170166 12.659687995910645 0.8358511328697205
12.63956356048584 12.53760051727295 0.8442151546478271
12.672839164733887 12.417669296264648 0.8521143198013306
12.717188835144043 12.30948257446289 0.8573781251907349
12.74641227722168 12.187561988830566 0.8657416701316833
12.790420532226562 12.080671310424805 0.8706910610198975
12.828542709350586 11.968977928161621 0.876724898815155
12.864327430725098 11.855932235717773 0.8830681443214417
12.899941444396973 11.743562698364258 0.8892547488212585
12.93246078491211 11.629219055175781 0.8959071040153503
12.979574203491211 11.528695106506348 0.899290144443512
13.011835098266602 11.415650367736816 0.9056287407875061
13.039468765258789 11.299407005310059 0.9127463102340698
13.086429595947266 11.20059871673584 0.915653645992279
13.113059043884277 11.085053443908691 0.922614336013794
13.166060447692871 10.99239730834961 0.9239541888237
13.184890747070312 10.87185287475586 0.9321631193161011
13.234907150268555 10.777688026428223 0.933808445930481
13.280416488647461 10.680222511291504 0.9362308979034424
13.2912015914917 10.555572509765625 0.9455357789993286
13.342147827148438 10.463499069213867 0.9465447664260864
13.374507904052734 10.357285499572754 0.9511522054672241
13.39979362487793 10.24626636505127 0.9570130109786987
13.447078704833984 10.152585983276367 0.9583240151405334
13.480259895324707 10.048675537109375 0.9622991681098938
13.50710678100586 9.940637588500977 0.9673722982406616
13.548317909240723 9.843680381774902 0.9694586992263794
13.588045120239258 9.746013641357422 0.971698522567749
13.6343412399292 9.653364181518555 0.9725186228752136
13.695794105529785 9.447273254394531 0.9798169136047363
13.737641334533691 9.3525390625 0.9810982346534729
13.759992599487305 9.244979858398438 0.9860053062438965
13.802939414978027 9.151684761047363 0.9868070483207703
13.846087455749512 9.05875015258789 0.9874461889266968
13.876172065734863 8.95759391784668 0.990452229976654
13.920528411865234 8.865957260131836 0.9906086921691895
13.955086708068848 8.768332481384277 0.9925016760826111
13.979742050170898 8.66489315032959 0.9961344599723816
14.022186279296875 8.572811126708984 0.9962789416313171
14.062336921691895 8.479514122009277 0.9967358708381653
14.10781192779541 8.389578819274902 0.9960772395133972
14.169744491577148 8.309391021728516 0.9922351837158203
14.190199851989746 8.205032348632812 0.9960138201713562
14.228777885437012 8.111493110656738 0.996292769908905
14.285676956176758 8.028429985046387 0.993065595626831
14.423260688781738 7.989949703216553 0.9748562574386597
14.699531555175781 8.025790214538574 0.9311137199401855
15.191476821899414 8.174099922180176 0.8479083776473999
16.00146484375 8.484100341796875 0.7068023681640625
19.23642349243164 0.7737098932266235 0.3450953960418701
15.742254257202148 0.5361180901527405 0.9412491321563721
19.276132583618164 0.5386140942573547 0.33451879024505615
12.898160934448242 -0.6694166660308838 1.4020085334777832
12.853194236755371 -0.7461744546890259 1.4073116779327393
12.841206550598145 -0.8245490193367004 1.4068238735198975
16.290334701538086 -1.5483568906784058 0.7903385758399963
16.31052017211914 -1.7524681091308594 0.7788601517677307
16.334335327148438 -1.856468677520752 0.7705385088920593
16.263582229614258 -1.949585199356079 0.7787013649940491
16.272451400756836 -2.052002429962158 0.7727818489074707
16.25918960571289 -2.151763439178467 0.7706434726715088
16.32923126220703 -2.2630598545074463 0.7536972761154175
16.261051177978516 -2.355405330657959 0.7610273361206055
16.202096939086914 -2.448472499847412 0.7666476964950562
16.268138885498047 -2.5606491565704346 0.7500190734863281
16.336713790893555 -2.777316093444824 0.7275896668434143
16.379135131835938 -2.8880534172058105 0.7147132754325867
16.20183563232422 -2.95944881439209 0.7409405708312988
16.201391220092773 -3.062232255935669 0.7355130910873413
16.227359771728516 -3.170407772064209 0.725229024887085
16.172475814819336 -3.2628631591796875 0.7293326258659363
16.126712799072266 -3.3567728996276855 0.7317111492156982
16.226770401000977 -3.481630802154541 0.707692563533783
16.049911499023438 -3.546891450881958 0.7335386872291565
16.246417999267578 -3.695024251937866 0.6917510032653809
16.11183738708496 -3.76859188079834 0.7097992300987244
16.209102630615234 -5.404974937438965 0.5806223154067993
16.512605667114258 -5.619036674499512 0.5147126317024231
16.29515266418457 -5.656950950622559 0.5470584630966187
16.165098190307617 -5.723283767700195 0.5628785490989685
16.40334701538086 -5.921206474304199 0.5084857940673828
16.29887580871582 -5.996892929077148 0.5191933512687683
16.149860382080078 -6.054943084716797 0.5384056568145752
16.06511878967285 -6.135969638824463 0.5452724695205688
16.270782470703125 -6.329262733459473 0.496053546667099
16.014371871948242 -6.343060493469238 0.5358551740646362
16.516427993774414 -7.256742000579834 0.37532058358192444
16.325620651245117 -7.29289436340332 0.4019385278224945
16.364383697509766 -7.431115627288818 0.3830142319202423
16.33057975769043 -7.537106990814209 0.3783279359340668
16.36557960510254 -7.675548076629639 0.35973575711250305
16.0734806060791 -7.659398555755615 0.4066098928451538
16.682897567749023 -8.458812713623047 0.23414546251296997
16.5124568939209 -8.629081726074219 0.24292567372322083
16.462251663208008 -8.73203182220459 0.2399885505437851
16.268465042114258 -8.757763862609863 0.2666535973548889
16.24076271057129 -8.871987342834473 0.25890010595321655
16.254436492919922 -9.009566307067871 0.2423451840877533
16.014062881469727 -9.005433082580566 0.27879613637924194
16.109331130981445 -9.189732551574707 0.2448069006204605
16.128847122192383 -9.332683563232422 0.22643917798995972
16.131092071533203 -9.466764450073242 0.21147899329662323
16.05536651611328 -9.55545425415039 0.212906152009964
12.520845413208008 12.745481491088867 0.7289453744888306
12.587984085083008 12.657958984375 0.7298187017440796
12.657320022583008 12.57287311553955 0.730040967464447
12.690157890319824 12.452157974243164 0.7384560704231262
12.697189331054688 12.307469367980957 0.7525030374526978
12.74071216583252 12.199338912963867 0.7580237984657288
12.799164772033691 12.106056213378906 0.7599985003471375
12.825942039489746 11.983542442321777 0.7688966393470764
12.868385314941406 11.876547813415527 0.7740874290466309
12.901247024536133 11.761505126953125 0.7812117338180542
12.941252708435059 11.653769493103027 0.7865598797798157
12.981162071228027 11.546638488769531 0.7917442917823792
13.01134967803955 11.431641578674316 0.7988661527633667
13.051054000854492 11.325760841369629 0.8037243485450745
13.087703704833984 11.2178955078125 0.8090651631355286
13.11373233795166 11.101716995239258 0.8165091872215271
13.155487060546875 10.999565124511719 0.8203905820846558
13.19648265838623 10.897316932678223 0.8242688179016113
13.232133865356445 10.791236877441406 0.8291174173355103
13.266982078552246 10.685128211975098 0.8339640498161316
13.310296058654785 10.5863676071167 0.8368608355522156
13.341259956359863 10.47833251953125 0.8421909809112549
13.36672306060791 10.36668872833252 0.8484955430030823
13.408556938171387 10.268321990966797 0.851222574710846
13.452049255371094 10.171615600585938 0.8534572720527649
13.476675987243652 10.061185836791992 0.8594340682029724
13.523489952087402 9.967809677124023 0.8606856465339661
13.547327995300293 9.857983589172363 0.8664973378181458
13.586356163024902 9.759749412536621 0.8690470457077026
13.623083114624023 9.66026496887207 0.8719198703765869
13.652633666992188 9.556170463562012 0.8760967254638672
13.696846008300781 9.462728500366211 0.8771669864654541
13.731460571289062 9.362990379333496 0.8800315856933594
13.773552894592285 9.26868724822998 0.8812572360038757
13.80185604095459 9.165487289428711 0.8850985765457153
13.836015701293945 9.066614151000977 0.8876283168792725
13.873624801635742 8.970341682434082 0.889335572719574
13.908910751342773 8.872885704040527 0.891367495059967
13.949369430541992 8.779011726379395 0.8922473192214966
13.987524032592773 8.683932304382324 0.8934510946273804
14.02756118774414 8.590258598327637 0.8941580653190613
14.055157661437988 8.489278793334961 0.897163450717926
14.101531982421875 8.39989185333252 0.8963819742202759
14.148192405700684 8.31075382232666 0.8954299688339233
14.188314437866211 8.217896461486816 0.8956250548362732
14.22269058227539 8.121923446655273 0.8968051075935364
14.279629707336426 8.038898468017578 0.8935261368751526
14.40766429901123 7.995196342468262 0.8765318989753723
14.667217254638672 8.02215576171875 0.8343935608863831
15.201096534729004 8.193619728088379 0.740108847618103
19.24066162109375 0.7880743741989136 0.22692535817623138
15.756150245666504 0.548656702041626 0.8427516222000122
19.272611618041992 0.5527207255363464 0.21755196154117584
12.882491111755371 -0.5790656208992004 1.3286256790161133
12.878401756286621 -0.6580632328987122 1.3269404172897339
12.870877265930176 -0.7368654012680054 1.32578444480896
12.85108470916748 -0.8148540258407593 1.3267468214035034
16.208559036254883 -1.628544807434082 0.7015939354896545
16.10883331298828 -1.7184194326400757 0.7156085968017578
16.155311584472656 -1.8236967325210571 0.7030207514762878
16.027156829833984 -1.9088903665542603 0.7220376133918762
16.033321380615234 -2.009474277496338 0.7165547609329224
16.014463424682617 -2.1069982051849365 0.7155150771141052
16.029130935668945 -2.209071397781372 0.7082468867301941
15.923351287841797 -2.2941441535949707 0.7228846549987793
16.001041412353516 -2.405658006668091 0.7038536071777344
15.991437911987305 -2.5046603679656982 0.7006774544715881
15.843323707580566 -2.5811679363250732 0.7228520512580872
16.35940933227539 -2.768425941467285 0.6226806640625
16.351421356201172 -2.8704068660736084 0.6187374591827393
16.308916091918945 -2.966233730316162 0.6210551857948303
16.204940795898438 -3.050183057785034 0.6346604228019714
16.31494140625 -3.1746928691864014 0.6085139513015747
16.091262817382812 -3.2337889671325684 0.6441935896873474
16.082294464111328 -3.334812641143799 0.6399163007736206
16.552736282348633 -3.5384786128997803 0.5460410714149475
16.10088539123535 -3.545358896255493 0.6241714358329773
16.166706085205078 -3.664043664932251 0.6055015921592712
16.066896438598633 -3.745257616043091 0.6177593469619751
16.091060638427734 -3.855184555053711 0.6066313982009888
16.08188819885254 -5.459064483642578 0.49311766028404236
16.09136199951172 -5.572714805603027 0.48242080211639404
16.206663131713867 -5.7243499755859375 0.4507639408111572
16.24298667907715 -5.84962272644043 0.434385746717453
16.27745246887207 -5.975218772888184 0.41817450523376465
16.0660343170166 -6.009824752807617 0.45050913095474243
16.090927124023438 -6.132051467895508 0.4359446167945862
16.058095932006836 -6.232753276824951 0.43270182609558105
16.383283615112305 -7.304122447967529 0.28189849853515625
16.369964599609375 -7.419067859649658 0.2730852961540222
16.383525848388672 -7.546876430511475 0.2585640549659729
16.320465087890625 -7.639710426330566 0.2596834897994995
16.488801956176758 -8.730677604675293 0.12166785448789597
16.354843139648438 -8.788837432861328 0.1364881694316864
16.301895141601562 -8.889911651611328 0.1339169442653656
16.2044734954834 -8.966405868530273 0.1408083736896515
16.075023651123047 -9.024245262145996 0.15458299219608307
16.1700439453125 -9.208731651306152 0.11955472826957703
12.600586891174316 12.826872825622559 0.5847492814064026
12.7377347946167 12.808780670166016 0.5689775347709656
12.670190811157227 12.585906028747559 0.6022419333457947
12.704551696777344 12.46653938293457 0.6107368469238281
12.801634788513184 12.408979415893555 0.6041458249092102
12.779576301574707 12.236831665039062 0.6255457997322083
12.785261154174805 12.093195915222168 0.640079915523529
12.833611488342285 11.991004943847656 0.644379734992981
12.875393867492676 11.88332748413086 0.650019645690918
12.914884567260742 11.77425765991211 0.6559931635856628
12.946199417114258 11.658554077148438 0.6636459827423096
12.981740951538086 11.547492980957031 0.6701214909553528
13.022333145141602 11.441637992858887 0.6752490401268005
13.074028015136719 11.34605598449707 0.677679181098938
13.095855712890625 11.225250244140625 0.6866764426231384
13.146788597106934 11.130078315734863 0.688931405544281
13.15621566772461 11.000558853149414 0.700291097164154
13.201794624328613 10.902095794677734 0.7033848762512207
13.239786148071289 10.797880172729492 0.7079943418502808
13.284674644470215 10.699789047241211 0.7109119296073914
13.314204216003418 10.58989429473877 0.7170377373695374
13.345990180969238 10.482473373413086 0.7224867939949036
13.380853652954102 10.378080368041992 0.7270886301994324
13.41494083404541 10.273652076721191 0.7316886186599731
13.45061206817627 10.170979499816895 0.7357785105705261
13.491057395935059 10.072379112243652 0.7386794090270996
13.527628898620605 9.971325874328613 0.7422556281089783
13.566657066345215 9.87252140045166 0.7451504468917847
13.593779563903809 9.765559196472168 0.7504197955131531
13.624120712280273 9.66148853302002 0.7548394203186035
13.668231010437012 9.567581176757812 0.7561967968940735
13.701164245605469 9.466212272644043 0.759761393070221
13.726041793823242 9.359801292419434 0.7648565769195557
13.759942054748535 9.260041236877441 0.7679075002670288
13.798062324523926 9.163488388061523 0.7699331045150757
13.830571174621582 9.063572883605957 0.7729784846305847
13.86072063446045 8.962531089782715 0.7763635516166687
13.905936241149902 8.871528625488281 0.7765018939971924
13.947221755981445 8.778206825256348 0.7773184776306152
13.997092247009277 8.69042682647705 0.7762497663497925
14.028768539428711 8.591557502746582 0.7787672877311707
14.069035530090332 8.498228073120117 0.7793991565704346
14.098529815673828 8.398675918579102 0.7820823192596436
14.138376235961914 8.305566787719727 0.782535195350647
14.185283660888672 8.216726303100586 0.7814401388168335
14.21794605255127 8.119804382324219 0.7830845713615417
14.310044288635254 8.056621551513672 0.7727048397064209
14.382086753845215 7.981616973876953 0.7662591934204102
14.916983604431152 8.159425735473633 0.6676343083381653
15.12765884399414 8.154735565185547 0.6337468028068542
15.96605110168457 8.480951309204102 0.4756755828857422
15.753524780273438 0.5494069457054138 0.7325301766395569
12.844823837280273 -0.6558015942573547 1.2426170110702515
12.858901023864746 -0.735632061958313 1.237458348274231
12.858743667602539 -0.8147919178009033 1.2348591089248657
16.073055267333984 -1.614030361175537 0.6125919222831726
16.139677047729492 -1.7208049297332764 0.595940887928009
16.0288028717041 -1.808518648147583 0.6126105189323425
15.971146583557129 -1.901328682899475 0.619168758392334
15.879800796508789 -1.989349603652954 0.6320117712020874
15.817216873168945 -2.080167055130005 0.6393387317657471
15.881660461425781 -2.187861442565918 0.6224822402000427
15.86949634552002 -2.285501480102539 0.6200240254402161
15.954889297485352 -2.397825241088867 0.598884105682373
15.790940284729004 -2.4723763465881348 0.6251042485237122
16.0515193939209 -2.6141858100891113 0.5702357292175293
16.425254821777344 -2.778623104095459 0.4934243857860565
16.408464431762695 -2.8794748783111572 0.49107471108436584
16.268272399902344 -2.9579074382781982 0.5122987627983093
16.190513610839844 -3.046541213989258 0.5214836001396179
16.243457794189453 -3.15984845161438 0.5054083466529846
16.149188995361328 -3.2445080280303955 0.5175862908363342
16.18053436279297 -3.3542563915252686 0.5054043531417847
16.10063934326172 -3.4409029483795166 0.5146287679672241
16.301433563232422 -3.5885794162750244 0.46926349401474
16.16372299194336 -3.6624369621276855 0.4894891381263733
16.159685134887695 -3.7659573554992676 0.4836200773715973
16.06517219543457 -3.8480594158172607 0.4953027367591858
16.289443969726562 -5.528558254241943 0.3314839005470276
16.14251136779785 -5.5894775390625 0.3521558344364166
16.22879981994629 -5.731205463409424 0.32526424527168274
16.253887176513672 -5.852580547332764 0.31062906980514526
16.246749877929688 -5.962977886199951 0.3024120628833771
16.29220962524414 -6.0934600830078125 0.28321462869644165
16.15591049194336 -6.155855178833008 0.30130529403686523
16.13846778869629 -6.2629899978637695 0.29479244351387024
16.408185958862305 -7.435384273529053 0.13835780322551727
16.374298095703125 -7.541619777679443 0.13349080085754395
16.26859474182129 -7.614434719085693 0.14389073848724365
12.639534950256348 12.861763954162598 0.47545793652534485
12.665693283081055 12.731637001037598 0.4868588447570801
12.659285545349121 12.570438385009766 0.5060370564460754
12.687243461608887 12.444977760314941 0.516409158706665
12.739606857299805 12.344320297241211 0.5205559730529785
13.0900297164917 12.529541015625 0.45202142000198364
13.16623592376709 12.449031829833984 0.450408935546875
12.822347640991211 11.976102828979492 0.549771249294281
12.8618803024292 11.866521835327148 0.5561613440513611
12.898371696472168 11.754915237426758 0.5630704164505005
12.941299438476562 11.649894714355469 0.5682427287101746
12.989313125610352 11.550025939941406 0.5720239877700806
12.98775863647461 11.407108306884766 0.5872628092765808
13.020650863647461 11.295621871948242 0.5941691398620605
13.100523948669434 11.225171089172363 0.589948832988739
13.128155708312988 11.110265731811523 0.5977182388305664
13.157142639160156 10.997336387634277 0.60496586561203
13.193593978881836 10.891365051269531 0.6102978587150574
13.234583854675293 10.789713859558105 0.6144092679023743
13.272525787353516 10.686116218566895 0.6190401315689087
13.316633224487305 10.587973594665527 0.6220988035202026
13.32596206665039 10.462930679321289 0.632832407951355
13.381730079650879 10.374978065490723 0.6329195499420166
13.400956153869629 10.259197235107422 0.6410360336303711
13.447545051574707 10.164944648742676 0.6428619623184204
13.484804153442383 10.064027786254883 0.6466066241264343
13.527674674987793 9.967706680297852 0.6489490866661072
13.562705993652344 9.866022109985352 0.6528632044792175
13.59060287475586 9.759688377380371 0.6581766605377197
13.641803741455078 9.670464515686035 0.6582306027412415
13.662576675415039 9.560091018676758 0.6647681593894958
13.700333595275879 9.462135314941406 0.6674458980560303
13.742284774780273 9.367401123046875 0.6690669059753418
14.020456314086914 9.43187427520752 0.6197307109832764
14.073563575744629 9.342989921569824 0.618852436542511
14.087408065795898 9.2284517288208 0.6262342929840088
14.135100364685059 9.136540412902832 0.6262269616127014
14.165597915649414 9.03380012512207 0.6297356486320496
14.009578704833984 8.814123153686523 0.6725391149520874
13.974355697631836 8.673012733459473 0.6894684433937073
14.0235595703125 8.585092544555664 0.6884171962738037
14.067998886108398 8.49434757232666 0.6882416605949402
14.105932235717773 8.399853706359863 0.689297080039978
14.145784378051758 8.306708335876465 0.6898183226585388
14.176506996154785 8.208454132080078 0.6921038031578064
14.218523979187012 8.116966247558594 0.6919092535972595
14.26166820526123 8.02623462677002 0.6913555264472961
14.35500717163086 7.963449954986572 0.6803429126739502
14.720969200134277 8.04903507232666 0.6132904291152954
15.133540153503418 8.154701232910156 0.5369266271591187
14.534090042114258 7.603480815887451 0.6751840114593506
15.740628242492676 0.5465729236602783 0.6467471122741699
12.862990379333496 -0.6588220596313477 1.1670705080032349
12.859371185302734 -0.7377532720565796 1.1651990413665771
12.863107681274414 -0.8171641826629639 1.1618191003799438
16.012344360351562 -1.610357403755188 0.5337709784507751
15.999810218811035 -1.7083206176757812 0.5320485234260559
15.98570442199707 -1.8060829639434814 0.5305164456367493
15.981722831726074 -1.905016541481018 0.5269001722335815
16.009279251098633 -2.0080013275146484 0.5170196890830994
15.771400451660156 -2.076558828353882 0.558783233165741
15.843557357788086 -2.185040235519409 0.5399872064590454
15.924684524536133 -2.295886993408203 0.5192676782608032
15.803108215332031 -2.377450942993164 0.5381041765213013
15.95270824432373 -2.5001513957977295 0.5036535859107971
15.809741020202637 -2.5772595405578613 0.5265148282051086
16.395259857177734 -2.776057481765747 0.40583518147468567
16.31664276123047 -2.969212770462036 0.4099171757698059
16.210887908935547 -3.0528814792633057 0.42496049404144287
16.22709083557129 -3.1591804027557373 0.41574862599372864
16.079967498779297 -3.233109951019287 0.4388599395751953
16.084407806396484 -3.3368468284606934 0.43176016211509705
16.11313247680664 -3.4460971355438232 0.4196750819683075
16.29159927368164 -3.588965892791748 0.37748363614082336
16.098482131958008 -3.650195360183716 0.4094737768173218
16.073461532592773 -3.748410224914551 0.4077298641204834
16.149675369262695 -5.594691753387451 0.25455641746520996
16.118316650390625 -5.694935321807861 0.2516300082206726
16.19985008239746 -5.8358917236328125 0.2248053401708603
16.171592712402344 -5.938173770904541 0.22089749574661255
16.166574478149414 -6.049267292022705 0.21193283796310425
16.085643768310547 -6.131880760192871 0.21892765164375305
16.098487854003906 -6.250290393829346 0.20587335526943207
12.681615829467773 12.895344734191895 0.3651118576526642
12.673983573913574 12.730850219726562 0.3856307864189148
12.669709205627441 12.571789741516113 0.40491339564323425
12.706828117370605 12.455281257629395 0.41333529353141785
12.697054862976074 12.294293403625488 0.4333447515964508
12.884160041809082 12.32366943359375 0.40359920263290405
13.353135108947754 12.616808891296387 0.30368101596832275
12.808431625366211 11.954568862915039 0.45629990100860596
12.852907180786133 11.849783897399902 0.4616867005825043
12.894399642944336 11.742913246154785 0.4676066040992737
12.941649436950684 11.641901969909668 0.4719145596027374
12.995501518249512 11.547285079956055 0.4744296669960022
13.036112785339355 11.441411018371582 0.4799818992614746
13.057332038879395 11.319357872009277 0.4900090992450714
13.105944633483887 11.221793174743652 0.4932296872138977
13.117798805236816 11.093557357788086 0.5050508975982666
13.16028881072998 10.992090225219727 0.5093429088592529
13.19595718383789 10.885507583618164 0.5150676965713501
13.227766036987305 10.776413917541504 0.5215088725090027
13.267934799194336 10.674737930297852 0.5257933139801025
13.303502082824707 10.569914817810059 0.5309739112854004
13.344478607177734 10.4699125289917 0.5347141623497009
13.381619453430176 10.367392539978027 0.5391706824302673
13.416443824768066 10.263614654541016 0.5439850091934204
13.45285701751709 10.161577224731445 0.5482569932937622
13.48458194732666 10.056535720825195 0.553428053855896
13.528200149536133 9.96081829071045 0.5557122826576233
13.567968368530273 9.862628936767578 0.5587143898010254
13.607844352722168 9.764899253845215 0.5615324378013611
13.607707977294922 9.639185905456543 0.5731977820396423
13.702458381652832 9.58091926574707 0.5633631348609924
13.652929306030273 9.422394752502441 0.5856984257698059
13.947415351867676 9.5001859664917 0.5311580896377563
14.033596992492676 9.433679580688477 0.5230748057365417
13.836767196655273 9.178877830505371 0.5774665474891663
13.860332489013672 9.072839736938477 0.5827991366386414
13.909554481506348 8.983932495117188 0.5823293328285217
13.9366455078125 8.881017684936523 0.5865704417228699
14.196924209594727 8.92520523071289 0.539796769618988
14.030400276184082 8.701122283935547 0.5859681963920593
14.010985374450684 8.570775985717773 0.5998348593711853
14.059540748596191 8.482657432556152 0.5987996459007263
14.105008125305176 8.392754554748535 0.5983036160469055
13.976906776428223 8.20107650756836 0.6349447965621948
14.210389137268066 8.221588134765625 0.5938330292701721
14.241376876831055 8.123564720153809 0.5960516929626465
14.314545631408691 8.049570083618164 0.589148759841919
14.379602432250977 7.9706902503967285 0.5838750004768372
14.69615364074707 8.028985977172852 0.525267481803894
15.158493041992188 8.161543846130371 0.43607097864151
15.205257415771484 8.067045211791992 0.43470385670661926
15.169538497924805 7.92945671081543 0.45052656531333923
15.739081382751465 0.5413947701454163 0.5586598515510559
12.856319427490234 -0.7419160604476929 1.0933963060379028
12.865886688232422 -0.8216835260391235 1.08880615234375
15.907181739807129 -1.7036525011062622 0.45998677611351013
15.957423210144043 -1.8081254959106445 0.4456236958503723
16.0147647857666 -1.914211630821228 0.4296858608722687
15.9478120803833 -2.0055453777313232 0.43850716948509216
15.748108863830566 -2.078695774078369 0.4738931953907013
15.722023010253906 -2.173492670059204 0.4743623435497284
15.93511962890625 -2.3026628494262695 0.42655307054519653
15.81651782989502 -2.3847157955169678 0.44538626074790955
15.768240928649902 -2.476501941680908 0.44995948672294617
15.730080604553223 -2.569525957107544 0.4523881673812866
16.04319190979004 -3.0266964435577393 0.3661515712738037
16.166337966918945 -3.1527884006500244 0.33495399355888367
16.126081466674805 -3.2478113174438477 0.3369499444961548
16.132308959960938 -3.3522300720214844 0.3293122947216034
16.290292739868164 -3.4894816875457764 0.29036617279052734
16.099645614624023 -3.5521655082702637 0.32288670539855957
16.095293045043945 -3.654956817626953 0.3170139193534851
16.059728622436523 -3.7507002353668213 0.31745031476020813
15.93017578125 -3.8237359523773193 0.33723583817481995
16.26824188232422 -5.641679763793945 0.13238342106342316
16.20427131652832 -5.843442916870117 0.12645946443080902
16.20353889465332 -5.955888748168945 0.1165107786655426
16.106597900390625 -6.032815933227539 0.12734296917915344
16.112775802612305 -6.148240089416504 0.11559588462114334
12.716620445251465 12.80063533782959 0.25439324975013733
12.7052583694458 12.633707046508789 0.2764192819595337
12.646756172180176 12.42263412475586 0.3104403614997864
12.660927772521973 12.285303115844727 0.3249322474002838
12.739885330200195 12.211511611938477 0.32226672768592834
12.865514755249023 12.181807518005371 0.30740463733673096
12.853438377380371 12.022124290466309 0.32798460125923157
12.87598991394043 11.896393775939941 0.3393353521823883
12.925071716308594 11.796010971069336 0.3436625003814697
12.967568397521973 11.690206527709961 0.34946537017822266
13.00705623626709 11.582365036010742 0.35582053661346436
13.057517051696777 11.484859466552734 0.35921114683151245
13.088726043701172 11.37105655670166 0.36722826957702637
13.117542266845703 11.256023406982422 0.3756161630153656
13.154439926147461 11.148686408996582 0.38177865743637085
13.192024230957031 11.042579650878906 0.3875685930252075
13.23713493347168 10.943315505981445 0.39131465554237366
13.264019012451172 10.829620361328125 0.39932847023010254
13.254059791564941 10.687019348144531 0.41607558727264404
13.280521392822266 10.574935913085938 0.4237232208251953
13.323103904724121 10.476289749145508 0.42727941274642944
13.367303848266602 10.379325866699219 0.4302734434604645
13.406140327453613 10.278623580932617 0.43438053131103516
13.430146217346191 10.167160034179688 0.4418379068374634
13.463521957397461 10.063433647155762 0.44687363505363464
13.507990837097168 9.968428611755371 0.44910985231399536
13.541479110717773 9.865735054016113 0.4537672698497772
13.59335994720459 9.776769638061523 0.45394277572631836
13.637449264526367 9.682417869567871 0.455792635679245
13.690549850463867 9.594656944274902 0.45539531111717224
13.810142517089844 9.552989959716797 0.4394713044166565
14.119580268859863 9.639817237854004 0.37974488735198975
13.77558422088623 9.281898498535156 0.47044792771339417
13.825313568115234 9.192893028259277 0.47021979093551636
13.88514518737793 9.110629081726074 0.467549204826355
13.919751167297363 9.011960983276367 0.4704945683479309
13.91393756866455 8.887829780578613 0.48244187235832214
13.956157684326172 8.795002937316895 0.4833223521709442
14.372306823730469 8.934815406799316 0.39987117052078247
14.006099700927734 8.588770866394043 0.49239712953567505
14.048873901367188 8.497123718261719 0.4927034378051758
14.094426155090332 8.407286643981934 0.49225232005119324
14.14194393157959 8.318699836730957 0.49123039841651917
14.1889066696167 8.229846000671387 0.4902020990848541
14.196946144104004 8.11878776550293 0.4976472854614258
14.275165557861328 8.047966003417969 0.48944616317749023
14.299826622009277 7.946913242340088 0.4929274916648865
14.825922012329102 8.12088394165039 0.38635551929473877
14.894052505493164 8.040070533752441 0.3803277909755707
15.167219161987305 8.068015098571777 0.32949817180633545
15.740471839904785 0.559127926826477 0.455873042345047
12.90040111541748 -0.6501145362854004 1.0034348964691162
12.864526748657227 -0.7274469137191772 1.0081413984298706
12.86046314239502 -0.8063901662826538 1.00625741481781
16.041790008544922 -1.6004191637039185 0.3327747881412506
15.9796142578125 -1.6932975053787231 0.3413144648075104
15.933455467224121 -1.7873332500457764 0.3464520275592804
15.831299781799316 -1.8743032217025757 0.36306214332580566
15.999878883361816 -1.9938920736312866 0.3235534429550171
15.76353645324707 -2.0627424716949463 0.36776334047317505
16.014114379882812 -2.1955718994140625 0.31088659167289734
15.802128791809082 -2.2653825283050537 0.34991008043289185
15.770076751708984 -2.3596413135528564 0.35146236419677734
15.743268013000488 -2.454500198364258 0.3518097400665283
15.654985427856445 -2.5392415523529053 0.3648868203163147
15.645453453063965 -2.6363413333892822 0.3614097535610199
16.067502975463867 -2.808987855911255 0.26732394099235535
15.963586807250977 -2.993211507797241 0.27726560831069946
16.012746810913086 -3.1042895317077637 0.2607732117176056
16.058258056640625 -3.215508460998535 0.24487291276454926
16.07615089416504 -3.3218557834625244 0.23463775217533112
16.075143814086914 -3.4246692657470703 0.22825178503990173
16.053396224975586 -3.5231893062591553 0.22612835466861725
16.074018478393555 -3.63128399848938 0.21485987305641174
16.04241371154785 -3.7277984619140625 0.21456584334373474
12.69139289855957 12.611165046691895 0.16798165440559387
12.627252578735352 12.39487361907959 0.20468652248382568
12.665257453918457 12.280986785888672 0.21322743594646454
12.98875904083252 11.845952033996582 0.2171662151813507
13.038864135742188 11.746367454528809 0.2212914228439331
13.079439163208008 11.638781547546387 0.2277049869298935
13.087486267089844 11.503273963928223 0.24233639240264893
13.11660385131836 11.387408256530762 0.25123557448387146
13.136601448059082 11.264589309692383 0.2622402310371399
13.175813674926758 11.159079551696777 0.26807814836502075
13.197662353515625 11.039656639099121 0.278128057718277
13.233683586120605 10.932886123657227 0.28434693813323975
13.2696533203125 10.82670783996582 0.29037240147590637
13.301763534545898 10.718035697937012 0.2971636652946472
13.336882591247559 10.61242961883545 0.3029945194721222
13.371210098266602 10.506793975830078 0.30882352590560913
13.414825439453125 10.408955574035645 0.31215381622314453
13.447617530822754 10.303217887878418 0.31797850131988525
13.47492504119873 10.193913459777832 0.32495608925819397
13.513978958129883 10.094056129455566 0.3288552165031433
13.54915714263916 9.991772651672363 0.3335210382938385
13.582006454467773 9.888279914855957 0.33857014775276184
13.615692138671875 9.785902976989746 0.34323227405548096
13.65423583984375 9.687458038330078 0.34654295444488525
13.699320793151855 9.593972206115723 0.34811440110206604
13.751843452453613 9.505874633789062 0.34775128960609436
13.79171085357666 9.286083221435547 0.36207321286201477
13.830835342407227 9.189927101135254 0.3644039034843445
13.88160514831543 9.101709365844727 0.3638296127319336
13.890628814697266 8.986563682556152 0.37292391061782837
13.961614608764648 8.91176700592041 0.36730802059173584
13.950847625732422 8.785202026367188 0.38066375255584717
13.994891166687012 8.69378662109375 0.3810425102710724
14.029974937438965 8.597034454345703 0.38335496187210083
14.080351829528809 8.509819030761719 0.3819781243801117
14.125130653381348 8.419291496276855 0.38175874948501587
14.169327735900879 8.328532218933105 0.38153403997421265
14.201062202453613 8.230659484863281 0.38402441143989563
14.252570152282715 8.144389152526855 0.3818454444408417
14.35486888885498 7.971352577209473 0.37727025151252747
14.45212173461914 7.910012722015381 0.3643561005592346
15.748366355895996 0.5545328855514526 0.3539857566356659
12.869269371032715 -0.6526760458946228 0.9276608824729919
12.864675521850586 -0.7315877079963684 0.9259768724441528
12.857645034790039 -0.8103467226028442 0.9247047305107117
16.144594192504883 -1.6156885623931885 0.20807796716690063
16.09210205078125 -1.7102237939834595 0.2148534059524536
15.842674255371094 -1.7820935249328613 0.2634466588497162
15.775632858276367 -1.8726470470428467 0.2731706202030182
15.89834976196289 -1.9862130880355835 0.24229459464550018
15.83790111541748 -2.0774428844451904 0.25036510825157166
16.00661849975586 -2.1995644569396973 0.20927824079990387
15.934288024902344 -2.289341688156128 0.21962901949882507
15.83534049987793 -2.3744022846221924 0.23560526967048645
15.795877456665039 -2.4676973819732666 0.23871751129627228
15.937376022338867 -2.5900931358337402 0.20273661613464355
16.03937530517578 -2.7078073024749756 0.17503982782363892
16.06922149658203 -2.814387321472168 0.16272306442260742
16.196521759033203 -2.939248561859131 0.12914223968982697
16.010482788085938 -3.007112741470337 0.16328437626361847
15.99128532409668 -3.105243444442749 0.16117249429225922
15.999296188354492 -3.2088310718536377 0.15300869941711426
15.983649253845215 -3.30787992477417 0.14985257387161255
15.983647346496582 -3.4103291034698486 0.14314402639865875
12.674184799194336 12.28954792022705 0.10528526455163956
13.77664566040039 9.648285865783691 0.2288932502269745
13.80933666229248 9.545784950256348 0.23352575302124023
13.7928466796875 9.28702163696289 0.26227179169654846
13.839329719543457 9.195752143859863 0.2629305422306061
13.880294799804688 9.10103702545166 0.26477769017219543
13.902519226074219 8.994449615478516 0.27100199460983276
13.957826614379883 8.909551620483398 0.26905757188796997
14.06464958190918 8.618505477905273 0.2765471637248993
14.120177268981934 8.53411865234375 0.2739792466163635
14.170989036560059 8.446864128112793 0.2724018692970276
14.22295093536377 8.360298156738281 0.27041730284690857
14.259125709533691 8.264565467834473 0.27202510833740234
14.306571006774902 8.175505638122559 0.27082788944244385
16.208518981933594 0.7704055905342102 0.16323736310005188
15.746804237365723 0.5549798607826233 0.25959399342536926
12.872056007385254 -0.65254807472229 0.8495585322380066
12.846960067749023 -0.7303134202957153 0.8523145914077759
12.846758842468262 -0.8093929290771484 0.8495749831199646
15.844840049743652 -1.978999376296997 0.1576073169708252
15.758325576782227 -2.0664844512939453 0.1717115044593811
15.833955764770508 -2.1753127574920654 0.15003430843353271
15.818897247314453 -2.2722373008728027 0.14816515147686005
15.838027954101562 -2.3742730617523193 0.13861645758152008
15.873873710632324 -2.479343891143799 0.1252172440290451
15.781631469726562 -2.6637728214263916 0.13429056107997894
13.782292366027832 9.273003578186035 0.17192378640174866
13.849886894226074 9.195892333984375 0.16733671724796295
13.863018035888672 9.082883834838867 0.17622603476047516
13.908164978027344 8.991320610046387 0.17694000899791718
13.954362869262695 8.900596618652344 0.1772392839193344
13.9933443069458 8.805469512939453 0.1791706532239914
14.063021659851074 8.259811401367188 0.21687915921211243
15.746992111206055 0.5498784184455872 0.17027238011360168
12.858736991882324 -0.7353044152259827 0.7766481041908264
12.843873977661133 -0.8135331869125366 0.7771333456039429
15.672810554504395 -1.8650754690170288 0.11036743968725204
15.630424499511719 -2.0548720359802246 0.11017917841672897
12.855149269104004 -0.7202510833740234 0.6977725028991699
12.854976654052734 -0.799375593662262 0.694976806640625
12.854154586791992 -0.7265540957450867 0.6150125861167908
12.853925704956055 -0.8056733012199402 0.6121870279312134
12.837175369262695 -0.7230162024497986 0.538567841053009
12.853446006774902 -0.803057849407196 0.5317316651344299
12.83034610748291 -0.7247378826141357 0.46892184019088745
12.838817596435547 -0.8042531609535217 0.46389031410217285
12.83386516571045 -0.7146275043487549 0.38986873626708984
12.858819961547852 -0.7951720952987671 0.3805927336215973
12.822860717773438 -0.7158055305480957 0.3067082166671753
12.85161304473877 -0.7965205311775208 0.2962406277656555
12.819113731384277 -0.713053822517395 0.22882211208343506
12.865185737609863 -0.7948042154312134 0.21353955566883087
12.820712089538574 -0.7175213098526001 0.15862859785556793
12.88016414642334 -0.800126314163208 0.13942424952983856
13.617663383483887 13.79940128326416 0.14572159945964813
12.668407440185547 12.748319625854492 1.2898671627044678
12.67929744720459 12.670719146728516 1.2947863340377808
12.772167205810547 12.763835906982422 0.37422916293144226
12.700372695922852 12.60368537902832 1.2978729009628296
12.790164947509766 12.693175315856934 0.3797398805618286
12.722899436950684 12.538395881652832 1.3006540536880493
12.763964653015137 12.57931900024414 0.3959239423274994
12.74374771118164 12.467412948608398 1.3040016889572144
12.72696304321289 12.451520919799805 0.4150597155094147
12.763874053955078 12.400400161743164 1.307087779045105
