# .PCD v0.7 - Point Cloud Data file format
VERSION 0.7
FIELDS x y z
SIZE 4 4 4
TYPE F F F
COUNT 1 1 1
WIDTH 846
HEIGHT 1
VIEWPOINT 0 0 0 1 0 0 0
POINTS 846
DATA ascii
16.045568466186523 -3.750483274459839 0.8108230829238892
16.0631046295166 -3.8587167263031006 0.8014310002326965
19.348634719848633 -5.9244794845581055 0.13746829330921173
19.00113868713379 -5.94594144821167 0.19114939868450165
18.860618591308594 -6.0293660163879395 0.2073889970779419
18.78443145751953 -6.132389545440674 0.21188151836395264
16.20155906677246 -5.399667263031006 0.6743848919868469
16.20226287841797 -5.5106658935546875 0.6659045219421387
16.28040313720703 -5.649001598358154 0.643048107624054
16.443824768066406 -5.819065570831299 0.604243814945221
16.48712921142578 -5.948554992675781 0.5873197317123413
16.054174423217773 -5.904047012329102 0.6585041880607605
15.974834442138672 -5.986496448516846 0.6642571687698364
18.80535316467285 -7.178990840911865 0.12712126970291138
18.81100845336914 -7.31381893157959 0.11516297608613968
16.265140533447266 -7.143332004547119 0.5210939645767212
16.299758911132812 -7.278285026550293 0.5037115812301636
16.28220558166504 -7.390730381011963 0.4961692690849304
16.356000900268555 -7.545727729797363 0.4708022475242615
16.223384857177734 -7.605766296386719 0.485233336687088
16.144893646240234 -7.690297603607178 0.4891236424446106
16.620851516723633 -8.42408561706543 0.34775424003601074
16.51940155029297 -8.500631332397461 0.3552580177783966
16.26750946044922 -8.497838020324707 0.392706036567688
16.46000099182129 -8.727513313293457 0.3414231240749359
16.38751792907715 -8.818497657775879 0.3428674638271332
16.151195526123047 -8.819740295410156 0.37727242708206177
16.21006202697754 -8.981611251831055 0.3520702123641968
16.36796760559082 -9.200983047485352 0.3064201772212982
16.119184494018555 -9.191948890686035 0.3433434069156647
16.183101654052734 -9.360627174377441 0.3163493275642395
16.213268280029297 -9.511506080627441 0.29597586393356323
16.09410858154297 -9.57502269744873 0.30621492862701416
12.559636116027832 12.767056465148926 0.8307364583015442
12.601110458374023 12.653387069702148 0.8372440934181213
12.63465404510498 12.532730102539062 0.845299243927002
12.670016288757324 12.41490364074707 0.8527342677116394
12.710800170898438 12.303297996520996 0.8587735295295715
12.74783992767334 12.18892765045166 0.8654314875602722
12.7882661819458 12.078636169433594 0.8711566925048828
12.829266548156738 11.969651222229004 0.8765694499015808
12.869412422180176 11.86061954498291 0.8819801211357117
12.901402473449707 11.744893074035645 0.8889438509941101
12.936867713928223 11.633182525634766 0.8949738144874573
12.957420349121094 11.509012222290039 0.9039604067802429
13.002182960510254 11.407180786132812 0.90765380859375
13.042454719543457 11.301995277404785 0.9121228456497192
13.090930938720703 11.204451560974121 0.914717972278595
13.116829872131348 11.08824348449707 0.9218339323997498
13.165302276611328 10.991764068603516 0.9241106510162354
13.187176704406738 10.873738288879395 0.9316945672035217
13.221122741699219 10.766460418701172 0.9366224408149719
13.258868217468262 10.66288948059082 0.9406107068061829
13.294295310974121 10.558029174804688 0.944909930229187
13.346811294555664 10.467156410217285 0.9456050395965576
13.369823455810547 10.353656768798828 0.9520924091339111
13.398223876953125 10.24506664276123 0.9573265910148621
13.446290016174316 10.151991844177246 0.9584807753562927
13.480259895324707 10.048675537109375 0.9622991681098938
13.50710678100586 9.940637588500977 0.9673722982406616
13.548317909240723 9.843680381774902 0.9694586992263794
13.585638999938965 9.74428653717041 0.9721705317497253
13.627087593078613 9.64822769165039 0.9739351868629456
13.691730499267578 9.44446849822998 0.9806047081947327
13.73029613494873 9.34753704071045 0.9825177192687988
13.765728950500488 9.248834609985352 0.9849006533622742
13.811169624328613 9.157142639160156 0.9852278232574463
13.843607902526855 9.057127952575684 0.9879200458526611
13.881978034973145 8.961343765258789 0.9893454313278198
13.908037185668945 8.857999801635742 0.9929819703102112
13.9525785446167 8.766756057739258 0.9929766654968262
13.983938217163086 8.66749382019043 0.9953422546386719
14.026397705078125 8.575387001037598 0.9954864978790283
14.06318187713623 8.480023384094238 0.9965773820877075
14.105265617370605 8.38806438446045 0.9965534210205078
14.1705961227417 8.309890747070312 0.9920763969421387
14.187636375427246 8.2035493850708 0.9964907169342041
14.240784645080566 8.118339538574219 0.9940655827522278
14.276209831237793 8.023107528686523 0.9948166012763977
14.42239761352539 7.989471435546875 0.9750153422355652
14.703863143920898 8.028156280517578 0.9303166270256042
15.21320915222168 8.185795783996582 0.8439206480979919
16.000593185424805 8.483636856079102 0.706961989402771
19.23642349243164 0.7737098932266235 0.3450953960418701
15.722552299499512 0.5354445576667786 0.9446209669113159
19.262340545654297 0.5382271409034729 0.33688095211982727
12.90111255645752 -0.6695693731307983 1.4014973640441895
12.85909652709961 -0.7465161085128784 1.406288743019104
12.871688842773438 -0.8265014290809631 1.401533842086792
16.278564453125 -1.5472397804260254 0.7923943996429443
16.33207130432129 -1.7547805309295654 0.7750861644744873
16.306926727294922 -1.853357195854187 0.7753451466560364
16.26553726196289 -1.9498194456100464 0.7783576250076294
16.34086799621582 -2.0606212615966797 0.7607468962669373
16.26016616821289 -2.1518924236297607 0.7704715132713318
16.315568923950195 -2.2611684799194336 0.7561082243919373
16.300046920776367 -2.361048698425293 0.754134476184845
16.21573257446289 -2.450531482696533 0.7642336487770081
16.231164932250977 -2.5548338890075684 0.7565769553184509
16.35030746459961 -2.779625654220581 0.7251697778701782
16.416963577270508 -2.894718885421753 0.7079679369926453
16.206680297851562 -2.9603328704833984 0.7400751113891602
16.212038040161133 -3.0642428398132324 0.7336077094078064
16.23219108581543 -3.171351432800293 0.7243624329566956
16.15799331665039 -3.2599434852600098 0.7319344878196716
16.1749210357666 -3.3668012619018555 0.7230312824249268
16.183439254760742 -3.472339391708374 0.7155100107192993
16.047027587890625 -3.5462541580200195 0.734060525894165
16.22913360595703 -3.6910951137542725 0.6948823928833008
16.0993709564209 -3.7656776905059814 0.7120629549026489
16.19415855407715 -5.399994850158691 0.5834380984306335
16.509809494018555 -5.618086338043213 0.515241265296936
16.3314208984375 -5.669536590576172 0.5401851534843445
16.17437744140625 -5.72656774520874 0.5611146688461304
16.37557029724121 -5.9111833572387695 0.5137807130813599
16.30626678466797 -5.999610900878906 0.5177803039550781
16.102855682373047 -6.037326335906982 0.547419011592865
16.070636749267578 -6.138075828552246 0.5442112684249878
16.24876594543457 -6.320702075958252 0.5003005862236023
15.975937843322754 -6.327843189239502 0.5432934165000916
16.52994155883789 -7.262678146362305 0.3726534843444824
16.29866600036621 -7.280857086181641 0.40727701783180237
16.35990333557129 -7.429081916809082 0.38390469551086426
16.307348251342773 -7.526388645172119 0.38296109437942505
16.373598098754883 -7.679307460784912 0.35813048481941223
16.052160263061523 -7.649242401123047 0.4108920991420746
16.70220184326172 -8.468598365783691 0.23020970821380615
16.388633728027344 -8.56439208984375 0.2683636248111725
16.450082778930664 -8.725579261779785 0.24249832332134247
16.281457901000977 -8.76475715637207 0.26396292448043823
16.245080947875977 -8.874345779418945 0.25800278782844543
16.265621185302734 -9.015765190124512 0.24001017212867737
16.0072021484375 -9.001577377319336 0.2802339196205139
16.095659255981445 -9.18193531036377 0.24768434464931488
16.12203598022461 -9.328742980957031 0.22787901759147644
16.127696990966797 -9.464774131774902 0.21219956874847412
16.042686462402344 -9.5479097366333 0.2156088948249817
12.515312194824219 12.739849090576172 0.730229914188385
12.586591720581055 12.656559944152832 0.7301400899887085
12.657320022583008 12.57287311553955 0.730040967464447
12.657750129699707 12.420361518859863 0.7458536624908447
12.698606491088867 12.308843612670898 0.752181351184845
12.739286422729492 12.19797420501709 0.7583458423614502
12.789843559265137 12.097240447998047 0.7620923519134521
12.825942039489746 11.983542442321777 0.7688966393470764
12.868385314941406 11.876547813415527 0.7740874290466309
12.91291618347168 11.77214241027832 0.778630256652832
12.93612003326416 11.64914608001709 0.7876900434494019
12.980424880981445 11.545982360839844 0.79190593957901
13.01876449584961 11.438154220581055 0.7972499132156372
13.053290367126465 11.3277006149292 0.803239107131958
13.08470630645752 11.215326309204102 0.8097123503684998
13.119757652282715 11.106817245483398 0.8152141571044922
13.160028457641602 11.003361701965332 0.8194186687469482
13.19648265838623 10.897316932678223 0.8242688179016113
13.234428405761719 10.793107986450195 0.8286306262016296
13.256991386413574 10.677083015441895 0.8360735774040222
13.29407787322998 10.573468208312988 0.8402706384658813
13.332724571228027 10.47162914276123 0.8439779281616211
13.372961044311523 10.371525764465332 0.8471952080726624
13.409339904785156 10.268921852111816 0.8510599136352539
13.451261520385742 10.1710205078125 0.8536202311515808
13.494070053100586 10.07417106628418 0.8558512926101685
13.513164520263672 9.960200309753418 0.8628039360046387
13.556900978088379 9.864949226379395 0.8645409345626831
13.583150863647461 9.757447242736816 0.8696996569633484
13.613425254821777 9.653417587280273 0.8738787770271301
13.655057907104492 9.557867050170898 0.8756067156791687
13.691976547241211 9.45936393737793 0.8781476616859436
13.736351013183594 9.366324424743652 0.8790502548217773
13.76945972442627 9.265933990478516 0.8820755481719971
13.810895919799805 9.171490669250488 0.8832975029945374
13.825288772583008 9.059584617614746 0.8897585272789001
13.866168975830078 8.965520858764648 0.8908112049102783
13.907247543334961 8.871825218200684 0.891695499420166
13.947698593139648 8.777960777282715 0.8925753831863403
13.985847473144531 8.682891845703125 0.8937796950340271
14.018308639526367 8.58459186553955 0.8959664702415466
14.059378623962402 8.491828918457031 0.8963412642478943
14.100685119628906 8.39938735961914 0.8965466618537903
14.14223861694336 8.307256698608398 0.8965829014778137
14.188314437866211 8.217896461486816 0.8956250548362732
14.214125633239746 8.117032051086426 0.8984542489051819
14.279629707336426 8.038898468017578 0.8935261368751526
14.409388542175293 7.996153354644775 0.8762017488479614
14.688850402832031 8.033987045288086 0.8302626013755798
15.23148250579834 8.209996223449707 0.7343213558197021
19.226886749267578 0.7875103950500488 0.22936582565307617
15.759102821350098 0.548759400844574 0.8422284126281738
19.270641326904297 0.5526642799377441 0.21790076792240143
12.897241592407227 -0.5797290802001953 1.3259843587875366
12.878401756286621 -0.6580632328987122 1.3269404172897339
12.873826026916504 -0.737034261226654 1.325255274772644
12.859926223754883 -0.8154149055480957 1.3251582384109497
16.196807861328125 -1.627363920211792 0.703721284866333
16.113725662231445 -1.718941569328308 0.7147215604782104
16.136730194091797 -1.8215988874435425 0.7063934803009033
16.06624412536621 -1.9135466814041138 0.7149320840835571
16.030391693115234 -2.0091068744659424 0.717087984085083
15.991049766540527 -2.103916883468628 0.7197843790054321
16.024255752563477 -2.208399772644043 0.7091370820999146
15.893157958984375 -2.2897934913635254 0.7284075617790222
16.00201416015625 -2.405804395675659 0.7036752700805664
15.959359169006348 -2.4996352195739746 0.7065645456314087
15.808361053466797 -2.5754716396331787 0.7292794585227966
16.315752029418945 -2.7610373497009277 0.6307204365730286
16.350452423095703 -2.87023663520813 0.6189162731170654
16.2634220123291 -2.957958221435547 0.6294642090797424
16.222347259521484 -3.0534591674804688 0.6314376592636108
16.3477783203125 -3.1810827255249023 0.6024221181869507
16.027603149414062 -3.220994710922241 0.65602707862854
16.101560592651367 -3.3388073444366455 0.636327862739563
16.46134376525879 -3.518939971923828 0.5630985498428345
16.111452102661133 -3.5476861000061035 0.622195303440094
16.138883590698242 -3.6577377319335938 0.610715925693512
16.148324966430664 -3.7642409801483154 0.6024647355079651
16.114974975585938 -3.860914468765259 0.6021298170089722
16.09119987487793 -5.462225437164307 0.49129828810691833
16.0922908782959 -5.5730366706848145 0.4822388291358948
16.17699432373047 -5.713870048522949 0.4565943777561188
16.285539627075195 -5.864948272705078 0.4259994626045227
16.30145263671875 -5.9840288162231445 0.41343122720718384
16.088134765625 -6.018092632293701 0.44612738490104675
16.08541488647461 -6.129950523376465 0.437040776014328
16.038848876953125 -6.225282192230225 0.4365406632423401
16.366226196289062 -7.296517372131348 0.2853902578353882
16.362802505493164 -7.415821552276611 0.2745566964149475
16.365671157836914 -7.538651466369629 0.26224419474601746
16.320465087890625 -7.639710426330566 0.2596834897994995
16.480985641479492 -8.72653865814209 0.12333346903324127
16.368694305419922 -8.796279907226562 0.13352501392364502
16.309659957885742 -8.894146919250488 0.1322488784790039
16.228546142578125 -8.979728698730469 0.1356162130832672
16.084449768066406 -9.029537200927734 0.15254198014736176
16.152114868164062 -9.198518753051758 0.12345364689826965
12.633749961853027 12.86063289642334 0.5767202973365784
12.69880485534668 12.769632339477539 0.5783496499061584
12.672289848327637 12.587990760803223 0.6017394661903381
12.701033592224121 12.46308708190918 0.6115744113922119
12.866758346557617 12.47210693359375 0.5887246131896973
12.772457122802734 12.230012893676758 0.6272228360176086
12.790990829467773 12.098615646362305 0.6387374401092529
12.824247360229492 11.982256889343262 0.6465625166893005
12.873220443725586 11.88132095336914 0.6505236625671387
12.914884567260742 11.77425765991211 0.6559931635856628
12.952059745788574 11.663830757141113 0.6623006463050842
12.98542308807373 11.550768852233887 0.6692802906036377
13.019371032714844 11.439035415649414 0.6759222745895386
13.062861442565918 11.33636474609375 0.6802058815956116
13.098100662231445 11.227174758911133 0.6861708164215088
13.154311180114746 11.136446952819824 0.6872454881668091
13.16075325012207 11.004352569580078 0.6992790102958679
13.202554702758789 10.90272331237793 0.7032159566879272
13.242077827453613 10.799748420715332 0.7074875831604004
13.278534889221191 10.694843292236328 0.7122635841369629
13.311119079589844 10.58743953704834 0.717714250087738
13.352190017700195 10.487343788146973 0.7211334109306335
13.389419555664062 10.384725570678711 0.7252267003059387
13.423548698425293 10.280243873596191 0.7298253774642944
13.456901550292969 10.175734519958496 0.7344226241111755
13.486319541931152 10.068841934204102 0.739696741104126
13.525249481201172 9.969571113586426 0.7427646517753601
13.559486389160156 9.867301940917969 0.7466781139373779
13.588977813720703 9.762110710144043 0.7514390349388123
13.628140449523926 9.664338111877441 0.7539896368980408
13.660965919494629 9.562494277954102 0.7577270269393921
13.699542045593262 9.465091705322266 0.7601016163825989
13.728484153747559 9.361466407775879 0.7643457055091858
13.762394905090332 9.26169204711914 0.7673962116241455
13.8046293258667 9.167848587036133 0.7685691714286804
13.82645034790039 9.060872077941895 0.7738314867019653
13.86568546295166 8.965741157531738 0.7753394246101379
13.8992919921875 8.867288589477539 0.7778682112693787
13.947221755981445 8.778206825256348 0.7773184776306152
13.992071151733398 8.687308311462402 0.777275800704956
14.025407791137695 8.589499473571777 0.7794515490531921
14.060602188110352 8.493133544921875 0.7811111211776733
14.093451499938965 8.395649909973145 0.7831102013587952
14.137526512145996 8.30506706237793 0.7827066779136658
14.183578491210938 8.215738296508789 0.7817830443382263
14.213667869567871 8.117361068725586 0.7839427590370178
14.330646514892578 8.068222045898438 0.7685830593109131
14.390700340270996 7.9863972663879395 0.7645407915115356
14.937726020812988 8.170772552490234 0.663507342338562
15.125057220458984 8.153332710266113 0.6342628002166748
15.959961891174316 8.477716445922852 0.47688087821006775
19.180686950683594 0.7868213057518005 0.10273382812738419
15.774164199829102 0.5501274466514587 0.7287271022796631
12.833041191101074 -0.6552004814147949 1.2448118925094604
12.8677339553833 -0.7361370921134949 1.2358107566833496
12.854819297790527 -0.8145434260368347 1.2355917692184448
16.064252853393555 -1.6131467819213867 0.6142473220825195
16.09178352355957 -1.7157002687454224 0.6049603223800659
15.995594024658203 -1.8047728538513184 0.618873119354248
15.986761093139648 -1.9031871557235718 0.6162196397781372
15.8622465133667 -1.9871506690979004 0.6353318691253662
15.813319206237793 -2.0796546936035156 0.6400770545005798
15.91281509399414 -2.192152500152588 0.6165711879730225
15.836423873901367 -2.2807390689849854 0.6263084411621094
15.949058532714844 -2.396949052810669 0.599993884563446
15.802592277526855 -2.4742002487182617 0.6228830814361572
16.12232208251953 -2.6257150173187256 0.5567144751548767
16.433975219726562 -2.7800979614257812 0.4917561709880829
16.342649459838867 -2.867927312850952 0.50368732213974
16.228635787963867 -2.9507014751434326 0.5199084877967834
16.17699432373047 -3.0439977645874023 0.5240838527679443
16.23284912109375 -3.157784938812256 0.5074527263641357
16.19157600402832 -3.2530224323272705 0.5094027519226074
16.099679946899414 -3.44069766998291 0.5148150324821472
16.290878295898438 -3.586256265640259 0.47131356596946716
16.174264907836914 -3.664824962615967 0.4874376058578491
16.165424346923828 -3.7672951221466064 0.482500284910202
16.12058448791504 -3.86133074760437 0.4844709634780884
16.262475967407227 -5.519405841827393 0.3369542360305786
16.13880157470703 -5.588192462921143 0.3529107868671417
16.235280990600586 -5.733493804931641 0.3239419460296631
16.2363338470459 -5.846260070800781 0.3142203092575073
16.260578155517578 -5.968052864074707 0.29957517981529236
16.261857986450195 -6.082109451293945 0.28945988416671753
16.12838363647461 -6.145367622375488 0.30698615312576294
16.182405471801758 -6.280040264129639 0.28569644689559937
16.430627822875977 -7.324223041534424 0.14551258087158203
16.40460968017578 -7.43376350402832 0.13912028074264526
16.36270523071289 -7.536282062530518 0.13596946001052856
16.230363845825195 -7.5965423583984375 0.1520960032939911
16.158187866210938 -7.684132099151611 0.15526708960533142
12.64712905883789 12.869492530822754 0.47355911135673523
12.680280685424805 12.746301651000977 0.4832322299480438
12.669069290161133 12.580156326293945 0.5036182403564453
12.659821510314941 12.41807746887207 0.5231508016586304
12.725460052490234 12.330612182617188 0.5240150690078735
13.099278450012207 12.538394927978516 0.44977185130119324
13.040287971496582 12.32993221282959 0.48087969422340393
12.795717239379883 11.951227188110352 0.556179940700531
12.845956802368164 11.851828575134277 0.5599742531776428
12.900555610656738 11.756905555725098 0.5625500082969666
12.954473495483398 11.66175651550293 0.5651200413703918
12.998880386352539 11.558533668518066 0.569767415523529
12.98849868774414 11.407758712768555 0.5870891809463501
13.028833389282227 11.30272102355957 0.5922577977180481
13.083325386047363 11.210433006286621 0.5939472317695618
13.110116004943848 11.09499740600586 0.6018928289413452
13.148077011108398 10.989757537841797 0.6070540547370911
13.18600082397461 10.88509464263916 0.6120393872261047
13.223135948181152 10.780380249023438 0.6170222759246826
13.249518394470215 10.66758918762207 0.6242696642875671
13.297365188598633 10.572651863098145 0.6264593601226807
13.336804389953613 10.471445083618164 0.6303892135620117
13.373948097229004 10.368943214416504 0.6346657276153564
13.410338401794434 10.266379356384277 0.6389395594596863
13.449116706848145 10.166132926940918 0.6425123810768127
13.480070114135742 10.060493469238281 0.6476560235023499
13.534015655517578 9.972379684448242 0.6475491523742676
13.563501358032227 9.86660099029541 0.6526879072189331
13.59060287475586 9.759688377380371 0.6581766605377197
13.63537883758545 9.665908813476562 0.6596331000328064
13.675482749938965 9.569123268127441 0.6619619131088257
13.69304370880127 9.457098960876465 0.6690253615379333
13.742284774780273 9.367401123046875 0.6690669059753418
14.021272659301758 9.43242359161377 0.6195549964904785
14.073563575744629 9.342989921569824 0.618852436542511
14.087408065795898 9.2284517288208 0.6262342929840088
14.1359281539917 9.13707447052002 0.6260508298873901
14.178875923156738 9.04227066040039 0.626917839050293
13.992082595825195 8.80311393737793 0.6762394309043884
13.991081237792969 8.683395385742188 0.6859419941902161
14.018523216247559 8.582009315490723 0.6894756555557251
14.061258316040039 8.490276336669922 0.6896539926528931
14.100858688354492 8.396831512451172 0.6903567314147949
14.144087791442871 8.305709838867188 0.6901716589927673
14.186727523803711 8.214373588562012 0.6899815797805786
14.228780746459961 8.122822761535645 0.6897857785224915
14.259953498840332 8.025269508361816 0.6917095184326172
14.35500717163086 7.963449954986572 0.6803429126739502
14.731330871582031 8.054701805114746 0.6111630201339722
15.143936157226562 8.160304069519043 0.5347978472709656
15.756338119506836 0.5471197366714478 0.6437640190124512
12.872798919677734 -0.6593233942985535 1.165188193321228
12.859371185302734 -0.7377532720565796 1.1651990413665771
12.857227325439453 -0.8167911767959595 1.1629502773284912
15.989872932434082 -1.608099341392517 0.5381240248680115
15.991024017333984 -1.7073830366134644 0.5337530374526978
15.992531776428223 -1.806854009628296 0.5291900038719177
15.981722831726074 -1.905016541481018 0.5269001722335815
15.9829740524292 -2.004704236984253 0.5221437811851501
15.771400451660156 -2.076558828353882 0.558783233165741
15.788117408752441 -2.177399158477783 0.5508192777633667
15.89844799041748 -2.2921066284179688 0.5244020819664001
15.827378273010254 -2.3811001777648926 0.533346951007843
15.96337604522705 -2.5018224716186523 0.5015594363212585
15.786486625671387 -2.5734705924987793 0.5310876965522766
16.38364601135254 -2.774091958999634 0.4081231355667114
16.344635009765625 -2.870784044265747 0.4101622998714447
16.291532516479492 -2.9646453857421875 0.4148811995983124
16.19931411743164 -3.0507025718688965 0.4272531270980835
16.249250411987305 -3.1634929180145264 0.4113514721393585
16.046289443969727 -3.2263407707214355 0.4455558657646179
16.099782943725586 -3.3400356769561768 0.4286971390247345
16.116010665893555 -3.4467124938964844 0.419100284576416
16.281055450439453 -3.586643934249878 0.3795922100543976
16.096569061279297 -3.649761438369751 0.40985774993896484
16.100221633911133 -3.7546489238739014 0.40235552191734314
16.175765991210938 -5.492703437805176 0.2584548890590668
16.17841148376465 -5.604643821716309 0.24854020774364471
16.123865127563477 -5.696895122528076 0.25046443939208984
16.186927795410156 -5.831238269805908 0.22752581536769867
16.171592712402344 -5.938173770904541 0.22089749574661255
16.188623428344727 -6.057515621185303 0.20726335048675537
16.108556747436523 -6.140613555908203 0.2140607088804245
16.121347427368164 -6.259163856506348 0.20100314915180206
12.671957015991211 12.885520935058594 0.3676028847694397
12.668429374694824 12.725271224975586 0.38705500960350037
12.686470985412598 12.588424682617188 0.4006385803222656
12.732826232910156 12.480769157409668 0.40674200654029846
12.673728942871094 12.271702766418457 0.4392281472682953
12.92042064666748 12.358360290527344 0.394502192735672
13.38674545288086 12.64857292175293 0.29529350996017456
12.799800872802734 11.946511268615723 0.45844244956970215
12.844951629638672 11.842446327209473 0.4636516571044922
12.894399642944336 11.742913246154785 0.4676066040992737
12.941649436950684 11.641901969909668 0.4719145596027374
12.983735084533691 11.53682804107666 0.4772922992706299
13.03463363647461 11.440113067626953 0.480339914560318
13.04692554473877 11.310335159301758 0.492516428232193
13.079044342041016 11.19875431060791 0.4996800720691681
13.107283592224121 11.084662437438965 0.5075605511665344
13.134618759155273 10.970643997192383 0.5154414176940918
13.175470352172852 10.868602752685547 0.5199130177497864
13.214801788330078 10.765850067138672 0.5245611667633057
13.2641019821167 10.67165470123291 0.5266917943954468
13.31351375579834 10.577871322631836 0.5286373496055603
13.355311393737793 10.478414535522461 0.5321964025497437
13.391727447509766 10.375225067138672 0.5368313789367676
13.423474311828613 10.268994331359863 0.5423647165298462
13.460704803466797 10.167506217956543 0.5464558005332947
13.49956226348877 10.067709922790527 0.5500036478042603
13.53453540802002 9.965484619140625 0.5542697906494141
13.579106330871582 9.8707275390625 0.5561884641647339
13.611040115356445 9.767192840576172 0.560810387134552
13.629376411437988 9.65453815460205 0.5683210492134094
13.686339378356934 9.569644927978516 0.5669777393341064
13.659404754638672 9.426864624023438 0.5842517614364624
13.956356048583984 9.506277084350586 0.5291678309440613
14.014009475708008 9.420510292053223 0.5274193286895752
13.813821792602539 9.163652420043945 0.5825380682945251
13.838940620422363 9.058832168579102 0.587511420249939
13.883121490478516 8.9668550491333 0.5881323218345642
13.886059761047363 8.848773956298828 0.5976384282112122
14.195259094238281 8.924159049987793 0.5401597619056702
14.021208763122559 8.695420265197754 0.5879662036895752
14.021890640258789 8.577447891235352 0.597472071647644
14.069643020629883 8.488754272460938 0.5966171622276306
14.115147590637207 8.398789405822754 0.5961200594902039
13.982842445373535 8.204561233520508 0.6336700916290283
14.21294116973877 8.223066329956055 0.5932862162590027
14.227712631225586 8.115768432617188 0.598968505859375
14.27769660949707 8.02884292602539 0.5969916582107544
14.382181167602539 7.972120761871338 0.5833272337913513
14.707369804382324 8.035115242004395 0.5228933691978455
15.127330780029297 8.144761085510254 0.4426489472389221
15.220890045166016 8.07534122467041 0.43141305446624756
15.280182838439941 7.987308979034424 0.42729344964027405
15.743985176086426 0.5415641069412231 0.5577008724212646
12.8572998046875 -0.7419724464416504 1.093202829360962
12.867843627929688 -0.8218082785606384 1.08841872215271
15.925711631774902 -1.705634593963623 0.4562874734401703
15.959370613098145 -1.808346152305603 0.4452342391014099
16.00307846069336 -1.9128162860870361 0.43202561140060425
15.944893836975098 -2.005178689956665 0.43909206986427307
15.73643970489502 -2.0771572589874268 0.47623592615127563
15.722994804382324 -2.173626661300659 0.47416695952415466
15.99917984008789 -2.3119115829467773 0.41365185379981995
15.815546035766602 -2.3845696449279785 0.4455821216106415
15.763397216796875 -2.4757418632507324 0.4509381055831909
15.738790512084961 -2.5709476470947266 0.4506256878376007
16.057645797729492 -3.029421329498291 0.3632062077522278
16.165374755859375 -3.1526007652282715 0.3351503610610962
16.111663818359375 -3.2449092864990234 0.33989953994750977
16.1102294921875 -3.347644805908203 0.3338373899459839
16.337270736694336 -3.499537944793701 0.28071948885917664
16.09294319152832 -3.550687789916992 0.3242659270763397
16.096248626708984 -3.6551740169525146 0.3168167769908905
16.05304527282715 -3.7491402626037598 0.31883105635643005
16.274723052978516 -5.64392614364624 0.1309877634048462
16.198740005493164 -5.84144926071167 0.1276571899652481
16.207218170166016 -5.957240581512451 0.11571162939071655
16.12311553955078 -6.039000034332275 0.12374522536993027
16.132915496826172 -6.1559224128723145 0.11119601875543594
12.691681861877441 12.775533676147461 0.2610241770744324
12.682954788208008 12.611531257629395 0.2823163568973541
12.645353317260742 12.421257019042969 0.31080928444862366
12.64823055267334 12.27298355102539 0.32825255393981934
12.744142532348633 12.215592384338379 0.32115960121154785
12.856949806213379 12.173699378967285 0.30962032079696655
12.835494995117188 12.005341529846191 0.33260244131088257
12.894036293029785 11.913065910339355 0.33471524715423584
12.914182662963867 11.7860746383667 0.3464359641075134
12.962459564208984 11.685601234436035 0.35076022148132324
13.01366138458252 11.588245391845703 0.3541548550128937
13.02873706817627 11.459547996520996 0.3664324879646301
13.093918800354004 11.375568389892578 0.36593130230903625
13.12574577331543 11.2630615234375 0.37357714772224426
13.153690338134766 11.148051261901855 0.38196396827697754
13.181475639343262 11.0337495803833 0.3901659846305847
13.245466232299805 10.950202941894531 0.3892728388309479
13.26325798034668 10.828999519348145 0.3995140790939331
13.2418212890625 10.67715072631836 0.4190486967563629
13.289745330810547 10.582281112670898 0.4214923679828644
13.333917617797852 10.48479175567627 0.4246751368045807
13.371184349060059 10.382338523864746 0.42934295535087585
13.398344039916992 10.272645950317383 0.4362424314022064
13.440329551696777 10.174869537353516 0.4394162893295288
13.481621742248535 10.076961517333984 0.4425865113735199
13.520639419555664 9.977762222290039 0.4461257755756378
13.555771827697754 9.876148223876953 0.4504089951515198
13.598942756652832 9.780784606933594 0.45263564586639404
13.643056869506836 9.68639850616455 0.45448508858680725
13.679286003112793 9.586764335632324 0.4580116868019104
13.807718276977539 9.551313400268555 0.4400322735309601
14.120391845703125 9.640372276306152 0.379557728767395
13.742182731628418 9.259394645690918 0.47812291979789734
13.828585624694824 9.195068359375 0.46947067975997925
13.880218505859375 9.107396125793457 0.4686736762523651
13.911505699157715 9.006622314453125 0.4723694324493408
13.909797668457031 8.885186195373535 0.48337996006011963
13.961974143981934 8.798667907714844 0.48200833797454834
14.372306823730469 8.934815406799316 0.39987117052078247
14.017821311950684 8.595959663391113 0.489766389131546
14.060640335083008 8.504240036010742 0.490071177482605
14.107078552246094 8.414833068847656 0.4894302785396576
14.152103424072266 8.324675559997559 0.48897162079811096
14.195703506469727 8.233786582946777 0.48869532346725464
14.208881378173828 8.125612258911133 0.495009183883667
14.277732849121094 8.049412727355957 0.48888057470321655
14.29725170135498 7.94548225402832 0.4934934377670288
14.750126838684082 8.079371452331543 0.40296703577041626
14.862942695617676 8.023279190063477 0.38712745904922485
15.162884712219238 8.065709114074707 0.33044302463531494
15.740471839904785 0.559127926826477 0.455873042345047
12.87299919128418 -0.6487329602241516 1.0090265274047852
12.865506172180176 -0.7275022864341736 1.007941484451294
12.863397598266602 -0.8065741658210754 1.005657434463501
16.041790008544922 -1.6004191637039185 0.3327747881412506
16.016630172729492 -1.697221040725708 0.33368250727653503
15.952924728393555 -1.7895176410675049 0.34243258833885193
15.854645729064941 -1.8770678043365479 0.35823583602905273
15.93766975402832 -1.9861384630203247 0.3364321291446686
15.776161193847656 -2.064394950866699 0.3651459813117981
15.986943244934082 -2.1918461322784424 0.3165283799171448
15.812792778015137 -2.266911506652832 0.34769243001937866
15.767170906066895 -2.3592066764831543 0.3520675003528595
15.745203971862793 -2.4548020362854004 0.35140568017959595
15.677221298217773 -2.542848587036133 0.36024054884910583
15.635794639587402 -2.634713888168335 0.3634313941001892
16.071359634399414 -2.809662342071533 0.26651495695114136
15.950281143188477 -2.8894903659820557 0.28605127334594727
15.9905366897583 -2.998265504837036 0.2715955078601837
16.01947593688965 -3.1055941581726074 0.2593548893928528
16.067861557006836 -3.2174313068389893 0.2428450584411621
16.0550537109375 -3.3174960613250732 0.23910096287727356
16.06365203857422 -3.4222207069396973 0.23068776726722717
16.064870834350586 -3.5257081985473633 0.2236904799938202
16.0654239654541 -3.6293420791625977 0.2166896015405655
16.026201248168945 -3.7240307331085205 0.21802347898483276
12.666322708129883 12.58625316619873 0.17483188211917877
12.63355827331543 12.401062965393066 0.2029731273651123
12.656800270080566 12.272786140441895 0.21551306545734406
12.989484786987305 11.846612930297852 0.2169753462076187
13.039593696594238 11.747024536132812 0.221100315451622
13.061841011047363 11.62312126159668 0.23229087889194489
13.084537506103516 11.500680923461914 0.24310088157653809
13.11141586303711 11.382904052734375 0.2525743544101715
13.14330768585205 11.270339965820312 0.2605181336402893
13.184051513671875 11.166056632995605 0.26597240567207336
13.199922561645508 11.041545867919922 0.27755317091941833
13.240493774414062 10.938511848449707 0.2826223075389862
13.27269458770752 10.829190254211426 0.28960567712783813
13.315519332885742 10.729119300842285 0.2937110960483551
13.329971313476562 10.606929779052734 0.30472180247306824
13.373525619506836 10.508613586425781 0.30824753642082214
13.40552043914795 10.40173625946045 0.3144589364528656
13.445280075073242 10.301426887512207 0.31855541467666626
13.481968879699707 10.199241638183594 0.32322537899017334
13.524200439453125 10.101690292358398 0.3263539671897888
13.542840003967285 9.987112998962402 0.33506110310554504
13.585179328918457 9.89059066772461 0.33779969811439514
13.622066497802734 9.790484428405762 0.34169092774391174
13.65743637084961 9.689729690551758 0.345771849155426
13.70012378692627 9.594535827636719 0.34792155027389526
13.742157936096191 9.49917984008789 0.3500669598579407
13.803104400634766 9.293754577636719 0.3593686819076538
13.83328628540039 9.191556930541992 0.36382386088371277
13.868477821350098 9.093101501464844 0.3669240474700928
13.891451835632324 8.98709774017334 0.37273046374320984
13.94011402130127 8.898041725158691 0.37234190106391907
13.984884262084961 8.806635856628418 0.37272173166275024
14.045723915100098 8.72536563873291 0.36921975016593933
14.046704292297363 8.60728645324707 0.37947675585746765
14.079512596130371 8.50931167602539 0.38217201828956604
14.12765884399414 8.420798301696777 0.38117656111717224
14.16171646118164 8.324058532714844 0.3832821547985077
14.209548950195312 8.235578536987305 0.38208118081092834
14.266196250915527 8.152174949645996 0.3787343204021454
14.365159034729004 7.977066993713379 0.37493419647216797
14.55881118774414 7.968409538269043 0.3402044475078583
15.744453430175781 0.5543949604034424 0.3548011779785156
12.882952690124512 -0.6533694267272949 0.9247812628746033
12.858813285827637 -0.7312545776367188 0.9272118210792542
12.854715347290039 -0.8101621270179749 0.9253225326538086
16.16698455810547 -1.6179287433624268 0.203323632478714
16.013296127319336 -1.7018510103225708 0.23160679638385773
15.813506126403809 -1.7788134813308716 0.26965582370758057
15.75425910949707 -1.8701106309890747 0.27772653102874756
15.871169090270996 -1.9828181266784668 0.24809662997722626
15.799100875854492 -2.072354793548584 0.2586592435836792
15.984329223632812 -2.196502208709717 0.2140498161315918
15.95946216583252 -2.2929580211639404 0.21423156559467316
15.864363670349121 -2.3787529468536377 0.22937309741973877
15.744658470153809 -2.4596967697143555 0.24973368644714355
15.994338035583496 -2.599348783493042 0.19046561419963837
16.02008628845215 -2.7045514583587646 0.179202139377594
16.053808212280273 -2.81168794631958 0.16605515778064728
16.15899085998535 -2.932438850402832 0.13726820051670074
16.025861740112305 -3.0100009441375732 0.15994802117347717
15.988405227661133 -3.104684352874756 0.16179820895195007
16.00888442993164 -3.210753917694092 0.15092141926288605
15.99130916595459 -3.309465169906616 0.14818185567855835
15.960693359375 -3.4054322242736816 0.14816008508205414
13.758182525634766 9.635354042053223 0.2334596812725067
13.799663543701172 9.53909683227539 0.23590964078903198
13.804226875305176 9.294685363769531 0.25948813557624817
13.839329719543457 9.195752143859863 0.2629305422306061
13.8770170211792 9.098888397216797 0.26557400822639465
13.90005111694336 8.992852210998535 0.27159959077835083
13.952044486999512 8.905860900878906 0.2704523205757141
14.076346397399902 8.625673294067383 0.27375322580337524
14.118500709533691 8.533105850219727 0.2743784785270691
14.170989036560059 8.446864128112793 0.2724018692970276
14.217883110046387 8.357318878173828 0.27161645889282227
14.25997257232666 8.265055656433105 0.2718251645565033
14.270844459533691 8.155086517333984 0.27923181653022766
16.289588928222656 0.7742654085159302 0.14586733281612396
15.74484920501709 0.5549107789993286 0.26001301407814026
12.888650894165039 -0.6533876657485962 0.8459662795066833
12.856719017028809 -0.7308672070503235 0.8501999974250793
12.85066032409668 -0.8096383810043335 0.8487286567687988
15.810904502868652 -1.974764108657837 0.1650571972131729
15.752511978149414 -2.0657224655151367 0.1729895919561386
15.810726165771484 -2.1721231937408447 0.1551486998796463
15.79665470123291 -2.2690439224243164 0.15306957066059113
15.834162712097168 -2.3736941814422607 0.1394699513912201
15.8922119140625 -2.4822065830230713 0.12116112560033798
15.771036148071289 -2.661985158920288 0.13664159178733826
13.79122543334961 9.27901554107666 0.16967812180519104
13.849071502685547 9.195350646972656 0.16754114627838135
13.853193283081055 9.076445579528809 0.17867816984653473
13.898301124572754 8.984942436218262 0.1793934404850006
13.946935653686523 8.895858764648438 0.17908070981502533
13.97429084777832 8.793477058410645 0.18387766182422638
14.053738594055176 8.254358291625977 0.21913619339466095
15.746992111206055 0.5498784184455872 0.17027238011360168
12.85093879699707 -0.734859824180603 0.7783820629119873
12.85556411743164 -0.8142717480659485 0.7745309472084045
15.670873641967773 -1.8648450374603271 0.11080356687307358
15.67805290222168 -1.9633363485336304 0.10438171029090881
15.649775505065918 -2.0574135780334473 0.10581396520137787
12.853202819824219 -0.7201419472694397 0.698217511177063
12.857894897460938 -0.7995572090148926 0.6943088173866272
12.84151840209961 -0.7258403301239014 0.6179826259613037
12.859755516052246 -0.806038498878479 0.6108155250549316
12.832322120666504 -0.7227434515953064 0.5397389531135559
12.859267234802246 -0.8034210205078125 0.5303252935409546
12.83034610748291 -0.7247378826141357 0.46892184019088745
12.849477767944336 -0.8049191236495972 0.46125608682632446
12.832897186279297 -0.7145736217498779 0.3901137113571167
12.83946704864502 -0.7939748167991638 0.38549351692199707
12.821893692016602 -0.715751588344574 0.30695921182632446
12.8390531539917 -0.7957426309585571 0.2995051145553589
12.819113731384277 -0.713053822517395 0.22882211208343506
12.840105056762695 -0.7932572960853577 0.22021353244781494
12.820712089538574 -0.7175213098526001 0.15862859785556793
12.912917137145996 -0.8021554946899414 0.1305302381515503
12.663159370422363 12.743040084838867 1.2907830476760864
12.675786972045898 12.66721248626709 1.2953966856002808
12.777395248413086 12.769060134887695 0.37294894456863403
12.702131271362305 12.605430603027344 1.29756760597229
12.777926445007324 12.681029319763184 0.3827272355556488
12.721132278442383 12.536656379699707 1.300959825515747
12.695534706115723 12.511890411376953 0.4125741422176361
12.743355751037598 12.471372604370117 1.303740382194519
12.72480297088623 12.453742027282715 0.41510406136512756
12.758157730102539 12.39916706085205 1.3077442646026611
12.781899452209473 12.331674575805664 1.310479760169983
12.803187370300293 12.266406059265137 1.3132597208023071
31.00967025756836 29.519695281982422 0.33632156252861023
12.823851585388184 12.205084800720215 1.3157776594161987
31.070585250854492 29.371919631958008 0.3383912742137909
12.844558715820312 12.139819145202637 1.3185566663742065
31.050865173339844 29.148998260498047 0.3485766649246216
12.86496639251709 12.074556350708008 1.3213353157043457
12.896933555603027 12.105462074279785 0.42982450127601624
32.35646438598633 30.161619186401367 2.3990495204925537
31.110214233398438 29.00136947631836 0.3506477177143097
12.883260726928711 12.007606506347656 1.324420690536499
12.92445182800293 12.046960830688477 0.43234455585479736
32.41926193237305 30.009475708007812 2.398214101791382
31.10304832458496 28.79271697998047 0.3593679666519165
12.903067588806152 11.942361831665039 1.32719886302948
12.949911117553711 11.986740112304688 0.4352910816669464
32.47954177856445 29.85556983947754 2.39743971824646
31.214113235473633 28.694133758544922 0.35607802867889404
12.928053855895996 11.882159233093262 1.3290562629699707
12.962410926818848 11.914822578430176 0.4412340223789215
32.518470764160156 29.672346115112305 2.3974244594573975
31.322481155395508 28.58294105529785 0.353408545255661
12.947504043579102 11.812980651855469 1.3320953845977783
12.994821548461914 11.857298851013184 0.4428490698337555
32.52543258666992 29.47142791748047 2.3984017372131348
12.971932411193848 11.7527437210083 1.3339513540267944
13.006684303283691 11.785431861877441 0.4487922191619873
32.51466369628906 29.255775451660156 2.3999500274658203
13.04297161102295 11.737724304199219 2.1961803436279297
12.988722801208496 11.685842514038086 1.3370356559753418
13.025528907775879 11.720216751098633 0.45302170515060425
32.474830627441406 29.01558494567871 2.4024507999420166
13.065159797668457 11.675529479980469 2.1971185207366943
13.016304969787598 11.62888240814209 1.3382753133773804
13.047751426696777 11.658292770385742 0.45639386773109436
32.44178009033203 28.793296813964844 2.404635429382324
13.085053443908691 11.615607261657715 2.198101758956909
13.034215927124023 11.567562103271484 1.340789556503296
13.065845489501953 11.597001075744629 0.46024030447006226
32.52135467529297 28.661731719970703 2.403050422668457
13.102961540222168 11.550094604492188 2.1994099617004395
13.05944538116455 11.508893013000488 1.3423351049423218
13.089374542236328 11.536691665649414 0.4631824791431427
32.5797233581543 28.511863708496094 2.4021568298339844
13.1243257522583 11.487886428833008 2.2003467082977295
13.073221206665039 11.440384864807129 1.3457262516021729
13.118203163146973 11.48122501373291 0.4648364782333374
32.58156204223633 28.32335662841797 2.4030895233154297
13.143427848815918 11.427959442138672 2.201328992843628
13.09219741821289 11.380715370178223 1.3479318618774414
13.133668899536133 11.418293952941895 0.4691105782985687
32.61579132080078 28.15396499633789 2.4029595851898193
13.160478591918945 11.362480163574219 2.202636957168579
13.116640090942383 11.321998596191406 1.3494750261306763
13.162018775939941 11.362750053405762 0.4707624912261963
32.61129379272461 27.952146530151367 2.404104232788086
13.186698913574219 11.305130958557129 2.2030136585235596
13.135184288024902 11.258406639099121 1.3519421815872192
13.180791854858398 11.299132347106934 0.4745602309703827
32.639163970947266 27.76931381225586 2.404183864593506
13.208942413330078 11.240585327148438 2.203901767730713
13.161059379577637 11.19735050201416 1.3534373044967651
13.195603370666504 11.228428840637207 0.47959965467453003
32.632694244384766 27.568151473999023 2.4053401947021484
13.228941917419434 11.178338050842285 2.204835891723633
13.188517570495605 11.141756057739258 1.3543610572814941
13.22507095336914 11.174379348754883 0.4808189868927002
32.65393829345703 27.391469955444336 2.4055418968200684
13.254398345947266 11.120893478393555 2.205209493637085
13.208145141601562 11.079731941223145 1.3565176725387573
13.243000030517578 11.110760688781738 0.48461565375328064
32.64362335205078 27.189380645751953 2.4067749977111816
13.283447265625 11.066597938537598 2.2052090167999268
13.225595474243164 11.016115188598633 1.3589824438095093
13.270110130310059 11.055034637451172 0.4862616956233978
32.66118621826172 27.0115909576416 2.4070491790771484
13.296910285949707 10.999524116516113 2.2067012786865234
13.244675636291504 10.954094886779785 1.3611384630203247
13.289402961730957 10.992975234985352 0.48962727189064026
32.65666198730469 26.816566467285156 2.408036470413208
13.323552131652832 10.943564414978027 2.2068850994110107
13.267317771911621 10.895221710205078 1.3626762628555298
13.314132690429688 10.935606002807617 0.49170154333114624
32.680992126464844 26.636728286743164 2.4080734252929688
13.34799861907959 10.882076263427734 2.2073943614959717
13.287748336791992 10.830870628356934 1.3647843599319458
13.329057693481445 10.866532325744629 0.49630990624427795
32.66487121582031 26.434486389160156 2.4093964099884033
13.3683500289917 10.821318626403809 2.2081377506256104
13.307943344116211 10.770398139953613 1.366629958152771
13.355183601379395 10.810667991638184 0.49795234203338623
32.70228576660156 26.27650260925293 2.4089081287384033
13.386497497558594 10.758989334106445 2.2090678215026855
13.333681106567383 10.714576721191406 1.3675464391708374
13.369564056396484 10.745497703552246 0.5021770000457764
32.692108154296875 26.0811824798584 2.409982681274414
13.408269882202148 10.699774742126465 2.209622383117676
13.357251167297363 10.657160758972168 1.3687714338302612
13.39135456085205 10.686502456665039 0.5046791434288025
32.703880310058594 25.913681030273438 2.4102656841278076
13.422080993652344 10.638237953186035 2.2107865810394287
13.370964050292969 10.595882415771484 1.3712810277938843
13.411052703857422 10.629823684692383 0.5072274208068848
32.715457916259766 25.737590789794922 2.4105682373046875
13.449227333068848 10.58363151550293 2.2107765674591064
13.388198852539062 10.53382682800293 1.3734335899353027
13.42654800415039 10.5662202835083 0.5110212564468384
32.71833038330078 25.555583953857422 2.4111366271972656
13.46829605102539 10.52282428741455 2.211517095565796
13.416894912719727 10.48094367980957 1.3737266063690186
13.455349922180176 10.513249397277832 0.5117962956428528
32.720333099365234 25.37386703491211 2.4117095470428467
13.487106323242188 10.462016105651855 2.212256908416748
13.431660652160645 10.417343139648438 1.3761885166168213
13.470327377319336 10.449641227722168 0.5155894160270691
32.739280700683594 25.20616912841797 2.411695957183838
13.50762939453125 10.40272331237793 2.212808132171631
13.461872100830078 10.365878105163574 1.3761686086654663
13.490875244140625 10.390563011169434 0.5180875062942505
32.7415771484375 25.026508331298828 2.4122121334075928
13.531866073608398 10.346442222595215 2.212981939315796
13.478093147277832 10.303780555725098 1.3783191442489624
13.519001007080078 10.337451934814453 0.5188589692115784
32.74700164794922 24.850160598754883 2.412601947784424
13.543959617614746 10.281075477600098 2.2142858505249023
13.499972343444824 10.246194839477539 1.3795382976531982
13.533191680908203 10.273847579956055 0.5226507186889648
32.759586334228516 24.68009376525879 2.412731409072876
13.573681831359863 10.229253768920898 2.2138919830322266
13.509725570678711 10.1796236038208 1.3826203346252441
13.5589017868042 10.219160079956055 0.5238516926765442
32.753631591796875 24.488065719604492 2.4134788513183594
13.592999458312988 10.166015625 2.214581251144409
13.534844398498535 10.1211519241333 1.3834794759750366
13.574326515197754 10.153200149536133 0.5275952816009521
32.7183952331543 24.28425407409668 2.4151458740234375
13.606270790100098 10.102178573608398 2.215695858001709
13.55996036529541 10.066473960876465 1.3840745687484741
13.595609664916992 10.095505714416504 0.5296581387519836
32.58354568481445 24.008350372314453 2.420088529586792
13.625288963317871 10.042808532714844 2.216243267059326
13.580865859985352 10.00879955291748 1.3852903842926025
13.616657257080078 10.037785530090332 0.5317200422286987
32.41893768310547 23.713029861450195 2.425990581512451
13.648078918457031 9.986372947692871 2.21641206741333
13.593525886535645 9.945245742797852 1.3877501487731934
13.615607261657715 9.964046478271484 0.53853839635849
32.450782775878906 23.571643829345703 2.4253437519073486
13.668914794921875 9.932283401489258 2.216628074645996
13.620245933532715 9.895757675170898 1.387768030166626
13.648350715637207 9.918864250183105 0.5376205444335938
32.484107971191406 23.423179626464844 2.424649715423584
13.689238548278809 9.874320983886719 2.216984272003174
