# .PCD v0.7 - Point Cloud Data file format
VERSION 0.7
FIELDS x y z
SIZE 4 4 4
TYPE F F F
COUNT 1 1 1
WIDTH 852
HEIGHT 1
VIEWPOINT 0 0 0 1 0 0 0
POINTS 852
DATA ascii
13.953344345092773 8.906488418579102 0.3692440986633301
13.954168319702148 8.787293434143066 0.3798888921737671
14.043224334716797 8.7238130569458 0.36980128288269043
14.036666870117188 8.601136207580566 0.3818037509918213
14.080351829528809 8.509819030761719 0.3819781243801117
14.124287605285645 8.418789863586426 0.3819531500339508
14.163408279418945 8.325053215026855 0.3828936517238617
14.201062202453613 8.230659484863281 0.38402441143989563
14.230426788330078 8.131734848022461 0.3869011104106903
14.384881019592285 7.9880194664001465 0.3704569637775421
14.541603088378906 7.958990573883057 0.34409984946250916
15.747386932373047 0.5544983744621277 0.35418957471847534
12.857836723327637 -0.7311990261077881 0.927417516708374
12.845925331115723 -0.809608519077301 0.9271759390830994
16.172826766967773 -1.6185132265090942 0.20208363234996796
16.019134521484375 -1.702471137046814 0.23036612570285797
15.836838722229004 -1.7814375162124634 0.2646888196468353
15.77466106414795 -1.8725316524505615 0.2733774781227112
15.858549118041992 -1.9812417030334473 0.2507905662059784
15.831110000610352 -2.076552391052246 0.25181692838668823
16.03569221496582 -2.203558921813965 0.20305386185646057
15.945906639099121 -2.291010856628418 0.21713769435882568
15.827601432800293 -2.373242139816284 0.23726722598075867
15.769784927368164 -2.4636216163635254 0.2443295568227768
15.947997093200684 -2.5918190479278564 0.20044861733913422
16.022014617919922 -2.7048768997192383 0.17878587543964386
16.049955368041992 -2.8110132217407227 0.16688795387744904
16.140705108642578 -2.929121255874634 0.14122729003429413
16.02682113647461 -3.010181427001953 0.15973976254463196
16.0028076171875 -3.10748028755188 0.15866872668266296
15.981077194213867 -3.2051775455474854 0.15697473287582397
15.98269271850586 -3.3076820373535156 0.15006138384342194
15.97217082977295 -3.4078807830810547 0.14565207064151764
12.668553352355957 12.284087181091309 0.10685401409864426
13.767012596130371 9.641538619995117 0.2312755584716797
13.799663543701172 9.53909683227539 0.23590964078903198
13.7928466796875 9.28702163696289 0.26227179169654846
13.838513374328613 9.195209503173828 0.26312944293022156
13.829486846923828 9.067717552185059 0.27711859345436096
13.881950378417969 8.981141090393066 0.27598071098327637
13.947089195251465 8.90269660949707 0.2716476619243622
14.073004722595215 8.623625755310059 0.27455148100852966
14.124370574951172 8.536653518676758 0.272980660200119
14.177721977233887 8.450879096984863 0.27080345153808594
14.218727111816406 8.357815742492676 0.2714167535305023
14.25997257232666 8.265055656433105 0.2718251645565033
14.305720329284668 8.175019264221191 0.2710280418395996
16.19679832458496 0.769847571849823 0.16574859619140625
15.741918563842773 0.5548072457313538 0.26064157485961914
12.854766845703125 -0.730756402015686 0.8506230711936951
12.836028099060059 -0.8087179660797119 0.8519023060798645
15.837082862854004 -1.9780313968658447 0.15931040048599243
15.759293556213379 -2.0666112899780273 0.17149855196475983
15.803949356079102 -2.1711928844451904 0.1566406935453415
15.793755531311035 -2.268627643585205 0.15370887517929077
15.844792366027832 -2.375286340713501 0.1371227204799652
15.873873710632324 -2.479343891143799 0.1252172440290451
15.78355884552002 -2.664097785949707 0.1338629573583603
13.79122543334961 9.27901554107666 0.16967812180519104
13.860487937927246 9.202933311462402 0.16468144953250885
13.863018035888672 9.082883834838867 0.17622603476047516
13.908164978027344 8.991320610046387 0.17694000899791718
13.937858581542969 8.890067100524902 0.1813306361436844
13.989203453063965 8.802862167358398 0.1801939308643341
14.057958602905273 8.256836891174316 0.218110129237175
15.752848625183105 0.5500836968421936 0.1689833253622055
12.85093879699707 -0.734859824180603 0.7783820629119873
12.836078643798828 -0.8130407929420471 0.7788683772087097
15.655367851257324 -1.8630019426345825 0.11429174989461899
15.65481185913086 -1.960429072380066 0.10961718112230301
15.626553535461426 -2.054363965988159 0.1110522598028183
12.855149269104004 -0.7202510833740234 0.6977725028991699
12.854976654052734 -0.799375593662262 0.694976806640625
12.851238250732422 -0.7263894081115723 0.615697979927063
12.849066734313965 -0.8053690195083618 0.6133300065994263
12.845911979675293 -0.7235073447227478 0.5364598631858826
12.84471321105957 -0.8025132417678833 0.5338407754898071
12.838102340698242 -0.7251746654510498 0.46700748801231384
12.83687973022461 -0.8041321039199829 0.46436911821365356
12.835801124572754 -0.7147353887557983 0.38937896490097046
12.853981971740723 -0.7948727607727051 0.3818180561065674
12.831559181213379 -0.7162907719612122 0.30444929003715515
12.852578163146973 -0.7965803742408752 0.2959894835948944
12.829729080200195 -0.7136432528495789 0.22599980235099792
12.86325740814209 -0.7946852445602417 0.2140529602766037
12.81782054901123 -0.7173600196838379 0.15941296517848969
12.866677284240723 -0.7992907166481018 0.14308637380599976
13.62458610534668 13.806414604187012 0.14401580393314362
12.666656494140625 12.746559143066406 1.2901724576950073
12.681052207946777 12.672472953796387 1.294480562210083
12.777395248413086 12.769060134887695 0.37294894456863403
12.702131271362305 12.605430603027344 1.29756760597229
12.791913986206055 12.69490909576416 0.3793131411075592
12.722899436950684 12.538395881652832 1.3006540536880493
12.772736549377441 12.58796215057373 0.3937895894050598
12.745521545410156 12.469147682189941 1.3036959171295166
12.739288330078125 12.463578224182129 0.41207003593444824
12.76565170288086 12.402127265930176 1.3067821264266968
12.789041519165039 12.338563919067383 1.3092557191848755
12.810012817382812 12.277220726013184 1.311773657798767
31.062040328979492 29.569547653198242 0.3309784233570099
12.831042289733887 12.21192741394043 1.3145521879196167
31.083267211914062 29.3839054107666 0.3371009826660156
12.849967956542969 12.14493179321289 1.3176376819610596
31.045413970947266 29.14388084411621 0.3491303026676178
12.868584632873535 12.07795238494873 1.3207223415374756
12.88795280456543 12.097034454345703 0.43196362257003784
32.35829162597656 30.163320541381836 2.398987293243408
12.885077476501465 12.009298324584961 1.3241139650344849
12.926253318786621 12.048641204833984 0.4319164752960205
32.42632293701172 30.005512237548828 2.398038148880005
12.910606384277344 11.945165634155273 1.3262333869934082
12.944757461547852 11.977790832519531 0.4369579255580902
32.46449661254883 29.831302642822266 2.398012161254883
31.208091735839844 28.678569793701172 0.3570781350135803
12.935601234436035 11.884941101074219 1.3280903100967407
12.971735954284668 11.919225692749023 0.439475953578949
32.52400588989258 29.677396774291992 2.3972365856170654
31.318796157836914 28.579578399658203 0.35377877950668335
12.953003883361816 11.817997932434082 1.331174373626709
12.993002891540527 11.855637550354004 0.44327735900878906
32.551361083984375 29.49492073059082 2.39752459526062
13.037137031555176 11.814971923828125 2.193575382232666
12.971932411193848 11.7527437210083 1.3339513540267944
13.006684303283691 11.785431861877441 0.4487922191619873
32.51142120361328 29.26312255859375 2.400001287460327
13.052046775817871 11.750006675720215 2.1951146125793457
12.988534927368164 11.689766883850098 1.3367737531661987
13.030817985534668 11.729077339172363 0.45135316252708435
32.462318420410156 29.01458740234375 2.4028162956237793
13.066845893859863 11.681132316589355 2.196793556213379
13.00688362121582 11.624540328979492 1.3395506143569946
13.054909706115723 11.668774604797363 0.4542964696884155
32.467952728271484 28.8165225982666 2.403752565383911
13.09064769744873 11.62057113647461 2.197545289993286
13.032358169555664 11.565914154052734 1.3410972356796265
13.07137393951416 11.601906776428223 0.4589538872241974
32.511985778808594 28.653474807739258 2.4033660888671875
13.110443115234375 11.556689262390137 2.198667526245117
13.057583808898926 11.507251739501953 1.3426425457000732
13.094918251037598 11.541577339172363 0.4618956446647644
32.591007232666016 28.521739959716797 2.4017767906188965
13.078824043273926 11.445286750793457 1.3448026180267334
13.112643241882324 11.476360321044922 0.4661237895488739
32.60536193847656 28.334064483642578 2.4023406505584717
13.105409622192383 11.388192176818848 1.3460382223129272
13.13936710357666 11.419235229492188 0.4682057797908783
32.592315673828125 28.123781204223633 2.403798818588257
13.17378044128418 11.369955062866211 2.201474189758301
13.12048625946045 11.321331024169922 1.3491209745407104
13.160261154174805 11.357236862182617 0.4715746343135834
32.619956970214844 27.9497127532959 2.403862714767456
13.190559387207031 11.304451942443848 2.2027809619903564
13.140909194946289 11.259343147277832 1.3512794971466064
13.184622764587402 11.29843521118164 0.4740840494632721
32.64107131958008 27.770931243896484 2.4041197299957275
13.216536521911621 11.247048377990723 2.2031564712524414
13.161059379577637 11.19735050201416 1.3534373044967651
13.206857681274414 11.238004684448242 0.4770222008228302
32.65178680419922 27.58427619934082 2.404700517654419
13.23655891418457 11.184772491455078 2.204090118408203
13.186624526977539 11.140156745910645 1.3546693325042725
13.230714797973633 11.179147720336914 0.47952961921691895
32.65968322753906 27.39628791809082 2.4053492546081543
13.263948440551758 11.128902435302734 2.2042768001556396
13.208145141601562 11.079731941223145 1.3565176725387573
13.244887351989746 11.112343788146973 0.4841856360435486
32.67435073852539 27.21497344970703 2.4057464599609375
13.279617309570312 11.063406944274902 2.2055823802948
13.231314659118652 11.020878791809082 1.3580563068389893
13.272002220153809 11.056611061096191 0.4858317971229553
32.685150146484375 27.02181625366211 2.40628981590271
13.304587364196777 11.001969337463379 2.2060937881469727
13.254228591918945 10.95810604095459 1.3598566055297852
13.289409637451172 10.98908805847168 0.49001064896583557
32.68644714355469 26.831483840942383 2.4070818424224854
13.325455665588379 10.941240310668945 2.2068381309509277
13.271129608154297 10.894482612609863 1.3623203039169312
13.31602954864502 10.933281898498535 0.4916546940803528
32.702301025390625 26.654096603393555 2.407362461090088
13.344132423400879 10.878924369812012 2.2077691555023193
13.293519020080566 10.835573196411133 1.3638567924499512
13.334783554077148 10.871200561523438 0.4950188100337982
32.69328689575195 26.466917037963867 2.408409595489502
13.364527702331543 10.822081565856934 2.2083723545074463
13.309929847717285 10.77584171295166 1.366058349609375
13.35139274597168 10.811448097229004 0.4984300434589386
32.711341857910156 26.29317283630371 2.4085686206817627
13.380738258361816 10.758200645446777 2.2094898223876953
13.329886436462402 10.715350151062012 1.3679027557373047
13.363861083984375 10.744744300842285 0.5030858516693115
32.71881866455078 26.111825942993164 2.4090561866760254
13.408356666564941 10.703669548034668 2.209482192993164
13.349583625793457 10.654850006103516 1.3697469234466553
13.385651588439941 10.685765266418457 0.5055882334709167
32.72934341430664 25.933856964111328 2.4094178676605225
13.420125961303711 10.636689186096191 2.2109742164611816
13.365132331848145 10.591261863708496 1.3722100257873535
13.4091215133667 10.628293991088867 0.5076586604118347
32.725276947021484 25.74531364440918 2.4102413654327393
13.441390991210938 10.577466011047363 2.2115278244018555
13.395998001098633 10.539962768554688 1.3721944093704224
13.428483009338379 10.567743301391602 0.510590136051178
32.743934631347656 25.575578689575195 2.4102847576141357
13.458473205566406 10.51515007019043 2.2124569416046143
13.409074783325195 10.474834442138672 1.3749665021896362
13.447587013244629 10.507184982299805 0.5135213732719421
32.747982025146484 25.395309448242188 2.4107909202575684
13.487106323242188 10.462016105651855 2.212256908416748
13.429699897766113 10.415824890136719 1.3764985799789429
13.470327377319336 10.449641227722168 0.5155894160270691
32.749183654785156 25.21379280090332 2.411367177963257
13.503678321838379 10.399679183959961 2.2131845951080322
13.454009056091309 10.359823226928711 1.3774093389511108
13.483071327209473 10.384553909301758 0.519813597202301
32.74594497680664 25.020795822143555 2.412097215652466
13.529705047607422 10.341053009033203 2.213310956954956
13.477911949157715 10.299922943115234 1.3785818815231323
13.497314453125 10.31714916229248 0.523991048336029
32.76129913330078 24.852001190185547 2.412156343460083
13.549717903137207 10.28172492980957 2.2138607501983643
13.497797966003418 10.240839958190918 1.3801113367080688
13.521239280700684 10.261067390441895 0.5256255865097046
32.78584671020508 24.690914154052734 2.4118871688842773
13.5774507522583 10.22838306427002 2.213655471801758
13.519420623779297 10.183237075805664 1.3813297748565674
13.55280590057373 10.210866928100586 0.5255314707756042
32.77337646484375 24.511741638183594 2.4127981662750244
13.591230392456055 10.168388366699219 2.2146294116973877
13.537059783935547 10.126483917236328 1.3829056024551392
13.570595741271973 10.154094696044922 0.5280751585960388
32.75629425048828 24.321245193481445 2.413865089416504
13.612519264221191 10.110496520996094 2.2149882316589355
13.556220054626465 10.067359924316406 1.3844335079193115
13.593859672546387 10.097877502441406 0.5297061800956726
32.60551452636719 24.033309936523438 2.4193379878997803
13.627553939819336 10.048144340515137 2.2159135341644287
13.579127311706543 10.01116943359375 1.3853386640548706
13.628788948059082 10.050389289855957 0.5287420749664307
32.46118927001953 23.752626419067383 2.424569606781006
13.64835262298584 9.990226745605469 2.216271162033081
13.595799446105957 9.950545310974121 1.3871761560440063
13.625802040100098 9.97514820098877 0.5359916687011719
32.450782775878906 23.571643829345703 2.4253437519073486
13.66487979888916 9.929352760314941 2.2170069217681885
13.614225387573242 9.891385078430176 1.388702154159546
13.648350715637207 9.918864250183105 0.5376205444335938
32.5043830871582 23.43779754638672 2.423978328704834
13.693282127380371 9.877236366271973 2.2166051864624023
13.644474983215332 9.840922355651855 1.38835871219635
13.668678283691406 9.861104965209961 0.5396808981895447
32.52492904663086 23.280590057373047 2.4236867427825928
13.713376998901367 9.81923770904541 2.2169601917266846
13.66445255279541 9.783148765563965 1.3895710706710815
13.716795921325684 9.823392868041992 0.535679817199707
32.56513977050781 23.137996673583984 2.422722339630127
13.735267639160156 9.762662887573242 2.2171247005462646
13.682170867919922 9.723918914794922 1.3910948038101196
13.680522918701172 9.725550651550293 0.5498616099357605
32.57404327392578 22.965240478515625 2.422790288925171
13.75861930847168 9.703655242919922 2.2172393798828125
13.709428787231445 9.668009757995605 1.3913215398788452
13.689676284790039 9.656922340393066 0.5544719099998474
32.59850311279297 22.804187774658203 2.422320604324341
13.775594711303711 9.640317916870117 2.217923164367676
13.726302146911621 9.6049222946167 1.3931068181991577
13.736836433410645 9.615179061889648 0.5508500933647156
32.6264762878418 22.654659271240234 2.421696901321411
13.796768188476562 9.583660125732422 2.2180850505828857
13.743274688720703 9.545652389526367 1.3946285247802734
13.745817184448242 9.550338745117188 0.55507493019104
32.61676788330078 22.479686737060547 2.422297477722168
13.811556816101074 9.522726058959961 2.2188172340393066
13.764087677001953 9.489195823669434 1.3955250978469849
13.772757530212402 9.49813175201416 0.5553979277610779
32.52165985107422 22.247209548950195 2.4256958961486816
13.838428497314453 9.470250129699707 2.2184059619903564
13.786720275878906 9.434112548828125 1.3961085081100464
13.97220516204834 9.564044952392578 0.51884925365448
32.5186653137207 22.087318420410156 2.4260213375091553
13.851099014282227 9.411720275878906 2.2191860675811768
13.81161117553711 9.38417911529541 1.3961138725280762
14.164495468139648 9.627001762390137 0.48362627625465393
32.56645965576172 21.95414924621582 2.4246633052825928
13.88169002532959 9.361936569213867 2.218390703201294
13.825603485107422 9.323452949523926 1.3979461193084717
14.203897476196289 9.581655502319336 0.4813157618045807
32.61994171142578 21.825084686279297 2.423097610473633
13.899673461914062 9.303735733032227 2.2187387943267822
13.849648475646973 9.269638061523438 1.398213267326355
14.050838470458984 9.407414436340332 0.5198153853416443
32.55464172363281 21.625564575195312 2.4254209995269775
13.919964790344238 9.250711441040039 2.2187535762786865
13.87188720703125 9.218192100524902 1.3985278606414795
13.899245262145996 9.239509582519531 0.5575195550918579
32.50672149658203 21.430675506591797 2.427161455154419
13.94789981842041 9.19933795928955 2.218143939971924
13.895526885986328 9.164274215698242 1.3987923860549927
13.925013542175293 9.18689250946045 0.557832658290863
32.44947814941406 21.230911254882812 2.429187774658203
13.961044311523438 9.138325691223145 2.218872308731079
13.910656929016113 9.10486888885498 1.4003088474273682
13.948525428771973 9.132862091064453 0.5585779547691345
32.43525314331055 21.060388565063477 2.429776668548584
13.984387397766113 9.084126472473145 2.2186427116394043
13.929703712463379 9.048172950744629 1.401198148727417
13.97182846069336 9.078777313232422 0.5593226552009583
32.47430419921875 20.917043685913086 2.428593873977661
14.006997108459473 9.026078224182129 2.2185537815093994
13.954256057739258 8.991705894470215 1.4014095067977905
13.988210678100586 9.016862869262695 0.5617552995681763
32.526546478271484 20.79849624633789 2.4269473552703857
14.017848014831543 8.967508316040039 2.2193310260772705
13.965028762817383 8.93337631225586 1.4032881259918213
14.01366901397705 8.967799186706543 0.5616772174835205
32.56296920776367 20.6621036529541 2.4258081912994385
14.038432121276855 8.91186237335205 2.2192904949188232
13.991769790649414 8.881937980651855 1.4029192924499512
14.025948524475098 8.906976699829102 0.5645939707756042
32.63479232788086 20.548341751098633 2.423483371734619
14.063020706176758 8.85883617401123 2.2188644409179688
14.009925842285156 8.82513427734375 1.403804898262024
14.019229888916016 8.834366798400879 0.5714288353919983
32.62075424194336 20.373029708862305 2.4239704608917236
14.086824417114258 8.801969528198242 2.218579053878784
14.037792205810547 8.771120071411133 1.4033827781677246
14.086763381958008 8.805130004882812 0.5629738569259644
32.56411361694336 20.18009376525879 2.4258408546447754
14.108878135681152 8.747509002685547 2.2183423042297363
14.066047668457031 8.720780372619629 1.4026944637298584
14.376609802246094 8.916801452636719 0.5079445242881775
32.47671890258789 19.96947479248047 2.428706169128418
14.13072681427002 8.692999839782715 2.218104362487793
14.08355712890625 8.66385269165039 1.4035767316818237
14.428377151489258 8.879488945007324 0.5025590062141418
32.502132415771484 19.836963653564453 2.4278364181518555
14.155118942260742 8.643511772155762 2.2175302505493164
14.103583335876465 8.611954689025879 1.4038790464401245
32.5454216003418 19.707887649536133 2.426358222961426
14.170171737670898 8.585028648376465 2.2178683280944824
14.131267547607422 8.561407089233398 1.403185486793518
32.568931579589844 19.567171096801758 2.4255130290985107
14.197805404663086 8.534244537353516 2.217047929763794
14.146017074584961 8.503108024597168 1.404380202293396
32.47807693481445 19.358720779418945 2.428419828414917
14.216694831848145 8.47826862335205 2.2169981002807617
14.166921615600586 8.44861888885498 1.404628872871399
14.127793312072754 8.428875923156738 0.5853156447410583
32.429195404052734 19.17658042907715 2.4299254417419434
14.24824047088623 8.429878234863281 2.215787172317505
14.187620162963867 8.394086837768555 1.4048759937286377
14.19926929473877 8.404607772827148 0.5755733847618103
32.453880310058594 19.031082153320312 2.428981065750122
14.270326614379883 8.372573852539062 2.2154901027679443
14.213834762573242 8.339542388916016 1.4044405221939087
14.210626602172852 8.341320991516113 0.5784364938735962
32.4552116394043 18.88001823425293 2.4287939071655273
14.29289436340332 8.31896686553955 2.2150492668151855
14.229828834533691 8.282414436340332 1.4053164720535278
14.226663589477539 8.284260749816895 0.5800399780273438
32.49267578125 18.750408172607422 2.4273974895477295
14.310942649841309 8.262812614440918 2.2149946689605713
14.249892234802246 8.227754592895508 1.4055602550506592
14.259528160095215 8.23703670501709 0.5781465768814087
32.60120391845703 18.661731719970703 2.4236373901367188
14.348241806030273 8.217780113220215 2.21319317817688
14.269745826721191 8.173053741455078 1.4058030843734741
14.26660442352295 8.17500114440918 0.5814970135688782
32.68454360961914 18.565889358520508 2.420700788497925
14.355807304382324 8.159089088439941 2.213963508605957
14.300925254821777 8.128161430358887 1.4041991233825684
14.295557975769043 8.128887176513672 0.5800880193710327
32.705501556396484 18.42718505859375 2.4197940826416016
14.379746437072754 8.106497764587402 2.213322639465332
14.320399284362793 8.073343276977539 1.4044389724731445
14.304319381713867 8.068081855773926 0.5830003619194031
32.77825164794922 18.31781768798828 2.4171602725982666
14.410024642944336 8.057488441467285 2.212096929550171
14.341829299926758 8.019696235656738 1.4043614864349365
14.34720230102539 8.026537895202637 0.5789111256599426
32.805931091308594 18.190872192382812 2.4160094261169434
14.383365631103516 7.98053503036499 1.401167631149292
14.36060905456543 7.971774101257324 0.5805603265762329
32.86475372314453 18.07387351989746 2.413799524307251
14.422618865966797 7.94061279296875 0.572522759437561
32.9460334777832 17.961702346801758 2.4108152389526367
14.922158241271973 8.140100479125977 2.1707844734191895
33.019412994384766 17.852563858032227 2.4080870151519775
14.91850757598877 8.071239471435547 1.3323837518692017
33.026371002197266 17.70770835876465 2.4075357913970947
33.0614013671875 17.578271865844727 2.406038761138916
33.06497573852539 17.432491302490234 2.4055635929107666
33.101165771484375 17.30426597595215 2.4039926528930664
27.78490447998047 14.532475471496582 1.037924885749817
33.11245346069336 17.163349151611328 2.403229236602783
27.81313705444336 14.423959732055664 1.0378857851028442
33.11648941040039 17.01913833618164 2.4026877880096436
27.8121337890625 14.300610542297363 1.0403943061828613
33.122161865234375 16.876245498657227 2.4020748138427734
27.852794647216797 14.19894790649414 1.0391782522201538
33.134613037109375 16.729991912841797 2.401198387145996
33.13236618041992 16.584060668945312 2.4008138179779053
33.14741897583008 16.447237014770508 2.3998398780822754
33.1529541015625 16.306100845336914 2.399163246154785
33.148353576660156 16.16762351989746 2.3988332748413086
33.1572380065918 16.029008865356445 2.3980140686035156
33.15428924560547 15.885129928588867 2.397571325302124
32.54763412475586 15.603239059448242 0.6424767374992371
33.168800354003906 15.750043869018555 2.3965320587158203
32.58592224121094 15.482087135314941 0.6415125131607056
33.16920852661133 15.608665466308594 2.3959450721740723
32.70943069458008 15.401193618774414 0.6330357789993286
33.17809295654297 15.471701622009277 2.395059823989868
32.98860168457031 15.392328262329102 0.6108971238136292
33.180030822753906 15.324884414672852 2.3943591117858887
33.128257751464844 15.310035705566406 0.6010728478431702
33.19458770751953 15.191326141357422 2.393251657485962
33.158607482910156 15.183971405029297 0.6006631255149841
33.19951629638672 15.053726196289062 2.392449378967285
33.193016052246094 15.059935569763184 0.5998557806015015
33.19445037841797 14.918997764587402 2.391996383666992
33.194820404052734 14.928357124328613 0.6017471551895142
33.20285415649414 14.783757209777832 2.3910462856292725
33.20096969604492 14.792152404785156 0.6033221483230591
33.210716247558594 14.648642539978027 2.390098810195923
33.17692565917969 14.643007278442383 0.6074831485748291
33.224910736083984 14.51665210723877 2.388923168182373
33.18878173828125 14.510180473327637 0.6084677577018738
33.2225341796875 14.377796173095703 2.3882856369018555
33.18868637084961 14.372496604919434 0.6104493737220764
33.240264892578125 14.247992515563965 2.386960029602051
33.18803024291992 14.234989166259766 0.6124343276023865
33.23219299316406 14.107498168945312 2.386481761932373
33.19141387939453 14.099611282348633 0.6140227317810059
33.241966247558594 13.974979400634766 2.385390043258667
33.208038330078125 13.97017765045166 0.614416778087616
33.23979568481445 13.831005096435547 2.384644031524658
33.21506118774414 13.830216407775879 0.615689754486084
33.24618911743164 13.697793006896973 2.383633852005005
33.239864349365234 13.704730033874512 0.615285336971283
33.27518844604492 13.574141502380371 2.381848096847534
33.25035858154297 13.573593139648438 0.6160807013511658
33.27129364013672 13.437355041503906 2.381152629852295
33.274192810058594 13.448147773742676 0.6156759858131409
33.257564544677734 13.303780555725098 2.3808138370513916
33.2813720703125 13.322955131530762 0.6165943145751953
33.203800201416016 13.148086547851562 2.3817663192749023
33.213924407958984 13.161763191223145 0.6240130066871643
33.18658447265625 13.007521629333496 2.3814759254455566
33.14807891845703 13.002113342285156 0.6312435865402222
33.18741989135742 12.87446117401123 2.380563259124756
33.15818786621094 12.87283992767334 0.6318550109863281
33.2087287902832 12.749612808227539 2.37894344329834
33.19571304321289 12.754376411437988 0.630054771900177
33.32830810546875 12.672114372253418 0.6199983358383179
33.512046813964844 12.608380317687988 0.6054946780204773
33.74997329711914 12.55368423461914 2.357846975326538
33.747127532958984 12.562641143798828 0.5865301489830017
33.776885986328125 12.42303466796875 2.355910539627075
33.773990631103516 12.432025909423828 0.5855730772018433
33.79411697387695 12.29569149017334 2.3543336391448975
33.75373077392578 12.291080474853516 0.5885752439498901
33.782649993896484 12.158226013183594 2.3537137508392334
33.772743225097656 12.164779663085938 0.5881459712982178
33.756778717041016 12.022693634033203 2.3536200523376465
33.782169342041016 12.04188346862793 0.5884451866149902
33.78429412841797 11.899839401245117 2.3516485691070557
33.781463623046875 11.909017562866211 0.589636504650116
33.7995719909668 11.77283000946045 2.350076198577881
33.799068450927734 11.782865524291992 0.5892085433006287
33.790740966796875 11.637722969055176 2.349308490753174
33.80206298828125 11.651864051818848 0.5899973511695862
13.839303016662598 4.774550437927246 0.10002894699573517
33.80977249145508 11.512486457824707 2.3475773334503174
33.8116340637207 11.523394584655762 0.5901792049407959
33.81412887573242 11.382475852966309 2.346330404281616
33.811275482177734 11.391817092895508 0.5911738276481628
33.82746887207031 11.255729675292969 2.344761371612549
33.815147399902344 11.261957168579102 0.5917646884918213
33.835594177246094 11.127466201782227 2.343355178833008
33.83271789550781 11.136881828308105 0.5911372303962708
33.85274124145508 11.002374649047852 2.3416249752044678
33.837982177734375 11.007966995239258 0.5915273427963257
33.85228729248047 10.865279197692871 2.3404219150543213
33.84701919555664 10.874009132385254 0.5915910601615906
33.85655975341797 10.736506462097168 2.3391001224517822
33.84178924560547 10.742267608642578 0.5927996039390564
33.8603515625 10.607836723327637 2.337779998779297
33.87884521484375 10.624112129211426 0.5903358459472656
33.86126708984375 10.478530883789062 2.336543560028076
33.86789321899414 10.49108600616455 0.591955840587616
33.856910705566406 10.347888946533203 2.3354740142822266
33.87071990966797 10.362638473510742 0.5923522710800171
33.868804931640625 10.222457885742188 2.3338301181793213
33.86113357543945 10.230695724487305 0.5937742590904236
33.868255615234375 10.093502044677734 2.33259916305542
33.86537170410156 10.103219032287598 0.5939699411392212
33.867225646972656 9.964672088623047 2.3313698768615723
33.840450286865234 9.967391014099121 0.5966280102729797
33.878387451171875 9.84606647491455 2.3297698497772217
33.86113739013672 9.851676940917969 0.5953100323677063
33.87882614135742 9.71813678741455 2.328460931777954
33.873531341552734 9.727270126342773 0.5946895480155945
33.88359451293945 9.59168815612793 2.3269877433776855
33.88547897338867 9.602899551391602 0.594069242477417
33.89992141723633 9.468681335449219 2.325098752975464
33.89696502685547 9.478560447692871 0.593448281288147
33.9085807800293 9.343688011169434 2.323460102081299
33.907997131347656 9.354260444641113 0.5928283929824829
33.923194885253906 9.214139938354492 2.321531057357788
33.90575408935547 9.220155715942383 0.5933210849761963
33.92608642578125 9.087944984436035 2.3200604915618896
33.91824722290039 9.096625328063965 0.5924956202507019
33.92937088012695 8.968401908874512 2.318631172180176
33.90946960449219 8.973941802978516 0.5934457778930664
33.933773040771484 8.843015670776367 2.317080020904541
33.9162483215332 8.849273681640625 0.5930358171463013
33.92802810668945 8.71522045135498 2.3158674240112305
33.91533279418945 8.722804069519043 0.593246340751648
33.92422866821289 8.58818531036377 2.3145716190338135
33.928443908691406 8.60012149810791 0.5922168493270874
33.902992248535156 8.457053184509277 2.3138723373413086
33.916934967041016 8.471417427062988 0.5932584404945374
33.9249267578125 8.336901664733887 2.311647891998291
33.921875 8.347063064575195 0.5928522944450378
33.9294319152832 8.2125883102417 2.310018539428711
33.9215202331543 8.221602439880371 0.5928618907928467
33.95433807373047 8.087052345275879 2.3075835704803467
33.95118713378906 8.097261428833008 0.5902565717697144
33.962799072265625 7.963951110839844 2.3057827949523926
33.93535232543945 7.968491077423096 0.5915151834487915
33.97188186645508 7.847378253936768 2.3040215969085693
33.96137619018555 7.855952739715576 0.5891557931900024
33.984344482421875 7.725456714630127 2.3020498752593994
33.94463348388672 7.727447509765625 0.5904178023338318
33.98173904418945 7.6002726554870605 2.3005940914154053
33.93714141845703 7.60133171081543 0.5908507704734802
33.98356246948242 7.476274013519287 2.2989673614501953
33.97297286987305 7.485007286071777 0.587531566619873
33.99469757080078 7.354467868804932 2.296996831893921
33.95970153808594 7.35797643661499 0.5883830785751343
34.000511169433594 7.231634616851807 2.295199394226074
33.987388610839844 7.239950180053711 0.5856865048408508
34.009559631347656 7.103428363800049 2.2931902408599854
33.99150848388672 7.110784530639648 0.5849533677101135
34.01691436767578 6.981186866760254 2.2913060188293457
33.996376037597656 6.9881181716918945 0.5841370820999146
34.02382278442383 6.858981132507324 2.2894222736358643
34.003238677978516 6.865996360778809 0.5831112265586853
34.01804733276367 6.734386920928955 2.2879745960235596
34.009666442871094 6.7439117431640625 0.5820856690406799
34.02293014526367 6.618234634399414 2.2862160205841064
34.012062072753906 6.627323150634766 0.5813949108123779
34.01268768310547 6.4993109703063965 2.284984588623047
34.018951416015625 6.511727809906006 0.5802844166755676
14.176437377929688 2.719590425491333 0.10364218056201935
34.011619567871094 6.370041847229004 2.2832422256469727
34.02275848388672 6.383367538452148 0.5793455839157104
34.008968353271484 6.246801853179932 2.281625986099243
34.0299072265625 6.261904239654541 0.5781110525131226
34.03046417236328 6.128082752227783 2.27912974357605
34.03662109375 6.140468120574951 0.5768763422966003
34.03432083129883 6.006251335144043 2.277249336242676
34.02818298339844 6.016458511352539 0.5769069790840149
34.04513168334961 5.885744094848633 2.275104284286499
34.03402328491211 5.895132541656494 0.5756729245185852
34.05897521972656 5.759707927703857 2.272745370864868
34.03305435180664 5.766650676727295 0.5749483704566956
34.05412292480469 5.636740207672119 2.2711315155029297
34.05028533935547 5.647451877593994 0.5726592540740967
34.06855392456055 5.517068862915039 2.2688071727752686
34.05235290527344 5.525808811187744 0.5716375708580017
34.05695343017578 5.399401664733887 2.2674999237060547
34.060428619384766 5.411332607269287 0.5701067447662354
34.068084716796875 5.279374122619629 2.265263795852661
34.069034576416016 5.290919780731201 0.5684497952461243
34.05902862548828 5.15634298324585 2.263744592666626
34.06490707397461 5.168643951416016 0.5678530931472778
34.05941390991211 5.034900188446045 2.261868953704834
34.07511901855469 5.048649787902832 0.5659838914871216
34.06431579589844 4.9142303466796875 2.259812831878662
34.07258224487305 4.9268646240234375 0.5651765465736389
34.07868576049805 4.794979095458984 2.257397174835205
34.0794792175293 4.806549549102783 0.563519299030304
34.09016799926758 4.675347328186035 2.2550697326660156
34.08348083496094 4.685906410217285 0.562075138092041
34.07724380493164 4.546441078186035 2.253520965576172
34.09030532836914 4.559675216674805 0.5602927207946777
34.105194091796875 4.429103374481201 2.250558614730835
34.090965270996094 4.43876314163208 0.559061586856842
34.127777099609375 4.310998916625977 2.247774124145508
34.08872604370117 4.317586898803711 0.558043897151947
34.10283279418945 4.187008380889893 2.246718406677246
34.098419189453125 4.198002338409424 0.5559593439102173
34.13876724243164 4.076592922210693 2.2435102462768555
34.134193420410156 4.0876078605651855 0.5516505837440491
33.578216552734375 3.6536128520965576 2.2581734657287598
33.56582260131836 3.5338001251220703 2.256617546081543
33.38446044921875 3.5260732173919678 0.6110332012176514
33.556068420410156 3.4085147380828857 2.254848003387451
33.24824905395508 3.3885879516601562 0.6213204264640808
33.634796142578125 3.2979726791381836 2.2498788833618164
33.386070251464844 3.2849810123443604 0.607917070388794
33.69076919555664 3.184807777404785 2.2457315921783447
33.28304672241211 3.1576476097106934 0.6153392791748047
33.69607162475586 3.0726451873779297 2.2435553073883057
33.283203125 3.0463905334472656 0.6138664484024048
33.70151138305664 2.9546024799346924 2.2412540912628174
33.11228561401367 2.914302349090576 0.6271248459815979
33.701560974121094 2.8361401557922363 2.239137649536133
32.690185546875 2.7622768878936768 0.6621696949005127
33.71364212036133 2.7187156677246094 2.236555576324463
32.80367660522461 2.6566274166107178 0.650698721408844
33.71037292480469 2.600090265274048 2.2345328330993652
33.32407760620117 2.5817453861236572 0.6038171052932739
33.719139099121094 2.482436180114746 2.2320425510406494
32.910404205322266 2.4342403411865234 0.6380757689476013
33.72001647949219 2.3642282485961914 2.229832887649536
32.829036712646484 2.3130905628204346 0.6434274315834045
33.72087097167969 2.2401609420776367 2.227498769760132
33.11539840698242 2.211361885070801 0.6166443228721619
33.713417053222656 2.1215322017669678 2.2255704402923584
33.06551742553711 2.092180013656616 0.6191781163215637
33.69807052612305 2.0025382041931152 2.2239270210266113
32.99283981323242 1.9720373153686523 0.6236687898635864
33.687294006347656 1.883955478668213 2.222097396850586
15.818992614746094 0.8911951184272766 2.120021104812622
33.710723876953125 1.77318274974823 2.219067096710205
15.804346084594727 0.8378303050994873 2.120429277420044
33.694149017333984 1.654431700706482 2.2174270153045654
15.81452751159668 0.7830456495285034 2.118607997894287
15.829492568969727 0.7284281253814697 2.1163506507873535
15.839295387268066 0.6735045313835144 2.11452579498291
12.520435333251953 0.48471716046333313 3.020371198654175
15.843925476074219 0.6183270812034607 2.113135576248169
19.31585693359375 0.7568680047988892 0.8496871590614319
12.459592819213867 0.43883419036865234 3.0218355655670166
15.843390464782715 0.5629491806030273 2.112180471420288
19.313228607177734 0.689290463924408 0.8489365577697754
12.463569641113281 0.3932560086250305 3.020770788192749
15.852696418762207 0.5051339268684387 2.1102941036224365
12.552225112915039 0.3521985709667206 3.016486167907715
15.859233856201172 0.4499547481536865 2.108682632446289
19.307340621948242 0.5508484840393066 0.8473650217056274
12.653179168701172 0.3130393326282501 3.011753797531128
15.875469207763672 0.397752046585083 2.106255292892456
19.331153869628906 0.4874061942100525 0.8429421782493591
12.621681213378906 0.26819759607315063 3.0120694637298584
15.874160766601562 0.34230005741119385 2.105297327041626
12.57753849029541 0.22335968911647797 3.0128724575042725
15.865191459655762 0.286727637052536 2.1049964427948
33.7902717590332 0.478708952665329 2.1901333332061768
15.870965003967285 0.2314375787973404 2.103381633758545
33.79163360595703 0.36078935861587524 2.1876277923583984
15.879034996032715 0.17613764107227325 2.1015472412109375
33.77759552001953 0.24275891482830048 2.185704231262207
12.566766738891602 0.04773426055908203 3.0096280574798584
32.89601135253906 0.13314802944660187 0.5980525016784668
12.616774559020996 0.0016864185454323888 3.0066983699798584
32.90850067138672 0.012623378075659275 0.5943903923034668
12.669118881225586 -0.04252607747912407 3.0037100315093994
32.910606384277344 -0.10221657902002335 0.5917280912399292
12.716313362121582 -0.0870690643787384 3.0009095668792725
32.9197883605957 -0.21712157130241394 0.5884040594100952
12.770842552185059 -0.1320207267999649 2.997807741165161
32.90117645263672 -0.3318147659301758 0.5875035524368286
12.790276527404785 -0.17463339865207672 2.9961206912994385
32.89470672607422 -0.44081202149391174 0.5856233835220337
12.637225151062012 -0.21442458033561707 3.001222610473633
32.872928619384766 -0.549519956111908 0.5850687026977539
12.611331939697266 -0.2602081298828125 3.00122332572937
33.84003829956055 -0.8197860717773438 2.1602683067321777
33.7440071105957 -0.8056285977363586 0.5022104382514954
33.85433578491211 -0.9383568167686462 2.1570608615875244
33.57149124145508 -0.9187285304069519 0.5147541165351868
33.840763092041016 -1.0561789274215698 2.154940605163574
33.149696350097656 -1.0229394435882568 0.5494773387908936
33.841758728027344 -1.1744388341903687 2.1522257328033447
33.302486419677734 -1.144002079963684 0.5330435037612915
33.205989837646484 -1.256711721420288 0.5387778282165527
12.923922538757324 -0.5353127717971802 2.3463263511657715
12.543407440185547 -0.5677515864372253 2.996912717819214
12.956709861755371 -0.581976056098938 2.342252731323242
12.661066055297852 -0.6173791289329529 2.991173505783081
33.34176254272461 -1.6174044609069824 0.517673134803772
12.965621948242188 -0.6776425242424011 2.977893114089966
13.148594856262207 -0.6826123595237732 2.3227343559265137
13.010649681091309 -0.7232635021209717 2.975066900253296
13.136225700378418 -0.725644588470459 2.322695732116699
12.953649520874023 -0.7082616686820984 1.0423364639282227
12.825965881347656 -0.757876455783844 2.9814469814300537
12.996803283691406 -0.763425886631012 2.3339836597442627
12.944103240966797 -0.7579147219657898 1.6950726509094238
12.948456764221191 -0.7533088326454163 1.04183828830719
12.909582138061523 -0.7527113556861877 0.3861164450645447
12.8281831741333 -0.8029426336288452 2.980289936065674
12.884618759155273 -0.801949143409729 2.342836618423462
12.911581993103027 -0.8012294173240662 1.6982488632202148
12.913689613342285 -0.7965099215507507 1.0469317436218262
12.884805679321289 -0.7963915467262268 0.3904277980327606
12.593454360961914 -0.8323453068733215 2.9887313842773438
12.869224548339844 -0.846085250377655 2.342993974685669
12.928333282470703 -0.8475741744041443 1.6945257186889648
12.893837928771973 -0.8421317338943481 0.3865377902984619
11.945024490356445 -0.8312627077102661 3.0140109062194824
12.888456344604492 -0.8925377726554871 2.3400228023529053
12.113905906677246 -0.8855361342430115 3.0061233043670654
12.91745376586914 -0.9398592710494995 2.336153507232666
12.259969711303711 -0.9414165616035461 2.9990785121917725
12.906377792358398 -0.9866102933883667 2.3358142375946045
12.465714454650879 -1.0010230541229248 2.9896137714385986
12.880423545837402 -1.0298503637313843 2.336869478225708
12.501928329467773 -1.0478622913360596 2.9870526790618896
12.906434059143066 -1.0772790908813477 2.333216905593872
12.438427925109863 -1.0862576961517334 2.988572120666504
12.409838676452637 -1.1252273321151733 2.9887139797210693
12.757094383239746 -1.2466065883636475 2.9721741676330566
33.619327545166016 -3.2766809463500977 0.4468255341053009
12.79238224029541 -1.2951486110687256 2.9695754051208496
33.652042388916016 -3.3984789848327637 0.4402611255645752
12.812581062316895 -1.3423882722854614 2.9675893783569336
33.706607818603516 -3.522876501083374 0.4316615164279938
13.155435562133789 -1.424798846244812 2.952174663543701
33.79041290283203 -3.6509079933166504 0.4203457832336426
16.011568069458008 -1.719879150390625 0.4302225708961487
13.36107063293457 -1.496659278869629 2.9423484802246094
33.87059020996094 -3.785201072692871 0.40911558270454407
15.926811218261719 -1.7698352336883545 0.44396141171455383
13.363161087036133 -1.5441367626190186 2.9410393238067627
33.87425231933594 -3.9053637981414795 0.40500256419181824
15.937381744384766 -1.8273522853851318 0.4394902288913727
13.246030807495117 -1.5774509906768799 2.9447133541107178
33.748924255371094 -4.010314464569092 0.4126487076282501
15.864829063415527 -1.8751548528671265 0.4509609639644623
12.623340606689453 -1.5456645488739014 2.9696714878082275
33.767337799072266 -4.126096248626709 0.4073103666305542
15.889992713928223 -1.9315844774246216 0.44373613595962524
12.563302040100098 -1.582828164100647 2.971020221710205
33.70556640625 -4.237995147705078 0.4090903699398041
16.080284118652344 -2.0117273330688477 0.4045354127883911
33.96461868286133 -4.403099536895752 2.068009614944458
33.58415985107422 -4.341848850250244 0.4163191020488739
15.897577285766602 -2.045236825942993 0.43713489174842834
34.00587844848633 -4.5291852951049805 2.063063383102417
33.753665924072266 -4.4836106300354 0.3967897593975067
15.865763664245605 -2.097468614578247 0.4406428337097168
34.00459671020508 -4.6498565673828125 2.059891700744629
33.83378219604492 -4.614490985870361 0.38540807366371155
15.833782196044922 -2.1495044231414795 0.44415441155433655
33.97073745727539 -4.7660627365112305 2.0580813884735107
33.878875732421875 -4.741152763366699 0.37719419598579407
15.816224098205566 -2.2033777236938477 0.4448496401309967
33.990867614746094 -4.88991641998291 2.0539627075195312
33.95553207397461 -4.872785568237305 0.3660159409046173
15.990504264831543 -2.2846148014068604 0.4084013104438782
34.00719451904297 -5.019538879394531 2.049816608428955
33.96921157836914 -5.001878261566162 0.36038756370544434
15.933188438415527 -2.3360486030578613 0.4165523052215576
34.01405715942383 -5.1419172286987305 2.046215772628784
33.97592544555664 -5.124095439910889 0.3555658161640167
15.856719970703125 -2.3814053535461426 0.428535521030426
34.0229377746582 -5.264786243438721 2.0425057411193848
33.989585876464844 -5.247559547424316 0.3500577211380005
15.833518028259277 -2.4344730377197266 0.4301723837852478
34.02245330810547 -5.380280017852783 2.03934383392334
33.98897933959961 -5.362921714782715 0.3460416793823242
15.817861557006836 -2.485795497894287 0.43045854568481445
34.03047561645508 -5.503361701965332 2.035628080368042
33.98210906982422 -5.483474254608154 0.34235379099845886
15.830668449401855 -2.5444765090942383 0.42503413558006287
34.02573776245117 -5.6245269775390625 2.0324413776397705
34.006736755371094 -5.60931396484375 0.3356928825378418
15.787540435791016 -2.594115734100342 0.43044573068618774
34.02302932739258 -5.746143817901611 2.0291459560394287
33.99653625488281 -5.7295989990234375 0.3322291076183319
15.734574317932129 -2.6418581008911133 0.4377492368221283
34.044490814208984 -5.872056007385254 2.0247833728790283
33.998172760009766 -5.851994037628174 0.3276207447052002
15.778260231018066 -2.7058749198913574 0.42619332671165466
34.05811309814453 -5.996890068054199 2.020735263824463
33.99691390991211 -5.9740400314331055 0.32323864102363586
15.744302749633789 -2.7566704750061035 0.42972859740257263
34.05652618408203 -6.119238376617432 2.017324924468994
15.847936630249023 -2.831895589828491 0.40636304020881653
34.07305908203125 -6.251198768615723 2.0129284858703613
15.883091926574707 -2.8983123302459717 0.3961433470249176
34.097564697265625 -6.3787922859191895 2.0083322525024414
34.021202087402344 -6.352422714233398 0.30696767568588257
15.986075401306152 -2.974832534790039 0.37274929881095886
34.07743453979492 -6.498210430145264 2.0056657791137695
33.99614334106445 -6.470632553100586 0.30464404821395874
16.10801124572754 -3.0557701587677 0.345558226108551
34.060489654541016 -6.612098217010498 2.0030205249786377
33.974266052246094 -6.583292484283447 0.30222010612487793
16.010791778564453 -3.092372417449951 0.36142832040786743
34.04444122314453 -6.732370853424072 2.0001394748687744
34.038761138916016 -6.719162940979004 0.2913815677165985
16.0550594329834 -3.15912127494812 0.3493492305278778
34.05000686645508 -6.857051849365234 1.9962856769561768
34.03682327270508 -6.842312812805176 0.28675174713134766
16.07979965209961 -3.2223567962646484 0.3410469591617584
33.962127685546875 -6.962786674499512 1.996543526649475
33.97103500366211 -6.95255184173584 0.288115531206131
16.147586822509766 -3.294642210006714 0.3242206573486328
33.91794967651367 -7.07717752456665 1.994859218597412
33.8902702331543 -7.059370517730713 0.29087090492248535
16.133344650268555 -3.3504602909088135 0.32348161935806274
33.91490936279297 -7.200164794921875 1.9913333654403687
33.89440155029297 -7.183778762817383 0.28555333614349365
16.10209846496582 -3.402665376663208 0.3260585069656372
33.89922332763672 -7.32058048248291 1.9883489608764648
33.87374496459961 -7.303055763244629 0.2825435996055603
16.1762752532959 -3.4774057865142822 0.30779051780700684
33.91351318359375 -7.453859806060791 1.9838200807571411
33.846500396728516 -7.4271159172058105 0.2798697352409363
16.148780822753906 -3.533492088317871 0.30935803055763245
33.901798248291016 -7.575430393218994 1.9806150197982788
16.09777069091797 -3.5812785625457764 0.3157312273979187
33.928619384765625 -7.7058610916137695 1.9756596088409424
16.109521865844727 -3.6400272846221924 0.30983680486679077
33.87007141113281 -7.80452823638916 1.9748961925506592
33.98236083984375 -7.818356513977051 0.2520904242992401
16.13541030883789 -3.7021889686584473 0.30109351873397827
33.87411880493164 -7.930078029632568 1.9709218740463257
33.96431350708008 -7.93915319442749 0.24860553443431854
16.088682174682617 -3.7506556510925293 0.3065253794193268
33.8985595703125 -8.054460525512695 1.9661921262741089
34.00780487060547 -8.068367004394531 0.23944352567195892
16.066373825073242 -3.8016982078552246 0.30727478861808777
33.88325500488281 -8.182133674621582 1.9628525972366333
34.0164680480957 -8.202251434326172 0.23303712904453278
33.93684387207031 -8.320547103881836 1.956552267074585
34.03573989868164 -8.332738876342773 0.22582463920116425
34.01896667480469 -8.466679573059082 1.9489160776138306
34.05451583862305 -8.463462829589844 0.2186059206724167
34.07868576049805 -8.607977867126465 1.9422599077224731
34.084861755371094 -8.597464561462402 0.21021781861782074
34.10153579711914 -8.74049186706543 1.9372550249099731
34.10261917114258 -8.728693008422852 0.20298722386360168
34.10213088989258 -8.86761474609375 1.9332423210144043
34.1198844909668 -8.860152244567871 0.19575171172618866
34.12397384643555 -9.000578880310059 1.9282264709472656
34.13182830810547 -8.990571022033691 0.18897676467895508
34.134056091308594 -9.13718032836914 1.9235210418701172
34.14888381958008 -9.129067420959473 0.18136824667453766
34.123531341552734 -9.262127876281738 1.919942855834961
34.1453971862793 -9.255987167358398 0.1759871244430542
34.12459182739258 -9.390429496765137 1.9158045053482056
34.11503219604492 -9.375736236572266 0.17317752540111542
34.115543365478516 -9.516166687011719 1.9121116399765015
34.10103225708008 -9.500065803527832 0.16873018443584442
34.13487243652344 -9.650110244750977 1.9070713520050049
