# .PCD v0.7 - Point Cloud Data file format
VERSION 0.7
FIELDS x y z
SIZE 4 4 4
TYPE F F F
COUNT 1 1 1
WIDTH 845
HEIGHT 1
VIEWPOINT 0 0 0 1 0 0 0
POINTS 845
DATA ascii
16.23777961730957 -3.169849157333374 0.812667965888977
16.07754898071289 -3.2411417961120605 0.8349297642707825
16.248088836669922 -3.379413366317749 0.799457311630249
16.152475357055664 -3.463094472885132 0.8102912306785583
16.186386108398438 -3.574416399002075 0.7983735203742981
16.17820930480957 -3.676896572113037 0.7937020063400269
16.068601608276367 -3.7558655738830566 0.8067682385444641
16.097604751586914 -3.86700177192688 0.795344352722168
18.992673873901367 -5.943293571472168 0.19268356263637543
18.858741760253906 -6.02876615524292 0.20773009955883026
18.782556533813477 -6.131778240203857 0.21222248673439026
16.17070960998535 -5.3893890380859375 0.6800223588943481
16.231182098388672 -5.520498275756836 0.6606050133705139
16.267370223999023 -5.6444807052612305 0.645443320274353
16.416889190673828 -5.809535503387451 0.6092084050178528
16.461181640625 -5.939194679260254 0.5921170711517334
16.030134201049805 -5.895207405090332 0.6629619598388672
15.974834442138672 -5.986496448516846 0.6642571687698364
18.833887100219727 -7.189881324768066 0.12179891020059586
18.816516876220703 -7.315960884094238 0.11413244903087616
18.825788497924805 -7.452976703643799 0.10130524635314941
16.314743041992188 -7.165112018585205 0.5115967988967896
16.29796028137207 -7.277481555938721 0.5040571093559265
16.30731773376465 -7.402127742767334 0.491327702999115
16.347057342529297 -7.541602611541748 0.4725327491760254
16.228734970092773 -7.608274459838867 0.48419472575187683
16.160009384155273 -7.6974968910217285 0.48617807030677795
16.609432220458984 -8.418298721313477 0.35001304745674133
16.541292190551758 -8.511894226074219 0.3509114682674408
16.318132400512695 -8.524279594421387 0.3826150894165039
16.462610244750977 -8.728897094726562 0.34090080857276917
16.405729293823242 -8.828296661376953 0.3392089903354645
16.15983772277832 -8.824459075927734 0.37552884221076965
16.189390182495117 -8.970159530639648 0.35625728964805603
16.258956909179688 -9.139714241027832 0.32859018445014954
16.123462677001953 -9.194387435913086 0.3424697518348694
16.154123306274414 -9.343867301940918 0.32229235768318176
16.262527465820312 -9.540398597717285 0.28583091497421265
16.113571166992188 -9.586599349975586 0.3021891713142395
12.558249473571777 12.765647888183594 0.831045925617218
12.601808547973633 12.65408706665039 0.8370895981788635
12.636056900024414 12.5341215133667 0.8449894785881042
12.677777290344238 12.422510147094727 0.8510297536849976
12.720027923583984 12.31223201751709 0.8567580580711365
12.749268531799316 12.19029426574707 0.8651209473609924
12.79185676574707 12.082027435302734 0.8703808188438416
12.829266548156738 11.969651222229004 0.8765694499015808
12.869412422180176 11.86061954498291 0.8819801211357117
12.899211883544922 11.742897033691406 0.8894104361534119
12.930992126464844 11.627898216247559 0.8962184190750122
12.974405288696289 11.524101257324219 0.90038001537323
12.99772834777832 11.403270721435547 0.9085883498191833
13.055890083312988 11.313639640808105 0.9093173146247864
13.079675674438477 11.194816589355469 0.917057454586029
13.119847297668457 11.09079360961914 0.9212098717689514
13.160752296447754 10.98796558380127 0.9250473380088806
13.195558547973633 10.880651473999023 0.9299759268760681
13.232610702514648 10.775816917419434 0.9342775344848633
13.251172065734863 10.656699180603027 0.9421751499176025
13.29274845123291 10.556800842285156 0.945222795009613
13.33903980255127 10.461060523986816 0.9471710324287415
13.374507904052734 10.357285499572754 0.9511522054672241
13.397439956665039 10.244465827941895 0.9574834108352661
13.446290016174316 10.151991844177246 0.9584807753562927
13.480259895324707 10.048675537109375 0.9622991681098938
13.50710678100586 9.940637588500977 0.9673722982406616
13.545920372009277 9.841938018798828 0.9699302911758423
13.584033012390137 9.743135452270508 0.9724852442741394
13.62950611114502 9.649940490722656 0.9734629988670349
13.687666893005371 9.441664695739746 0.9813927412033081
13.7278470993042 9.345870018005371 0.9829909801483154
13.767369270324707 9.249937057495117 0.9845849275588989
13.800471305847168 9.150047302246094 0.9872807264328003
13.842782020568848 9.056587219238281 0.9880782961845398
13.877001762390137 8.9581298828125 0.9902939796447754
13.916364669799805 8.863304138183594 0.991399884223938
13.955086708068848 8.768332481384277 0.9925016760826111
13.978063583374023 8.663851737976074 0.9964514374732971
14.026397705078125 8.575387001037598 0.9954864978790283
14.0640287399292 8.480533599853516 0.9964187145233154
14.108660697937012 8.390082359313965 0.9959182739257812
14.159524917602539 8.303397178649902 0.9941414594650269
14.238211631774902 8.11687183380127 0.9945427179336548
14.302887916564941 8.038105010986328 0.9898819923400879
14.443985939025879 8.001433372497559 0.9710330963134766
14.689133644104004 8.020112037658691 0.9330262541770935
15.21320915222168 8.185795783996582 0.8439206480979919
16.003210067749023 8.485024452209473 0.7064829468727112
19.230514526367188 0.7734715938568115 0.3461061716079712
19.214771270751953 0.6548412442207336 0.34697502851486206
19.28795623779297 0.5389457941055298 0.3324944078922272
12.85909652709961 -0.7465161085128784 1.406288743019104
12.855955123901367 -0.8254936933517456 1.4042643308639526
16.25502586364746 -1.545005440711975 0.7965052127838135
16.315420150756836 -1.7529937028884888 0.7780024409294128
16.30594825744629 -1.8532460927963257 0.7755168080329895
16.267494201660156 -1.9500536918640137 0.7780141830444336
16.351621627807617 -2.0619754791259766 0.7588556408882141
16.27090835571289 -2.1533126831054688 0.7685787081718445
16.350696563720703 -2.2660322189331055 0.7499091029167175
16.287372589111328 -2.3592145442962646 0.7563747763633728
16.216707229614258 -2.450678586959839 0.7640613913536072
16.217540740966797 -2.5526914596557617 0.7589929699897766
16.31243896484375 -2.7731924057006836 0.731910228729248
16.35391616821289 -2.8836100101470947 0.7192103266716003
16.182456970214844 -2.955911874771118 0.7444025874137878
16.1859073638916 -3.059307336807251 0.738284707069397
16.212860107421875 -3.167577028274536 0.7278293967247009
16.142547607421875 -3.256829261779785 0.7347100973129272
16.160459518432617 -3.363792657852173 0.7256354093551636
16.218103408813477 -3.4797725677490234 0.7092560529708862
16.073951721191406 -3.5522007942199707 0.729192852973938
16.21184730529785 -3.687166452407837 0.6980143189430237
16.090740203857422 -3.763660430908203 0.7136297821998596
16.18108558654785 -5.395636558532715 0.5859022736549377
16.434322357177734 -5.592409133911133 0.5295064449310303
16.28678321838379 -5.654046535491943 0.5486449003219604
16.18737030029297 -5.731165885925293 0.5586457848548889
16.42279052734375 -5.92822265625 0.5047796368598938
16.321969985961914 -6.005386829376221 0.5147778391838074
16.103778839111328 -6.03767204284668 0.5472420454025269
16.086267471313477 -6.144044399261475 0.5412046313285828
16.247848510742188 -6.320345401763916 0.50047767162323
16.590307235717773 -7.2891926765441895 0.3607388138771057
16.304954528808594 -7.283665657043457 0.40603107213974
16.372447967529297 -7.434776306152344 0.38141170144081116
16.300201416015625 -7.523090839385986 0.38438665866851807
16.350435256958008 -7.6684465408325195 0.3627667725086212
16.722387313842773 -8.478830337524414 0.22609466314315796
16.46449851989746 -8.604026794433594 0.2527785897254944
16.460512161254883 -8.731109619140625 0.24034738540649414
16.281457901000977 -8.76475715637207 0.26396292448043823
16.255443572998047 -8.880003929138184 0.25584888458251953
16.285411834716797 -9.026731491088867 0.23587949573993683
16.019208908081055 -9.008326530456543 0.27771785855293274
16.114456176757812 -9.192657470703125 0.2437278926372528
16.115222930908203 -9.324803352355957 0.22931887209415436
16.142967224121094 -9.473733901977539 0.20895837247371674
16.05536651611328 -9.55545425415039 0.212906152009964
12.522921562194824 12.747593879699707 0.728463888168335
12.585199356079102 12.655159950256348 0.7304614782333374
12.68252944946289 12.59791374206543 0.7242546081542969
12.690157890319824 12.452157974243164 0.7384560704231262
12.697189331054688 12.307469367980957 0.7525030374526978
12.743563652038574 12.202069282531738 0.7573798894882202
12.791277885437012 12.098596572875977 0.7617703676223755
12.823779106140137 11.981521606445312 0.7693800926208496
12.871286392211914 11.87922477722168 0.7734424471855164
12.89541244506836 11.756186485290527 0.7825026512145996
12.929519653320312 11.643202781677246 0.7891428470611572
12.974525451660156 11.540735244750977 0.7931982278823853
13.014315605163574 11.434246063232422 0.7982197403907776
13.04434585571289 11.319939613342285 0.8051795959472656
13.093697547912598 11.22303295135498 0.8077709674835205
13.11373233795166 11.101716995239258 0.8165091872215271
13.159272193908691 11.002728462219238 0.8195806741714478
13.195722579956055 10.896689414978027 0.8244310021400452
13.232897758483887 10.791860580444336 0.8289551138877869
13.270824432373047 10.688222885131836 0.8331528306007385
13.303345680236816 10.580839157104492 0.838322103023529
13.34514045715332 10.481380462646484 0.8413784503936768
13.359705924987793 10.361246109008789 0.849958598613739
13.412473678588867 10.271322250366211 0.8504090905189514
13.444966316223145 10.166260719299316 0.8549221754074097
13.483000755310059 10.06590747833252 0.8581312894821167
13.513958930969238 9.960785865783691 0.8626410365104675
13.54892349243164 9.859145164489746 0.8661715388298035
13.580747604370117 9.755721092224121 0.8701890110969543
13.623083114624023 9.66026496887207 0.8719198703765869
13.659100532531738 9.56069564819336 0.8747898936271667
13.696846008300781 9.462728500366211 0.8771669864654541
13.733904838562012 9.364657402038574 0.8795411586761475
13.76945972442627 9.265933990478516 0.8820755481719971
13.79117202758789 9.158393859863281 0.8872274160385132
13.834365844726562 9.065532684326172 0.8879558444023132
13.866996765136719 8.966056823730469 0.8906472325325012
13.907247543334961 8.871825218200684 0.891695499420166
13.964396476745605 8.788468360900879 0.8892920017242432
13.984171867370605 8.681851387023926 0.8941083550453186
14.020832061767578 8.586137771606445 0.8954732418060303
14.050934791564941 8.486729621887207 0.8979861736297607
14.099838256835938 8.398882865905762 0.8967112302780151
14.145641326904297 8.309255599975586 0.8959239721298218
14.186606407165527 8.21690845489502 0.8959547281265259
14.227828979492188 8.124857902526855 0.8958153128623962
14.279629707336426 8.038898468017578 0.8935261368751526
14.399040222167969 7.990411281585693 0.8781833052635193
14.688850402832031 8.033987045288086 0.8302626013755798
15.241900444030762 8.215612411499023 0.732337236404419
19.22295379638672 0.787349283695221 0.23006309568881989
19.19253921508789 0.6682411432266235 0.23366577923297882
19.275562286376953 0.5528053641319275 0.21702823042869568
12.905108451843262 -0.580082893371582 1.324575424194336
12.890198707580566 -0.6586663722991943 1.3248258829116821
12.873826026916504 -0.737034261226654 1.325255274772644
12.858943939208984 -0.8153524994850159 1.325334906578064
16.206600189208984 -1.6283478736877441 0.7019485831260681
16.114704132080078 -1.719045877456665 0.714544415473938
16.139665603637695 -1.821930170059204 0.7058609127998352
16.072105407714844 -1.9142450094223022 0.7138665914535522
16.0167236328125 -2.0073933601379395 0.7195766568183899
15.97348690032959 -2.1016058921813965 0.7229863405227661
16.00963592529297 -2.2063841819763184 0.7118074297904968
15.937958717346191 -2.2962489128112793 0.7202126383781433
16.001041412353516 -2.405658006668091 0.7038536071777344
15.941862106323242 -2.496894359588623 0.7097758650779724
15.843323707580566 -2.5811679363250732 0.7228520512580872
16.345827102661133 -2.766127347946167 0.6251817345619202
16.34269905090332 -2.868875741958618 0.6203463673591614
16.288589477539062 -2.962536096572876 0.6248124241828918
16.209775924682617 -3.051093101501465 0.633765459060669
16.31494140625 -3.1746928691864014 0.6085139513015747
16.044965744018555 -3.2244839668273926 0.6527999639511108
16.096744537353516 -3.337808847427368 0.6372250914573669
16.485395431518555 -3.5240817070007324 0.5586097240447998
16.099924087524414 -3.545147180557251 0.624351441860199
16.140804290771484 -3.658172607421875 0.6103565692901611
16.124374389648438 -3.758657693862915 0.6069632768630981
16.164716720581055 -3.872833251953125 0.5927667021751404
16.06978416442871 -5.454955577850342 0.495482861995697
16.10529899597168 -5.577541828155518 0.4796897768974304
16.202953338623047 -5.723039627075195 0.4514930248260498
16.252235412597656 -5.852954387664795 0.4325627386569977
16.2266902923584 -5.956583023071289 0.4282084107398987
16.1102352142334 -6.026360511779785 0.4417460262775421
16.094602584838867 -6.13345193862915 0.43521416187286377
16.037931442260742 -6.224926471710205 0.43672364950180054
16.36083984375 -7.2941155433654785 0.286493182182312
16.37891960144043 -7.423125743865967 0.2712462842464447
16.362098693847656 -7.537006378173828 0.2629804015159607
16.291088104248047 -7.625958442687988 0.26575982570648193
16.47403907775879 -8.722859382629395 0.12481394410133362
16.38860321044922 -8.80698013305664 0.12926548719406128
16.32001304626465 -8.899792671203613 0.13002531230449677
16.207910537719727 -8.96830940246582 0.14006654918193817
16.09558868408203 -9.03579044342041 0.15012972056865692
16.169189453125 -9.208245277404785 0.11974036693572998
12.64549446105957 12.872589111328125 0.5738764405250549
12.677252769470215 12.747961044311523 0.583537757396698
12.673688888549805 12.589380264282227 0.6014046669006348
12.69821834564209 12.460325241088867 0.6122446060180664
12.86251163482666 12.467989921569824 0.5897305011749268
12.761775970458984 12.219785690307617 0.6297385096549988
12.796004295349121 12.103357315063477 0.6375632286071777
12.830009460449219 11.987640380859375 0.6452192664146423
12.875393867492676 11.88332748413086 0.650019645690918
12.914155960083008 11.77359390258789 0.6561612486839294
12.946931838989258 11.659213066101074 0.663477897644043
12.975849151611328 11.542251586914062 0.6714674234390259
13.023073196411133 11.442288398742676 0.6750808358192444
13.069561958312988 11.342179298400879 0.6786898970603943
13.095855712890625 11.225250244140625 0.6866764426231384
13.146788597106934 11.130078315734863 0.688931405544281
13.15999698638916 11.0037202835083 0.6994476914405823
13.197234153747559 10.898329734802246 0.7043974995613098
13.234439849853516 10.793519020080566 0.7091767191886902
13.278534889221191 10.694843292236328 0.7122635841369629
13.308804512023926 10.585598945617676 0.7182212471961975
13.340563774108887 10.478212356567383 0.7236711382865906
13.378517150878906 10.37626838684082 0.7275963425636292
13.415722846984863 10.274251937866211 0.7315192222595215
13.441965103149414 10.164440155029297 0.7376427054405212
13.486319541931152 10.068841934204102 0.739696741104126
13.528422355651855 9.97191047668457 0.742085874080658
13.557095527648926 9.86556339263916 0.7471874356269836
13.595379829406738 9.766709327697754 0.7500802874565125
13.632160186767578 9.66718864440918 0.7531397342681885
13.662580490112305 9.563624382019043 0.7573869228363037
13.697110176086426 9.463411331176758 0.7606121897697449
13.727669715881348 9.36091136932373 0.7645158171653748
13.757489204406738 9.258390426635742 0.7684184312820435
13.796420097351074 9.162397384643555 0.7702741026878357
13.834692001342773 9.066272735595703 0.7721259593963623
13.871477127075195 8.969486236572266 0.7741447687149048
13.907598495483398 8.872587203979492 0.7761603593826294
13.938883781433105 8.772957801818848 0.7790274620056152
13.992071151733398 8.687308311462402 0.777275800704956
14.032129287719727 8.593615531921387 0.7780827879905701
14.063976287841797 8.495171546936035 0.7804264426231384
14.104454040527344 8.402206420898438 0.7808830738067627
14.140924453735352 8.307064056396484 0.7820212244987488
14.180169105529785 8.213764190673828 0.7824692726135254
14.218801498413086 8.120293617248535 0.7829127907752991
14.31090259552002 8.05710506439209 0.7725329399108887
14.401897430419922 7.992611885070801 0.7623067498207092
14.963652610778809 8.184955596923828 0.658348798751831
15.114651679992676 8.147723197937012 0.6363277435302734
15.961700439453125 8.47864055633545 0.47653666138648987
19.16594696044922 0.7862163186073303 0.10544857382774353
15.739764213562012 0.5489266514778137 0.7350660562515259
12.833041191101074 -0.6552004814147949 1.2448118925094604
12.866752624511719 -0.7360810041427612 1.2359938621520996
12.873459815979004 -0.8157239556312561 1.2321114540100098
16.077945709228516 -1.6145213842391968 0.6116721630096436
16.119152069091797 -1.7186172008514404 0.5998063683509827
15.99754810333252 -1.8049932718276978 0.6185047626495361
15.943818092346191 -1.8980761766433716 0.6243303418159485
15.882726669311523 -1.989715814590454 0.6314582228660583
15.822087287902832 -2.080807685852051 0.6384159326553345
15.91184139251709 -2.1920182704925537 0.6167560815811157
15.865605354309082 -2.2849409580230713 0.62076336145401
15.96363639831543 -2.399139642715454 0.5972189903259277
15.806476593017578 -2.4748082160949707 0.6221423745155334
16.387468338012695 -2.7722318172454834 0.5006532073020935
16.367815017700195 -2.872342824935913 0.49886494874954224
16.239269256591797 -2.952634811401367 0.5178667902946472
16.190513610839844 -3.046541213989258 0.5214836001396179
16.22223663330078 -3.155721426010132 0.5094972848892212
16.154970169067383 -3.245669364929199 0.5164703130722046
16.189191818237305 -3.356051206588745 0.5037293434143066
16.1035213470459 -3.441518783569336 0.5140696167945862
16.300474166870117 -3.5883681774139404 0.46944984793663025
16.14647674560547 -3.658529758453369 0.4928460717201233
16.15394401550293 -3.764619827270508 0.48473966121673584
16.05657386779785 -3.8460001945495605 0.4969836175441742
16.294095993041992 -5.530136585235596 0.3305407166481018
16.165712356567383 -5.59751033782959 0.34743672609329224
16.23805809020996 -5.734475135803223 0.323375403881073
16.2363338470459 -5.846260070800781 0.3142203092575073
16.26979637145996 -5.971436023712158 0.29768380522727966
16.29220962524414 -6.0934600830078125 0.28321462869644165
16.11370277404785 -6.139774322509766 0.3100161552429199
16.17142105102539 -6.275777816772461 0.28797051310539246
16.451250076293945 -7.333415508270264 0.14113189280033112
16.406396865844727 -7.434574127197266 0.13873903453350067
16.35824966430664 -7.534228324890137 0.13692305982112885
16.24192237854004 -7.601951599121094 0.14961567521095276
12.642295837402344 12.864574432373047 0.4747675657272339
12.680280685424805 12.746301651000977 0.4832322299480438
12.705410957336426 12.616246223449707 0.49463364481925964
12.653493881225586 12.41186809539795 0.5247067809104919
12.749507904052734 12.35391616821289 0.5181347131729126
13.098567962646484 12.537713050842285 0.4499448537826538
13.058177947998047 12.346848487854004 0.4765514135360718
12.798595428466797 11.953916549682617 0.5554870367050171
12.852471351623535 11.857839584350586 0.5584145188331604
12.906377792358398 11.762211799621582 0.5611628293991089
12.955937385559082 11.663074493408203 0.5647729635238647
12.998880386352539 11.558533668518066 0.569767415523529
12.972960472106934 11.394109725952148 0.5907359719276428
13.028833389282227 11.30272102355957 0.5922577977180481
13.102019309997559 11.226452827453613 0.5896010994911194
13.12514877319336 11.107721328735352 0.5984137654304504
13.165453910827637 11.004284858703613 0.6030513048171997
13.193593978881836 10.891365051269531 0.6102978587150574
13.226188659667969 10.782868385314941 0.6163254380226135
13.270992279052734 10.684881210327148 0.6193886995315552
13.316633224487305 10.587973594665527 0.6220988035202026
13.334481239318848 10.469619750976562 0.6309127807617188
13.38250732421875 10.375580787658691 0.6327449679374695
13.418937683105469 10.272964477539062 0.6370180249214172
13.446760177612305 10.164351463317871 0.6430366635322571
13.484015464782715 10.063438415527344 0.6467814445495605
13.537978172302246 9.975299835205078 0.6466739177703857
13.561909675598145 9.865443229675293 0.6530380249023438
13.59060287475586 9.759688377380371 0.6581766605377197
13.641803741455078 9.670464515686035 0.6582306027412415
13.660158157348633 9.558398246765137 0.6652942895889282
13.700333595275879 9.462135314941406 0.6674458980560303
13.741472244262695 9.366846084594727 0.6692424416542053
14.029439926147461 9.437918663024902 0.6177982687950134
14.069462776184082 9.340267181396484 0.6197314858436584
14.103052139282227 9.238701820373535 0.6228923797607422
14.140887260437012 9.140280723571777 0.6249948143959045
14.178875923156738 9.04227066040039 0.626917839050293
14.009578704833984 8.814123153686523 0.6725391149520874
13.968501091003418 8.669378280639648 0.6907026767730713
14.020201683044434 8.583036422729492 0.6891225576400757
14.061258316040039 8.490276336669922 0.6896539926528931
14.10001277923584 8.39632797241211 0.690533459186554
14.144087791442871 8.305709838867188 0.6901716589927673
14.174802780151367 8.207468032836914 0.692457377910614
14.207411766052246 8.11062240600586 0.694209635257721
14.280536651611328 8.036855697631836 0.6874600648880005
14.344680786132812 7.957719802856445 0.6824690103530884
14.720105171203613 8.048563003540039 0.6134679913520813
15.154332160949707 8.16590690612793 0.5326690673828125
14.53496265411377 7.603936672210693 0.6750063300132751
15.738665580749512 0.5465046167373657 0.6471198797225952
12.871817588806152 -0.6592732667922974 1.1653765439987183
12.873098373413086 -0.738539457321167 1.1625617742538452
12.874869346618652 -0.8179101347923279 1.1595571041107178
15.989872932434082 -1.608099341392517 0.5381240248680115
16.00469207763672 -1.7088414430618286 0.5311017036437988
16.009119033813477 -1.8087266683578491 0.5259681344032288
15.991473197937012 -1.9061778783798218 0.5250038504600525
15.985897064208984 -2.005070686340332 0.5215743184089661
15.770425796508789 -2.0764307975769043 0.558973491191864
15.80854320526123 -2.1802144050598145 0.5468282699584961
15.89553165435791 -2.291686534881592 0.524972677230835
15.805049896240234 -2.3777427673339844 0.5377238392829895
15.904213905334473 -2.4925551414489746 0.5131746530532837
15.821366310119629 -2.5791537761688232 0.5242283344268799
16.37880516052246 -2.77327299118042 0.4090765118598938
16.291532516479492 -2.9646453857421875 0.4148811995983124
16.1973819732666 -3.050339460372925 0.42763522267341614
16.237688064575195 -3.161243200302124 0.4136454164981842
16.098251342773438 -3.2367844581604004 0.43522509932518005
16.11227798461914 -3.3426265716552734 0.42620864510536194
16.133289337158203 -3.450406074523926 0.41565221548080444
16.27147102355957 -3.584533452987671 0.3815091550350189
16.088911056518555 -3.6480257511138916 0.4113920331001282
16.072505950927734 -3.748187303543091 0.4079214334487915
16.21942901611328 -5.507525444030762 0.24933969974517822
16.155237197875977 -5.596618175506592 0.253391832113266
16.159013748168945 -5.709311008453369 0.24308548867702484
16.18877410888672 -5.831903457641602 0.22713707387447357
16.164226531982422 -5.935469627380371 0.22245319187641144
16.18954086303711 -6.057859420776367 0.2070688009262085
16.098474502563477 -6.136771202087402 0.21620197594165802
16.120433807373047 -6.258808612823486 0.20119786262512207
12.676786422729492 12.890432357788086 0.3663572669029236
12.676066398620605 12.732943534851074 0.3850966691970825
12.647358894348145 12.54960823059082 0.41061311960220337
12.708233833312988 12.456658363342285 0.4129788279533386
12.683625221252441 12.28128719329834 0.43673235177993774
13.09816837310791 12.528410911560059 0.349909245967865
13.354565620422363 12.618160247802734 0.3033241629600525
12.801959037780762 11.948526382446289 0.45790672302246094
12.848567962646484 11.845781326293945 0.4627583920955658
12.903127670288086 11.750864028930664 0.46546199917793274
12.948232650756836 11.64782428741455 0.47030535340309143
12.99182415008545 11.54401683807373 0.47532427310943604
13.035372734069824 11.44076156616211 0.4801611304283142
13.052128791809082 11.314846992492676 0.4912627041339874
13.102208137512207 11.21859359741211 0.49412551522254944
13.119301795959473 11.094827651977539 0.5046921968460083
13.166328430175781 10.997135162353516 0.507908046245575
13.202787399291992 10.891142845153809 0.513452410697937
13.223191261291504 10.772685050964355 0.522585928440094
13.27099895477295 10.677205085754395 0.52507483959198
13.311203956604004 10.576034545898438 0.5291765332221985
13.356085777282715 10.479022026062012 0.5320165157318115
13.386284828186035 10.371007919311523 0.5380910038948059
13.414880752563477 10.262418746948242 0.5443450808525085
13.445008277893066 10.155647277832031 0.5500583052635193
13.489313125610352 10.060064315795898 0.5523465275764465
13.524238586425781 9.957901954650879 0.5566142797470093
13.564786911010742 9.860316276550293 0.559436023235321
13.605446815490723 9.763177871704102 0.5620741248130798
13.590051651000977 9.626675605773926 0.5771713256835938
13.686339378356934 9.569644927978516 0.5669777393341064
13.659404754638672 9.426864624023438 0.5842517614364624
13.968546867370605 9.514583587646484 0.5264538526535034
14.031147956848145 9.43203353881836 0.5236179232597351
13.819558143615723 9.167459487915039 0.5812700986862183
13.84469985961914 9.062602996826172 0.5862424969673157
13.874860763549805 8.961518287658691 0.5899455547332764
13.933328628540039 8.878902435302734 0.5872963070869446
14.198588371276855 8.926252365112305 0.5394336581230164
14.01452350616455 8.69127368927002 0.5894196629524231
14.020212173461914 8.576421737670898 0.5978354811668396
14.063751220703125 8.485198020935059 0.5978901982307434
14.105853080749512 8.393258094787598 0.5981216430664062
13.98962688446045 8.208542823791504 0.6322136521339417
14.206132888793945 8.219125747680664 0.5947436094284058
14.241376876831055 8.123564720153809 0.5960516929626465
14.284552574157715 8.032698631286621 0.5955325365066528
14.356386184692383 7.957818031311035 0.5888025164604187
14.674585342407227 8.01719856262207 0.5298326015472412
15.14810562133789 8.155949592590332 0.4382634460926056
15.187021255493164 8.057367324829102 0.43854326009750366
15.18260669708252 7.936289310455322 0.44778263568878174
15.734176635742188 0.5412254333496094 0.5596186518669128
12.845545768737793 -0.741296112537384 1.095526933670044
12.866865158081055 -0.8217459321022034 1.08861243724823
15.94521713256836 -1.7077211141586304 0.4523933231830597
15.976913452148438 -1.8103315830230713 0.4417273700237274
15.997235298156738 -1.9121185541152954 0.4331951439380646
15.92251205444336 -2.0023670196533203 0.44357919692993164
15.721855163574219 -2.0752339363098145 0.47916415333747864
15.702592849731445 -2.170809030532837 0.4782693684101105
16.007915496826172 -2.3131725788116455 0.4118925631046295
15.810698509216309 -2.3838393688201904 0.4465601444244385
15.751770973205566 -2.4739177227020264 0.45328691601753235
15.71265983581543 -2.5666825771331787 0.4559136927127838
16.339139938354492 -2.7719881534576416 0.3235135078430176
16.057645797729492 -3.029421329498291 0.3632062077522278
16.154787063598633 -3.1505374908447266 0.3373120427131653
16.13184928894043 -3.248972177505493 0.33577045798301697
16.113109588623047 -3.348242998123169 0.33324745297431946
16.338228225708008 -3.4997432231903076 0.2805226147174835
16.110177993774414 -3.554487466812134 0.32071971893310547
16.114412307739258 -3.6592962741851807 0.313071072101593
16.032997131347656 -3.7444605827331543 0.3229734003543854
16.237688064575195 -5.631087779998779 0.13896290957927704
16.207931518554688 -5.732522487640381 0.135604590177536
16.19413185119629 -5.83978796005249 0.1286551058292389
16.201698303222656 -5.955212593078613 0.11690996587276459
16.12311553955078 -6.039000034332275 0.12374522536993027
16.114608764648438 -6.148938179016113 0.11519567668437958
12.676441192626953 12.760193824768066 0.26507648825645447
12.71431827545166 12.642716407775879 0.2740236520767212
12.645353317260742 12.421257019042969 0.31080928444862366
12.64823055267334 12.27298355102539 0.32825255393981934
12.739175796508789 12.210832595825195 0.3224515914916992
12.84838581085205 12.165590286254883 0.31183570623397827
12.845542907714844 12.014739990234375 0.330016553401947
12.87671184539795 11.89706039428711 0.339150607585907
12.925071716308594 11.796010971069336 0.3436625003814697
12.967568397521973 11.690206527709961 0.34946537017822266
13.000450134277344 11.576482772827148 0.3574863374233246
13.047185897827148 11.475773811340332 0.36180350184440613
13.085017204284668 11.36783504486084 0.3681546449661255
13.110084533691406 11.249624252319336 0.3774693012237549
13.172430992126465 11.163933753967285 0.37732818722724915
13.19051742553711 11.041316986083984 0.3879395127296448
13.216687202453613 10.926411628723145 0.3963263928890228
13.243468284606934 10.81284236907959 0.4043425917625427
13.26017951965332 10.6919527053833 0.414588987827301
13.29281997680664 10.584729194641113 0.42074891924858093
13.330827713012695 10.482362747192383 0.42541924118995667
13.366527557373047 10.37872314453125 0.4304594397544861
13.40068244934082 10.274438858032227 0.4356837272644043
13.433279037475586 10.16953182220459 0.4410928189754486
13.475325584411621 10.072256088256836 0.4440775215625763
13.513525009155273 9.972512245178223 0.4478045105934143
13.551801681518555 9.873255729675293 0.4513419568538666
13.58857536315918 9.773327827453613 0.45506274700164795
13.635848045349121 9.681280136108398 0.4561662971973419
13.688136100769043 9.592966079711914 0.4559559226036072
13.808526992797852 9.551872253417969 0.43984535336494446
14.129316329956055 9.646464347839355 0.3774997889995575
13.77558422088623 9.281898498535156 0.47044792771339417
13.835128784179688 9.199419021606445 0.4679722785949707
13.881860733032227 9.108473777770996 0.46829867362976074
13.91645336151123 9.009824752807617 0.4712444841861725
13.905658721923828 8.88254165649414 0.48431795835494995
13.95200252532959 8.792384147644043 0.4842607080936432
14.378146171569824 8.938445091247559 0.39855650067329407
14.012797355651855 8.592878341674805 0.4908938407897949
14.04635238647461 8.495598793029785 0.49326759576797485
14.086834907531738 8.402758598327637 0.49394530057907104
14.135171890258789 8.314717292785645 0.4927363395690918
14.190606117248535 8.230830192565918 0.4898253381252289
14.210586547851562 8.1265869140625 0.4946322739124298
14.27944278717041 8.05037784576416 0.48850342631340027
14.29725170135498 7.94548225402832 0.4934934377670288
14.740653038024902 8.07418155670166 0.4050435423851013
14.924297332763672 8.056397438049316 0.3737170398235321
15.124737739562988 8.045419692993164 0.33875852823257446
15.734593391418457 0.5589192509651184 0.45706048607826233
12.870064735412598 -0.6485849022865295 1.0096254348754883
12.859636306762695 -0.7271702289581299 1.0091403722763062
12.859485626220703 -0.8063287734985352 1.0064573287963867
16.065185546875 -1.602753758430481 0.327957421541214
15.99422550201416 -1.694846272468567 0.3383018970489502
15.940268516540527 -1.7880977392196655 0.345045268535614
15.81281852722168 -1.8721145391464233 0.3668830394744873
15.946416854858398 -1.9872288703918457 0.33462128043174744
15.756736755371094 -2.0618529319763184 0.3691732585430145
16.04031753540039 -2.199164867401123 0.30544641613960266
15.769164085388184 -2.2606561183929443 0.3567650318145752
15.749735832214355 -2.3565971851348877 0.35569897294044495
15.749074935913086 -2.4554057121276855 0.35059797763824463
15.664652824401855 -2.5408098697662354 0.36286666989326477
15.611652374267578 -2.6306450366973877 0.3684842586517334
16.059785842895508 -2.80763840675354 0.2689421772956848
15.9693603515625 -2.9942946434020996 0.2760508060455322
16.002172470092773 -3.1022391319274902 0.26300185918807983
16.058258056640625 -3.215508460998535 0.24487291276454926
16.06368637084961 -3.319279909133911 0.2372751533985138
16.057907104492188 -3.4209964275360107 0.2319057434797287
16.07634735107422 -3.5282270908355713 0.22125282883644104
16.06446647644043 -3.6291263103485107 0.21689282357692719
16.035737991333008 -3.7262470722198486 0.21598947048187256
12.64961051940918 12.569644927978516 0.17939884960651398
12.637060165405273 12.404501914978027 0.20202131569385529
12.647638320922852 12.263901710510254 0.2179892510175705
12.98875904083252 11.845952033996582 0.2171662151813507
13.030113220214844 11.738483428955078 0.2235831320285797
13.061841011047363 11.62312126159668 0.23229087889194489
13.08232593536377 11.498737335205078 0.24367442727088928
13.115862846374512 11.386765480041504 0.2514268457889557
13.14330768585205 11.270339965820312 0.2605181336402893
13.184800148010254 11.166691780090332 0.26578107476234436
13.190888404846191 11.033988952636719 0.27985188364982605
13.224603652954102 10.925384521484375 0.28664618730545044
13.2696533203125 10.82670783996582 0.29037240147590637
13.301763534545898 10.718035697937012 0.2971636652946472
13.336114883422852 10.611818313598633 0.3031862676143646
13.36966609954834 10.505581855773926 0.3092077076435089
13.409398078918457 10.404744148254395 0.3134985566139221
13.445280075073242 10.301426887512207 0.31855541467666626
13.476490020751953 10.195097923278809 0.32457152009010315
13.514765739440918 10.094643592834473 0.328662633895874
13.54915714263916 9.991772651672363 0.3335210382938385
13.582799911499023 9.888858795166016 0.33837759494781494
13.616488456726074 9.786476135253906 0.3430396020412445
13.655036926269531 9.68802547454834 0.34634989500045776
13.70012378692627 9.594535827636719 0.34792155027389526
13.733280181884766 9.493042945861816 0.3521899878978729
13.782757759094238 9.280055046081543 0.36419832706451416
13.823479652404785 9.185040473937988 0.3661435842514038
13.86191463470459 9.088797569274902 0.36847123503685
13.892276763916016 8.987629890441895 0.37253716588020325
13.947555541992188 8.902792930603027 0.37059932947158813
13.959148406982422 8.79042911529541 0.378726601600647
14.00905704498291 8.702588081359863 0.37774768471717834
14.039175987243652 8.602673530578613 0.3812218904495239
14.072795867919922 8.50525188446045 0.3837243318557739
14.123444557189941 8.418286323547363 0.38214701414108276
14.169327735900879 8.328532218933105 0.38153403997421265
14.209548950195312 8.235578536987305 0.38208118081092834
14.264493942260742 8.151202201843262 0.3791232407093048
14.384881019592285 7.9880194664001465 0.3704569637775421
14.452981948852539 7.9104838371276855 0.36416131258010864
15.738582611083984 0.554188072681427 0.35602447390556335
12.883930206298828 -0.653419017791748 0.9245753884315491
12.86076831817627 -0.7313656210899353 0.9268001317977905
12.846900939941406 -0.8096700310707092 0.9269701242446899
16.148488998413086 -1.61607825756073 0.2072514146566391
16.00551414489746 -1.7010239362716675 0.2332615703344345
15.829063415527344 -1.7805627584457397 0.266344279050827
15.769804000854492 -1.871955156326294 0.27441301941871643
15.889612197875977 -1.9851218461990356 0.24415960907936096
15.82335090637207 -2.0755348205566406 0.2534753978252411
16.01630973815918 -2.2008960247039795 0.20720325410366058
15.92266845703125 -2.287672996520996 0.22212029993534088
15.813092231750488 -2.3710668087005615 0.24038287997245789
15.752388954162598 -2.460904598236084 0.2480708509683609
15.933514595031738 -2.589465618133545 0.20356857776641846
16.059629440307617 -2.711225986480713 0.1706695556640625
16.040319442749023 -2.809326171875 0.16897031664848328
16.14263153076172 -2.9294703006744385 0.14081057906150818
16.027782440185547 -3.010361909866333 0.15953151881694794
15.996086120605469 -3.106175661087036 0.16012917459011078
15.998335838317871 -3.2086386680603027 0.15321755409240723
16.000886917114258 -3.3114469051361084 0.14609289169311523
15.974081993103027 -3.4082887172698975 0.14523427188396454
12.620003700256348 12.387648582458496 0.10095413029193878
12.64321231842041 12.25951099395752 0.1139141395688057
13.775842666625977 9.647723197937012 0.2290918231010437
13.78998851776123 9.532408714294434 0.23829303681850433
13.804226875305176 9.294685363769531 0.25948813557624817
13.83769702911377 9.19466781616211 0.2633284032344818
13.85571002960205 9.084915161132812 0.2707492709159851
13.888532638549805 8.98539924621582 0.27438774704933167
13.947915077209473 8.903223991394043 0.2714485228061676
14.076346397399902 8.625673294067383 0.27375322580337524
14.126886367797852 8.538174629211426 0.2723817825317383
14.172672271728516 8.447867393493652 0.27200213074684143
14.217883110046387 8.357318878173828 0.27161645889282227
14.25997257232666 8.265055656433105 0.2718251645565033
14.28360366821289 8.162379264831543 0.27623042464256287
16.230985641479492 0.7714751958847046 0.1584242284297943
15.745828628540039 0.5549452900886536 0.25980329513549805
12.858670234680176 -0.7309778928756714 0.8497772216796875
12.845783233642578 -0.8093315958976746 0.8497864603996277
15.823508262634277 -1.97633695602417 0.16229033470153809
15.739919662475586 -2.0640721321105957 0.17575809359550476
15.810726165771484 -2.1721231937408447 0.1551486998796463
15.794721603393555 -2.268766403198242 0.1534958928823471
15.825467109680176 -2.3723912239074707 0.14139024913311005
15.90572738647461 -2.484316349029541 0.11817213147878647
15.771036148071289 -2.661985158920288 0.13664159178733826
13.771733283996582 9.265897750854492 0.1745775043964386
13.844993591308594 9.192643165588379 0.1685621589422226
13.876935958862305 9.092005729675293 0.17275215685367584
13.897479057312012 8.984410285949707 0.17959782481193542
13.937858581542969 8.890067100524902 0.1813306361436844
13.972635269165039 8.792433738708496 0.18428723514080048
14.063021659851074 8.259811401367188 0.21687915921211243
15.742112159729004 0.5497073531150818 0.1713465005159378
12.851913452148438 -0.7349153757095337 0.778165340423584
12.84874439239502 -0.8138408660888672 0.7760492563247681
15.653429985046387 -1.8627715110778809 0.11472747474908829
15.663524627685547 -1.9615192413330078 0.10765422135591507
15.630424499511719 -2.0548720359802246 0.11017917841672897
15.648005485534668 -2.154945135116577 0.1011357307434082
12.853202819824219 -0.7201419472694397 0.698217511177063
12.854976654052734 -0.799375593662262 0.694976806640625
12.84443473815918 -0.7260050177574158 0.6172971725463867
12.871414184570312 -0.8067688941955566 0.6080723404884338
12.839117050170898 -0.7231253385543823 0.538099467754364
12.852476119995117 -0.802997350692749 0.5319657921791077
12.83325481414795 -0.7249016165733337 0.4682040810585022
12.84172534942627 -0.8044347763061523 0.4631720185279846
12.835801124572754 -0.7147353887557983 0.38937896490097046
12.83946704864502 -0.7939748167991638 0.38549351692199707
12.831559181213379 -0.7162907719612122 0.30444929003715515
12.8390531539917 -0.7957426309585571 0.2995051145553589
12.833589553833008 -0.7138575315475464 0.22497344017028809
12.873867988586426 -0.7953397035598755 0.21122945845127106
12.81782054901123 -0.7173600196838379 0.15941296517848969
12.885944366455078 -0.8004843592643738 0.13785479962825775
13.591708183288574 13.773102760314941 0.15211814641952515
12.663623809814453 12.739070892333984 1.2910443544387817
12.679741859436035 12.666751861572266 1.2950471639633179
12.76915454864502 12.75638484954834 0.37546470761299133
12.69727611541748 12.59622573852539 1.2987451553344727
12.799362182617188 12.697880744934082 0.3779880404472351
12.723310470581055 12.534436225891113 1.3009154796600342
12.702969551086426 12.514861106872559 0.4112491309642792
12.738036155700684 12.466166496276855 1.3046576976776123
12.726563453674316 12.455464363098145 0.4146767854690552
12.765275001525879 12.406082153320312 1.306520700454712
12.783327102661133 12.337348937988281 1.3099122047424316
12.808220863342285 12.275504112243652 1.3120795488357544
31.047319412231445 29.54522132873535 0.33289656043052673
12.83316421508789 12.209689140319824 1.3145076036453247
31.079322814941406 29.369924545288086 0.33791354298591614
12.848471641540527 12.1392822265625 1.3182052373886108
31.03775978088379 29.12651824951172 0.3503132164478302
12.8670654296875 12.072312355041504 1.321290135383606
12.899033546447754 12.103212356567383 0.42977944016456604
32.36538314819336 30.159381866455078 2.3988115787506104
31.060546875 28.944955825805664 0.35607752203941345
12.885346412658691 12.00535774230957 1.3243756294250488
12.926542282104492 12.044705390930176 0.43229928612709045
32.42476272583008 30.014568328857422 2.3980274200439453
31.117685317993164 28.80626678466797 0.35788974165916443
12.904887199401855 11.944046020507812 1.3268921375274658
12.9517183303833 11.98841381072998 0.4348628520965576
32.481380462646484 29.857261657714844 2.3973772525787354
31.214113235473633 28.694133758544922 0.35607802867889404
12.931708335876465 11.885518074035645 1.3284423351287842
12.962410926818848 11.914822578430176 0.4412340223789215
32.518836975097656 29.68307113647461 2.397350311279297
31.302772521972656 28.57495880126953 0.3549986779689789
12.950950622558594 11.820257186889648 1.3312195539474487
12.983667373657227 11.851262092590332 0.4450361430644989
32.525848388671875 29.482135772705078 2.3983278274536133
12.97172737121582 11.756671905517578 1.3336896896362305
12.999163627624512 11.78273868560791 0.45012298226356506
32.48912811279297 29.243059158325195 2.400754928588867
12.990379333496094 11.691426277160645 1.3364667892456055
13.027155876159668 11.725781440734863 0.45221060514450073
32.45246505737305 28.995603561401367 2.4032063484191895
13.012604713439941 11.625577926635742 1.3388899564743042
13.04958724975586 11.659933090209961 0.4559653401374817
32.459896087646484 28.79924774169922 2.4040799140930176
13.083344459533691 11.610013008117676 2.1984269618988037
13.039937019348145 11.568580627441406 1.340128779411316
13.075227737426758 11.601262092590332 0.4584791660308838
32.52135467529297 28.661731719970703 2.403050422668457
13.108573913574219 11.555041313171387 2.1988532543182373
13.053860664367676 11.503971099853516 1.343258023262024
13.094918251037598 11.541577339172363 0.4618956446647644
32.57783889770508 28.51021385192871 2.4022200107574463
13.126200675964355 11.489527702331543 2.2001609802246094
13.08069133758545 11.446919441223145 1.3444948196411133
13.110788345336914 11.474738121032715 0.46655285358428955
32.57024383544922 28.313520431518555 2.403470277786255
13.15095329284668 11.434502601623535 2.200585126876831
13.094069480895996 11.382342338562012 1.3476238250732422
13.135527610778809 11.419910430908203 0.46868130564689636
32.5836296081543 28.126203536987305 2.4040398597717285
13.168027877807617 11.368996620178223 2.201892614364624
13.114762306213379 11.320377349853516 1.349782943725586
13.15829086303711 11.35953140258789 0.4716208875179291
32.6188850402832 27.958656311035156 2.4038500785827637
13.192377090454102 11.309999465942383 2.2024552822113037
13.144603729248047 11.266478538513184 1.3504010438919067
13.180791854858398 11.299132347106934 0.4745602309703827
32.61529541015625 27.758808135986328 2.404937505722046
13.214579582214355 11.249353408813477 2.203202962875366
13.159113883972168 11.199646949768066 1.3534835577011108
13.199281692504883 11.235520362854004 0.47835734486579895
32.62788772583008 27.573843002319336 2.4054555892944336
13.230802536010742 11.183863639831543 2.2045094966888428
13.18089771270752 11.139253616333008 1.355332851409912
13.219369888305664 11.173505783081055 0.48172464966773987
32.632877349853516 27.373804092407227 2.40624737739563
13.258219718933105 11.12409782409668 2.20483660697937
13.210046768188477 11.08132553100586 1.3562090396881104
13.243000030517578 11.110760688781738 0.48461565375328064
32.65322494506836 27.19738006591797 2.4064533710479736
13.279617309570312 11.063406944274902 2.2055823802948
13.225595474243164 11.016115188598633 1.3589824438095093
13.270110130310059 11.055034637451172 0.4862616956233978
32.65155792236328 27.003629684448242 2.4073705673217773
13.300751686096191 11.002699851989746 2.2063276767730713
13.244675636291504 10.954094886779785 1.3611384630203247
13.287504196166992 10.991405487060547 0.49005743861198425
32.66438674926758 26.822912216186523 2.407777786254883
13.317771911621094 10.93881893157959 2.2074460983276367
13.265401840209961 10.893648147583008 1.3629854917526245
13.310324668884277 10.932476997375488 0.49256226420402527
32.67053985595703 26.637693405151367 2.4083828926086426
13.340307235717773 10.879677772521973 2.208003282546997
13.285865783691406 10.8331880569458 1.3648312091827393
13.327173233032227 10.868856430053711 0.49635714292526245
32.668033599853516 26.446475982666016 2.409252643585205
13.362590789794922 10.820512771606445 2.208559513092041
13.311858177185059 10.777403831481934 1.3657488822937012
13.35139274597168 10.811448097229004 0.4984300434589386
32.68601989746094 26.272817611694336 2.4094126224517822
13.388510704040527 10.764448165893555 2.208740234375
13.327954292297363 10.713796615600586 1.368212342262268
13.36002254486084 10.741659164428711 0.5039469003677368
32.705787658691406 26.092090606689453 2.4095263481140137
13.404373168945312 10.69666576385498 2.2099974155426025
13.347556114196777 10.649426460266113 1.3703187704086304
13.387503623962402 10.683429718017578 0.5055410265922546
32.71819305419922 25.915733337402344 2.4098241329193115
13.420023918151855 10.632801055908203 2.2111144065856934
13.368915557861328 10.590469360351562 1.3718531131744385
13.405174255371094 10.621367454528809 0.5089040994644165
32.72779846191406 25.738059997558594 2.410191059112549
13.43735122680664 10.57049560546875 2.2120437622070312
13.393928527832031 10.534558296203613 1.3727668523788452
13.424509048461914 10.560833930969238 0.5118356347084045
32.73408889770508 25.567882537841797 2.410612106323242
13.462401390075684 10.518220901489258 2.212080955505371
13.411029815673828 10.476362228393555 1.3746565580368042
13.443707466125488 10.504154205322266 0.5143836736679077
32.74007797241211 25.38918113708496 2.41105318069458
13.477254867553711 10.454376220703125 2.2131974697113037
13.435582160949707 10.420384407043457 1.3755680322647095
13.464488983154297 10.445114135742188 0.516883373260498
32.757102966308594 25.21988868713379 2.4111039638519287
13.505653381347656 10.401201248168945 2.212996482849121
13.455976486206055 10.36133861541748 1.3770991563796997
13.492825508117676 10.392065048217773 0.5176562070846558
32.75348663330078 25.035614013671875 2.4118173122406006
13.521963119506836 10.338871002197266 2.213923931121826
13.470209121704102 10.297754287719727 1.3795605897903442
13.509218215942383 10.329974174499512 0.5210171341896057
32.75895309448242 24.85922622680664 2.4122061729431152
13.545945167541504 10.282583236694336 2.214097261428833
13.49404525756836 10.24169635772705 1.380469560623169
13.523384094238281 10.266403198242188 0.5248097777366638
32.775550842285156 24.69212532043457 2.4122018814086914
13.57168960571289 10.227753639221191 2.214080810546875
13.511707305908203 10.181118965148926 1.3823096752166748
13.547101974487305 10.2102689743042 0.5264431238174438
32.77737808227539 24.514734268188477 2.4126651287078857
13.5892333984375 10.166894912719727 2.214818000793457
13.533086776733398 10.12351131439209 1.383527398109436
13.566650390625 10.151144027709961 0.528939425945282
32.71416091918945 24.28996467590332 2.4152612686157227
13.606515884399414 10.106039047241211 2.21555495262146
13.55024528503418 10.062923431396484 1.3853660821914673
13.593859672546387 10.097877502441406 0.5297061800956726
32.627811431884766 24.04096221923828 2.4186227321624756
13.627294540405273 10.044286727905273 2.2160544395446777
13.576871871948242 10.00585651397705 1.3859126567840576
13.612690925598145 10.034863471984863 0.5325846672058105
32.43305587768555 23.723356246948242 2.425523042678833
13.642043113708496 9.98195743560791 2.216979742050171
13.599532127380371 9.949638366699219 1.3868167400360107
13.637466430664062 9.980040550231934 0.5337814688682556
32.42658615112305 23.545427322387695 2.4261655807495117
13.668623924255371 9.928433418273926 2.216768980026245
