# .PCD v0.7 - Point Cloud Data file format
VERSION 0.7
FIELDS x y z
SIZE 4 4 4
TYPE F F F
COUNT 1 1 1
WIDTH 851
HEIGHT 1
VIEWPOINT 0 0 0 1 0 0 0
POINTS 851
DATA ascii
15.804534912109375 -2.4745044708251953 0.622512698173523
16.093225479125977 -2.6209769248962402 0.562271237373352
16.374589920043945 -2.8735313415527344 0.4975666105747223
16.252803802490234 -2.9550952911376953 0.5152682662010193
16.183753967285156 -3.04526948928833 0.5227835774421692
16.25117301940918 -3.161349296569824 0.503921627998352
16.159786224365234 -3.2466366291046143 0.515540599822998
16.161291122436523 -3.3502683639526367 0.5091264843940735
16.095834732055664 -3.4398763179779053 0.51555997133255
16.322542190551758 -3.5932257175445557 0.4651634693145752
16.138811111450195 -3.6567931175231934 0.49433794617652893
16.14533233642578 -3.762613296508789 0.4864192306995392
16.085235595703125 -3.8528647422790527 0.4913807511329651
16.305253982543945 -5.533923149108887 0.32827726006507874
16.13787269592285 -5.587871074676514 0.353099524974823
16.24268913269043 -5.736109733581543 0.322430819272995
16.263126373291016 -5.855906963348389 0.30873924493789673
16.2310791015625 -5.957226753234863 0.30562713742256165
16.245304107666016 -6.075917720794678 0.2928662598133087
16.143064498901367 -6.150960922241211 0.30395641922950745
16.215360641479492 -6.29282808303833 0.2788749039173126
16.411762237548828 -7.437005043029785 0.1375953108072281
16.37518882751465 -7.5420308113098145 0.1333000808954239
16.231252670288086 -7.596958637237549 0.15190520882606506
12.636773109436035 12.858953475952148 0.4761482775211334
12.662914276123047 12.728843688964844 0.4875495731830597
12.693530082702637 12.604447364807129 0.4975709617137909
12.701305389404297 12.458771705627441 0.5129517912864685
12.721216201782227 12.326498985290527 0.5250529050827026
13.098567962646484 12.537713050842285 0.4499448537826538
13.075352668762207 12.363089561462402 0.4723964333534241
12.818748474121094 11.97274112701416 0.5506371259689331
12.869842529296875 11.873867988586426 0.5542553067207336
12.9165678024292 11.771500587463379 0.5587352514266968
12.954473495483398 11.66175651550293 0.5651200413703918
13.006239891052246 11.565077781677246 0.5680317282676697
12.996637344360352 11.414907455444336 0.5851786732673645
13.029577255249023 11.303366661071777 0.5920841097831726
13.076595306396484 11.204666137695312 0.5955120325088501
13.107110023498535 11.092452049255371 0.602588415145874
13.15109920501709 10.992283821105957 0.6063578128814697
13.204984664916992 10.900768280029297 0.6076861023902893
13.23763656616211 10.792202949523926 0.6137123107910156
13.274060249328613 10.687352180480957 0.6186914443969727
13.31432056427002 10.586134910583496 0.6226223111152649
13.33525562286377 10.47022819519043 0.630738377571106
13.373169898986816 10.368340492248535 0.6348403692245483
13.410338401794434 10.266379356384277 0.6389395594596863
13.437335014343262 10.1572265625 0.6451342105865479
13.492694854736328 10.069916725158691 0.6448575258255005
13.527674674987793 9.967706680297852 0.6489490866661072
13.552355766296387 9.858492851257324 0.6551393866539001
13.597000122070312 9.764283180236816 0.6567749977111816
13.644213676452637 9.672172546386719 0.6577047109603882
13.660964012145996 9.55896282196045 0.6651188731193542
13.70681381225586 9.4666109085083 0.6660419702529907
13.735777854919434 9.362963676452637 0.6704716682434082
14.022089004516602 9.43297290802002 0.6193793416023254
14.074384689331055 9.343533515930176 0.6186764240264893
14.113757133483887 9.24571418762207 0.6206056475639343
14.148326873779297 9.14509105682373 0.6234107613563538
14.188835144042969 9.048622131347656 0.6248044967651367
14.009578704833984 8.814123153686523 0.6725391149520874
13.976027488708496 8.674051284790039 0.6891158223152161
14.022720336914062 8.584578514099121 0.688593327999115
14.066313743591309 8.493330001831055 0.6885945200920105
14.105932235717773 8.399853706359863 0.689297080039978
14.151725769042969 8.310196876525879 0.688581109046936
14.174802780151367 8.207468032836914 0.692457377910614
14.218523979187012 8.116966247558594 0.6919092535972595
14.278820991516113 8.035890579223633 0.6878142356872559
14.346402168273926 7.958674907684326 0.6821145415306091
14.701108932495117 8.038174629211426 0.6173680424690247
15.132674217224121 8.154233932495117 0.5371038317680359
14.55501651763916 7.614429950714111 0.6709213852882385
15.734737396240234 0.546367883682251 0.6478657126426697
12.872798919677734 -0.6593233942985535 1.165188193321228
12.859371185302734 -0.7377532720565796 1.1651990413665771
12.862127304077148 -0.8171020150184631 1.1620076894760132
16.035791397094727 -1.6127136945724487 0.5292286276817322
15.9812593460083 -1.7063413858413696 0.5356470942497253
16.00033950805664 -1.8077352046966553 0.5276738405227661
15.992447853088379 -1.9062939882278442 0.5248140096664429
15.972258567810059 -2.0033609867095947 0.5242311358451843
15.788921356201172 -2.078864097595215 0.5553651452064514
15.761859893798828 -2.1737799644470215 0.5559496879577637
15.87512493133545 -2.2887461185455322 0.5289661884307861
15.801167488098145 -2.3771591186523438 0.5384847521781921
15.97695541381836 -2.5039496421813965 0.49889329075813293
15.765170097351074 -2.569997549057007 0.5352796912193298
16.387516021728516 -2.774747371673584 0.4073604643344879
16.291532516479492 -2.9646453857421875 0.4148811995983124
16.208959579467773 -3.052518367767334 0.42534253001213074
16.237688064575195 -3.161243200302124 0.4136454164981842
16.10594940185547 -3.2383317947387695 0.43369466066360474
16.107471466064453 -3.341629981994629 0.42716583609580994
16.114091873168945 -3.4463021755218506 0.4194834232330322
16.29447364807129 -3.589599132537842 0.3769085109233856
16.100399017333984 -3.6506292819976807 0.40909039974212646
16.08015251159668 -3.749969720840454 0.4063859283924103
16.14874839782715 -5.594370365142822 0.25475016236305237
16.135889053344727 -5.701143264770508 0.2479400485754013
16.187850952148438 -5.831570625305176 0.22733142971992493
16.173433303833008 -5.938849925994873 0.22050873935222626
16.1812744140625 -6.0547661781311035 0.20881982147693634
16.103055953979492 -6.138517379760742 0.2152288854122162
16.109458923339844 -6.254549503326416 0.20353563129901886
12.650568962097168 12.86376953125 0.37311914563179016
12.70869255065918 12.76572322845459 0.37672939896583557
12.669709205627441 12.571789741516113 0.40491339564323425
12.65131950378418 12.400860786437988 0.42741307616233826
12.6928129196167 12.290185928344727 0.4344145357608795
12.822303771972656 12.264492988586426 0.4191175103187561
13.369583129882812 12.632353782653809 0.2995765507221222
12.83432388305664 11.978740692138672 0.44987237453460693
12.863757133483887 11.85978889465332 0.459007203578949
12.903127670288086 11.750864028930664 0.46546199917793274
12.94896411895752 11.648482322692871 0.47012659907341003
12.99035358428955 11.542710304260254 0.47568196058273315
13.027978897094727 11.434270858764648 0.4819510877132416
13.04097843170166 11.305177688598633 0.49394914507865906
13.083528518676758 11.202594757080078 0.4986051619052887
13.099772453308105 11.078309059143066 0.5093532800674438
13.145943641662598 10.98010540008545 0.5127508044242859
13.19292163848877 10.883003234863281 0.5157854557037354
13.239968299865723 10.786356925964355 0.5186359286308289
13.27253246307373 10.678438186645508 0.5247154831886292
13.30504322052002 10.571138381958008 0.5306144952774048
13.355311393737793 10.478414535522461 0.5321964025497437
13.401057243347168 10.382455825805664 0.534672200679779
13.436755180358887 10.279156684875488 0.539304256439209
13.469338417053223 10.174029350280762 0.5444742441177368
13.500350952148438 10.068297386169434 0.5498232245445251
13.535326957702637 9.966068267822266 0.5540896654129028
13.573537826538086 9.866678237915039 0.5574513673782349
13.611040115356445 9.767192840576172 0.560810387134552
13.62857437133789 9.653969764709473 0.5685015320777893
13.702458381652832 9.58091926574707 0.5633631348609924
13.642406463623047 9.415131568908691 0.5880491137504578
13.948227882385254 9.500740051269531 0.5309770703315735
14.022170066833496 9.425997734069824 0.525609016418457
13.775306701660156 9.138096809387207 0.5910512804985046
13.818371772766113 9.045364379882812 0.5920421481132507
13.869905471801758 8.958316802978516 0.5910335183143616
13.927523612976074 8.875203132629395 0.5885665416717529
14.1885986328125 8.919970512390137 0.5416123867034912
14.061320304870605 8.720301628112793 0.5792469382286072
14.026922225952148 8.580528259277344 0.5963814854621887
14.065434455871582 8.486213684082031 0.5975265502929688
14.102473258972168 8.39124584197998 0.5988495349884033
13.976906776428223 8.20107650756836 0.6349447965621948
14.20783519744873 8.220109939575195 0.5943793654441833
14.225151062011719 8.11430549621582 0.5995151400566101
14.284552574157715 8.032698631286621 0.5955325365066528
14.374443054199219 7.967829704284668 0.5849699378013611
14.69615364074707 8.028985977172852 0.525267481803894
15.082319259643555 8.120519638061523 0.4521503150463104
15.239126205444336 8.0850191116333 0.42757344245910645
15.284539222717285 7.98958683013916 0.4263787865638733
15.736137390136719 0.5412931442260742 0.5592350959777832
12.855340003967285 -0.7418597340583801 1.0935900211334229
12.866865158081055 -0.8217459321022034 1.08861243724823
15.936439514160156 -1.7067822217941284 0.4541459083557129
15.960346221923828 -1.808456540107727 0.4450394809246063
16.002103805541992 -1.9126999378204346 0.4322202503681183
15.92251205444336 -2.0023670196533203 0.44357919692993164
15.73449420928955 -2.0769004821777344 0.4766264855861664
15.722994804382324 -2.173626661300659 0.47416695952415466
16.03703498840332 -2.3173766136169434 0.4060283601284027
15.81651782989502 -2.3847157955169678 0.44538626074790955
15.73045825958252 -2.4705729484558105 0.4575929641723633
15.709757804870605 -2.566208600997925 0.4565010070800781
16.045120239257812 -3.02705979347229 0.36575883626937866
16.157676696777344 -3.1511001586914062 0.3367227613925934
16.124160766601562 -3.247424364089966 0.33734309673309326
16.113109588623047 -3.348242998123169 0.33324745297431946
16.254819869995117 -3.4818878173828125 0.2976507544517517
16.09294319152832 -3.550687789916992 0.3242659270763397
16.097204208374023 -3.655390739440918 0.31661927700042725
16.035860061645508 -3.745129346847534 0.32238152623176575
15.957820892333984 -3.8303678035736084 0.33151188492774963
16.230281829833984 -5.628520488739014 0.14055795967578888
16.190378189086914 -5.726316928863525 0.13939499855041504
16.20427131652832 -5.843442916870117 0.12645946443080902
16.212736129760742 -5.959267616271973 0.1145131066441536
16.114856719970703 -6.035908222198486 0.12554408609867096
16.121015548706055 -6.151382923126221 0.11379572749137878
12.668821334838867 12.752524375915527 0.26710256934165955
12.724773406982422 12.653111457824707 0.27125945687294006
12.627823829650879 12.40403938293457 0.3154182732105255
12.64893627166748 12.27366828918457 0.3280681073665619
12.745561599731445 12.216952323913574 0.3207903504371643
13.010391235351562 12.318975448608398 0.2699258327484131
12.853438377380371 12.022124290466309 0.32798460125923157
12.87598991394043 11.896393775939941 0.3393353521823883
12.924345970153809 11.79534912109375 0.34384748339653015
12.96829891204834 11.690865516662598 0.34928062558174133
13.005587577819824 11.58105754852295 0.3561907410621643
13.050137519836426 11.47836971282959 0.36106300354003906
13.07982349395752 11.363323211669922 0.3694513440132141
13.127983093261719 11.264981269836426 0.3730210065841675
13.144693374633789 11.140427589416504 0.384189248085022
13.181475639343262 11.0337495803833 0.3901659846305847
13.21820068359375 10.927664756774902 0.3959554135799408
13.236618041992188 10.807249069213867 0.40601423382759094
13.247941017150879 10.682085037231445 0.41756221652030945
13.287440299987793 10.5804443359375 0.4220501482486725
13.340096473693848 10.48965072631836 0.4231872260570526
13.380497932434082 10.389569282531738 0.42710962891578674
13.403801918029785 10.276829719543457 0.43493902683258057
13.448163032531738 10.180798530578613 0.437553346157074
13.483196258544922 10.078137397766113 0.44221368432044983
13.515105247497559 9.973679542541504 0.44743141531944275
13.554977416992188 9.875568389892578 0.45059528946876526
13.584587097167969 9.77046012878418 0.4559963047504425
13.636648178100586 9.681849479675293 0.45597943663597107
13.673654556274414 9.582817077636719 0.4593200385570526
13.819029808044434 9.559137344360352 0.4374144375324249
14.109844207763672 9.633171081542969 0.38198983669281006
13.70715045928955 9.23579216003418 0.4861721694469452
13.825313568115234 9.192893028259277 0.47021979093551636
13.891716003417969 9.114940643310547 0.4660502076148987
13.924697875976562 9.01516342163086 0.46936944127082825
13.906486511230469 8.883070945739746 0.48413026332855225
13.945354461669922 8.788195610046387 0.48576250672340393
14.357291221618652 8.925480842590332 0.40325167775154114
14.014472007751465 8.593904495239258 0.4905182123184204
14.058959007263184 8.503223419189453 0.49044737219810486
14.093583106994629 8.406783103942871 0.4924403429031372
14.135171890258789 8.314717292785645 0.4927363395690918
14.189756393432617 8.230338096618652 0.49001359939575195
14.208881378173828 8.125612258911133 0.495009183883667
14.276877403259277 8.048931121826172 0.48906901478767395
14.300684928894043 7.947390556335449 0.4927389919757843
14.844870567321777 8.131261825561523 0.3822025656700134
14.894916534423828 8.04053783416748 0.3801388144493103
15.155080795288086 8.061559677124023 0.3321439325809479
15.731656074523926 0.5588149428367615 0.45765411853790283
12.893550872802734 -0.649769127368927 1.0048328638076782
12.851810455322266 -0.7267273664474487 1.0107392072677612
12.852641105651855 -0.8058993816375732 1.007857084274292
16.075908660888672 -1.6038237810134888 0.32574930787086487
15.9796142578125 -1.6932975053787231 0.3413144648075104
15.952924728393555 -1.7895176410675049 0.34243258833885193
15.859509468078613 -1.8776437044143677 0.35723042488098145
16.009599685668945 -1.9951037168502808 0.32154110074043274
15.783931732177734 -2.0654120445251465 0.3635351061820984
15.954920768737793 -2.18745493888855 0.323177307844162
15.787585258483887 -2.2632973194122314 0.3529341220855713
15.777824401855469 -2.3608009815216064 0.3498486578464508
15.740365982055664 -2.454047679901123 0.3524150252342224
15.620182991027832 -2.5335958003997803 0.37215858697891235
15.632896423339844 -2.634225368499756 0.36403772234916687
16.086795806884766 -2.812361240386963 0.26327893137931824
15.86933708190918 -2.8748252391815186 0.30305105447769165
16.003049850463867 -3.0006117820739746 0.26896291971206665
16.001211166381836 -3.102052688598633 0.26320475339889526
16.056339263916016 -3.2151238918304443 0.24527804553508759
16.038753509521484 -3.314127206802368 0.2425500899553299
16.06365203857422 -3.4222207069396973 0.23068776726722717
16.04287338256836 -3.5208799839019775 0.22836293280124664
16.066377639770508 -3.6295578479766846 0.21648617088794708
16.047183990478516 -3.7289066314697266 0.21354885399341583
12.651613235473633 12.726353645324707 0.15926006436347961
12.667716026306152 12.587636947631836 0.17445135116577148
12.64756965637207 12.414816856384277 0.199165940284729
12.639181137084961 12.25570011138916 0.2202744036912918
12.996736526489258 11.853226661682129 0.21506637334823608
13.030113220214844 11.738483428955078 0.2235831320285797
13.061841011047363 11.62312126159668 0.23229087889194489
13.088223457336426 11.503921508789062 0.2421453446149826
13.122532844543457 11.392557144165039 0.24970538914203644
13.156719207763672 11.281841278076172 0.2570737302303314
13.187047958374023 11.168594360351562 0.26520663499832153
13.198416709899902 11.04028606414795 0.27793624997138977
13.233683586120605 10.932886123657227 0.28434693813323975
13.278778076171875 10.83415412902832 0.28807199001312256
13.309405326843262 10.72419261932373 0.2952454686164856
13.339954376220703 10.614873886108398 0.30222684144973755
13.375839233398438 10.510432243347168 0.30767151713371277
13.419476509094238 10.412565231323242 0.31100109219551086
13.437491416931152 10.295458793640137 0.32047730684280396
13.475707054138184 10.19450569152832 0.32476359605789185
13.514765739440918 10.094643592834473 0.328662633895874
13.54915714263916 9.991772651672363 0.3335210382938385
13.58121395111084 9.887702941894531 0.33876293897628784
13.615692138671875 9.785902976989746 0.34323227405548096
13.655036926269531 9.68802547454834 0.34634989500045776
13.699320793151855 9.593972206115723 0.34811440110206604
13.74377155303955 9.500295639038086 0.34968113899230957
13.79171085357666 9.286083221435547 0.36207321286201477
13.83328628540039 9.191556930541992 0.36382386088371277
13.877503395080566 9.099019050598145 0.3647966682910919
13.892276763916016 8.987629890441895 0.37253716588020325
13.946728706359863 8.902264595031738 0.37079304456710815
13.973261833190918 8.799317359924316 0.3754335343837738
14.052391052246094 8.729508399963379 0.3676694333553314
14.045031547546387 8.60626220703125 0.37986451387405396
14.082870483398438 8.511341094970703 0.38139626383781433
14.128500938415527 8.421300888061523 0.38098254799842834
14.164254188537598 8.325550079345703 0.382699579000473
14.212095260620117 8.237053871154785 0.38149788975715637
14.262789726257324 8.150228500366211 0.379512220621109
14.339433670043945 7.962780475616455 0.38077402114868164
14.43319320678711 7.899652481079102 0.36864104866981506
15.736625671386719 0.5541191101074219 0.35643237829208374
12.857836723327637 -0.7311990261077881 0.927417516708374
12.866434097290039 -0.8109003305435181 0.9228513240814209
16.194244384765625 -1.6206560134887695 0.19753623008728027
16.04540252685547 -1.7052620649337769 0.22478166222572327
15.828089714050293 -1.7804534435272217 0.26655125617980957
15.75425910949707 -1.8701106309890747 0.27772653102874756
15.847870826721191 -1.9799081087112427 0.2530699372291565
15.824319839477539 -2.075662136077881 0.25326836109161377
15.987236022949219 -2.196901798248291 0.2134276181459427
15.947842597961426 -2.2912890911102295 0.21672245860099792
15.823734283447266 -2.372662305831909 0.2380976676940918
15.752388954162598 -2.460904598236084 0.2480708509683609
15.957651138305664 -2.5933873653411865 0.1983688324689865
16.04901885986328 -2.709435224533081 0.17295877635478973
16.075965881347656 -2.815568447113037 0.1612652987241745
16.15032958984375 -2.9308671951293945 0.1391436606645584
16.03835678100586 -3.012347459793091 0.1572379171848297
15.974964141845703 -3.10207462310791 0.16471871733665466
15.98491096496582 -3.205946683883667 0.15613995492458344
15.980774879455566 -3.3072855472564697 0.15047937631607056
15.964518547058105 -3.4062483310699463 0.1473238617181778
12.65165901184082 12.26770305633545 0.11156067252159119
13.775842666625977 9.647723197937012 0.2290918231010437
13.821429252624512 9.554144859313965 0.23054638504981995
13.804226875305176 9.294685363769531 0.25948813557624817
13.838513374328613 9.195209503173828 0.26312944293022156
13.827028274536133 9.066105842590332 0.2777155637741089
13.903342247009277 8.994982719421387 0.2708028554916382
13.939655303955078 8.897950172424316 0.27344101667404175
14.063815116882324 8.617992401123047 0.27674657106399536
14.118500709533691 8.533105850219727 0.2743784785270691
14.17519760131836 8.449373245239258 0.2714027464389801
14.212814331054688 8.354339599609375 0.27281585335731506
14.249801635742188 8.259159088134766 0.27422502636909485
14.288707733154297 8.16529655456543 0.2750299274921417
16.19582176208496 0.7698010206222534 0.16595806181430817
15.743873596191406 0.5548762679100037 0.2602223753929138
12.874008178710938 -0.6526468396186829 0.8491359353065491
12.850863456726074 -0.7305349111557007 0.8514686822891235
12.85261058807373 -0.809761106967926 0.8483055830001831
15.800237655639648 -1.9734327793121338 0.16739881038665771
15.748637199401855 -2.0652148723602295 0.17384138703346252
15.823309898376465 -2.1738510131835938 0.15237835049629211
15.807293891906738 -2.270571231842041 0.15072374045848846
15.838994026184082 -2.374418020248413 0.13840319216251373
15.893179893493652 -2.4823575019836426 0.12094733864068985
15.770071983337402 -2.661822557449341 0.13685539364814758
13.782292366027832 9.273003578186035 0.17192378640174866
13.845808982849121 9.193184852600098 0.16835790872573853
13.876935958862305 9.092005729675293 0.17275215685367584
13.897479057312012 8.984410285949707 0.17959782481193542
13.930432319641113 8.885329246520996 0.18317149579524994
13.940327644348145 8.772098541259766 0.1922687441110611
14.063865661621094 8.260308265686035 0.2166740596294403
15.734302520751953 0.5494335889816284 0.17306523025035858
12.852888107299805 -0.7349709868431091 0.7779485583305359
12.850693702697754 -0.8139640092849731 0.7756155729293823
15.655367851257324 -1.8630019426345825 0.11429174989461899
15.660622596740723 -1.9611560106277466 0.10830818116664886
15.63913345336914 -2.056015968322754 0.10821467638015747
12.844441413879395 -0.7196508646011353 0.7002201676368713
12.854976654052734 -0.799375593662262 0.694976806640625
12.848322868347168 -0.7262246608734131 0.6163833737373352
12.846152305603027 -0.8051864504814148 0.6140157580375671
12.849794387817383 -0.7237256169319153 0.5355227589607239
12.855386734008789 -0.8031789064407349 0.5312626957893372
12.841979026794434 -0.7253929972648621 0.4660502076148987
12.846570014953613 -0.8047375082969666 0.4619746804237366
12.838705062866211 -0.7148971557617188 0.38864418864250183
12.848176002502441 -0.7945135831832886 0.38328826427459717
12.831559181213379 -0.7162907719612122 0.30444929003715515
12.847748756408691 -0.7962812185287476 0.29724496603012085
12.823938369750977 -0.7133217453956604 0.2275393009185791
12.862292289733887 -0.7946256995201111 0.21430954337120056
12.81300163269043 -0.7170911431312561 0.16072024405002594
12.874383926391602 -0.7997681498527527 0.1409936547279358
13.613134384155273 13.79001235961914 0.1473797857761383
12.663623809814453 12.739070892333984 1.2910443544387817
12.681499481201172 12.668506622314453 1.2947419881820679
12.77786922454834 12.76508903503418 0.3733310401439667
12.704322814941406 12.603214263916016 1.2975233793258667
12.78537368774414 12.684003829956055 0.38140249252319336
12.726434707641602 12.541878700256348 1.3000428676605225
12.765718460083008 12.581047058105469 0.3954971432685852
12.746901512145996 12.474842071533203 1.3031288385391235
12.72832202911377 12.457184791564941 0.41424983739852905
12.761717796325684 12.402626037597656 1.307132363319397
12.786897659301758 12.34079360961914 1.3093005418777466
12.808220863342285 12.275504112243652 1.3120795488357544
31.052736282348633 29.550376892089844 0.3323437571525574
12.831366539001465 12.207979202270508 1.3148137331008911
31.068449020385742 29.35964584350586 0.3390202224254608
12.850275039672852 12.140986442565918 1.3178986310958862
31.045034408569336 29.133342742919922 0.3495751619338989
12.863444328308105 12.068916320800781 1.3219033479690552
12.893644332885742 12.098156929016113 0.4310626685619354
32.32881164550781 30.125303268432617 2.400055408477783
31.060546875 28.944955825805664 0.35607752203941345
12.892608642578125 12.012123107910156 1.3231487274169922
12.93375015258789 12.051421165466309 0.4305877089500427
32.417423248291016 30.007774353027344 2.3982763290405273
31.10304832458496 28.79271697998047 0.3593679666519165
12.908530235290527 11.947417259216309 1.326278567314148
12.944487571716309 11.981721878051758 0.43657514452934265
32.48874282836914 29.86402702331543 2.397127151489258
31.2104434967041 28.69076156616211 0.35644760727882385
12.926227569580078 11.880481719970703 1.3293631076812744
12.964226722717285 11.916488647460938 0.4408058524131775
32.518836975097656 29.68307113647461 2.397350311279297
31.295406341552734 28.568235397338867 0.35573810338974
12.954614639282227 11.823600769042969 1.3306055068969727
12.989127159118652 11.856244087219238 0.44375091791152954
32.520294189453125 29.47710418701172 2.3985157012939453
12.97172737121582 11.756671905517578 1.3336896896362305
13.004638671875 11.787699699401855 0.44883787631988525
32.52581024169922 29.265806198120117 2.399573564529419
13.039265632629395 11.73438835144043 2.1965510845184326
12.996101379394531 11.692480087280273 1.3358064889907837
13.032852172851562 11.726805686950684 0.4513075351715088
32.467376708984375 29.00892448425293 2.402702569961548
13.061442375183105 11.67220687866211 2.1974892616271973
13.012604713439941 11.625577926635742 1.3388899564743042
13.047751426696777 11.658292770385742 0.45639386773109436
32.476722717285156 28.81417465209961 2.403512477874756
13.087075233459473 11.613324165344238 2.1980559825897217
13.041792869567871 11.570225715637207 1.3398211002349854
13.071542739868164 11.597991943359375 0.4593368470668793
32.54135513305664 28.669275283813477 2.402430772781372
13.110584259033203 11.552754402160645 2.1988072395324707
13.06330680847168 11.50825309753418 1.3419814109802246
13.09322452545166 11.536036491394043 0.4627074897289276
32.57783889770508 28.51021385192871 2.4022200107574463
13.126200675964355 11.489527702331543 2.2001609802246094
13.08069133758545 11.446919441223145 1.3444948196411133
13.121909141540527 11.484469413757324 0.46397849917411804
32.58156204223633 28.32335662841797 2.4030895233154297
13.147188186645508 11.431229591369629 2.2009570598602295
13.097814559936523 11.385598182678223 1.347008228302002
13.133668899536133 11.418293952941895 0.4691105782985687
32.60254669189453 28.142532348632812 2.403404951095581
13.168027877807617 11.368996620178223 2.201892614364624
13.118518829345703 11.323617935180664 1.3491668701171875
13.15829086303711 11.35953140258789 0.4716208875179291
32.6188850402832 27.958656311035156 2.4038500785827637
13.184805870056152 11.303508758544922 2.203199863433838
13.140835762023926 11.263249397277832 1.3510175943374634
13.17892074584961 11.297529220581055 0.4749895930290222
32.61909866333008 27.762046813964844 2.4048099517822266
13.21078109741211 11.24612045288086 2.203575611114502
13.16289234161377 11.202862739562988 1.3528671264648438
13.199281692504883 11.235520362854004 0.47835734486579895
32.64506912231445 27.588363647460938 2.404879570007324
13.234610557556152 11.187081336975098 2.204136610031128
13.184688568115234 11.142457008361816 1.3547157049179077
13.225013732910156 11.178274154663086 0.48043549060821533
32.650108337402344 27.388256072998047 2.405670404434204
13.256307601928711 11.1224946975708 2.2050232887268066
13.211947441101074 11.08292007446289 1.3559006452560425
13.24111270904541 11.109177589416504 0.4850452244281769
32.666664123535156 27.208574295043945 2.40600323677063
13.287277221679688 11.069787979125977 2.2048354148864746
13.227502822875977 11.017704963684082 1.3586738109588623
13.268218040466309 11.053458213806152 0.486691951751709
32.67274475097656 27.021150588989258 2.4066619873046875
13.302674293518066 11.004290580749512 2.2061407566070557
13.248499870300293 10.957255363464355 1.3605211973190308
13.289402961730957 10.992975234985352 0.48962727189064026
32.68369674682617 26.838768005371094 2.407132387161255
13.31969928741455 10.940401077270508 2.207259178161621
13.271154403686523 10.898370742797852 1.3620582818984985
13.304615020751953 10.927789688110352 0.4938531219959259
32.686038970947266 26.650325775146484 2.407865524291992
13.33837604522705 10.878104209899902 2.208190441131592
13.291635513305664 10.837891578674316 1.3639036417007446
13.325263977050781 10.867300033569336 0.4967873692512512
32.69717025756836 26.470060348510742 2.4082794189453125
13.358715057373047 10.817375183105469 2.2089340686798096
13.313785552978516 10.778963088989258 1.3654396533966064
13.343738555908203 10.80525016784668 0.5001521706581116
32.695762634277344 26.2806453704834 2.409088134765625
13.384625434875488 10.761323928833008 2.2091147899627686
13.329886436462402 10.715350151062012 1.3679027557373047
13.371538162231445 10.75091552734375 0.5013628005981445
32.715553283691406 26.099884033203125 2.4092013835906982
13.408269882202148 10.699774742126465 2.209622383117676
13.357251167297363 10.657160758972168 1.3687714338302612
13.40097713470459 10.694181442260742 0.5025251507759094
32.714271545410156 25.912628173828125 2.409954786300659
13.421977043151855 10.634346961975098 2.2109270095825195
13.372804641723633 10.593549728393555 1.3712338209152222
13.412896156311035 10.627484321594238 0.5071802139282227
32.725833892822266 25.736515045166016 2.410256862640381
13.439309120178223 10.572036743164062 2.2118561267852783
13.390028953552246 10.531492233276367 1.3733865022659302
13.434185981750488 10.56844425201416 0.509680449962616
32.73460006713867 25.559099197387695 2.4106273651123047
13.46226692199707 10.514338493347168 2.212221384048462
13.412849426269531 10.474021911621094 1.374609351158142
13.449409484863281 10.504837989807129 0.5134738683700562
32.73857498168945 25.378873825073242 2.411134719848633
13.481045722961426 10.45355224609375 2.2129616737365723
13.433469772338867 10.414999961853027 1.37614107131958
13.476030349731445 10.450310707092285 0.5146788954734802
32.7472038269043 25.21226692199707 2.411432981491089
13.505653381347656 10.401201248168945 2.212996482849121
13.454009056091309 10.359823226928711 1.3774093389511108
13.465511322021484 10.371031761169434 0.5236971974372864
32.747535705566406 25.03106117248535 2.4120147228240967
13.521963119506836 10.338871002197266 2.213923931121826
13.48006534576416 10.305286407470703 1.3780086040496826
13.509218215942383 10.329974174499512 0.5210171341896057
32.7569580078125 24.857717514038086 2.4122722148895264
13.547928810119629 10.284089088439941 2.2139086723327637
13.49799633026123 10.244694709777832 1.3798487186431885
13.517499923706055 10.26193618774414 0.5261050462722778
32.775550842285156 24.69212532043457 2.4122018814086914
13.563726425170898 10.221752166748047 2.2148354053497314
13.521614074707031 10.188580513000488 1.380756139755249
13.556933403015137 10.21767807006836 0.5242837071418762
32.76737594604492 24.507253646850586 2.412997245788574
13.585240364074707 10.163908004760742 2.215195655822754
13.535073280334473 10.124998092651367 1.3832165002822876
13.576509475708008 10.15851879119873 0.5267789959907532
32.720176696777344 24.294431686401367 2.4150619506835938
13.610516548156738 10.109010696411133 2.215177297592163
13.554228782653809 10.065881729125977 1.384744644165039
13.611651420593262 10.111090660095215 0.5258164405822754
32.60366439819336 24.02317237854004 2.419421672821045
13.625288963317871 10.042808532714844 2.216243267059326
13.576871871948242 10.00585651397705 1.3859126567840576
13.642425537109375 10.056777954101562 0.526099681854248
32.45322799682617 23.738109588623047 2.4248557090759277
13.652103424072266 9.989317893981934 2.216033697128296
13.599532127380371 9.949638366699219 1.3868167400360107
13.6474027633667 9.987309455871582 0.5316188931465149
32.448829650878906 23.56157684326172 2.425429344177246
13.676692962646484 9.934293746948242 2.2160115242004395
13.62597942352295 9.896297454833984 1.387096881866455
13.668000221252441 9.9295072555542 0.5336785316467285
32.50235366821289 23.43633270263672 2.4240458011627197
13.693282127380371 9.877236366271973 2.2166051864624023
13.636425971984863 9.835118293762207 1.3896045684814453
13.660688400268555 9.855342864990234 0.541411817073822
32.51680374145508 23.274770736694336 2.4239556789398193
13.715405464172363 9.82068920135498 2.216770648956299
13.660418510437012 9.78026008605957 1.390194296836853
13.690770149230957 9.804757118225098 0.5413073301315308
32.57328796386719 23.14378547668457 2.4224536418914795
13.735267639160156 9.762662887573242 2.2171247005462646
13.680147171020508 9.722480773925781 1.3914066553115845
13.680522918701172 9.725550651550293 0.5498616099357605
32.57208251953125 22.972362518310547 2.4228384494781494
13.752856254577637 9.703180313110352 2.217668294906616
13.699642181396484 9.664681434631348 1.3926177024841309
13.700074195861816 9.667826652526855 0.5519214272499084
32.57609176635742 22.796979904174805 2.4230453968048096
13.77391529083252 9.642720222473145 2.2179720401763916
13.728696823120117 9.610161781311035 1.392531394958496
13.70895004272461 9.59921932220459 0.5565318465232849
32.57942581176758 22.63041114807129 2.42323637008667
13.791004180908203 9.583221435546875 2.2185146808624268
13.743654251098633 9.549466133117676 1.3943649530410767
13.744162559509277 9.552736282348633 0.5551237463951111
32.555240631103516 22.445659637451172 2.4243156909942627
13.80989933013916 9.525135040283203 2.2188663482666016
13.76856517791748 9.495821952819824 1.3946369886398315
13.771110534667969 9.500533103942871 0.5554470419883728
32.50953674316406 22.24724006652832 2.42608380317688
13.830612182617188 9.468441009521484 2.219026803970337
13.78508186340332 9.436515808105469 1.3961576223373413
32.537269592285156 22.09995460510254 2.4254071712493896
13.853157997131348 9.413118362426758 2.2189955711364746
13.80955982208252 9.382786750793457 1.396426796913147
14.1970796585083 9.649144172668457 0.47668394446372986
32.57091522216797 21.96541976928711 2.4245059490203857
13.871794700622559 9.358782768249512 2.219203472137451
13.830154418945312 9.330025672912598 1.3970568180084229
14.19815731048584 9.581379890441895 0.48223423957824707
32.599517822265625 21.81965446472168 2.4237618446350098
13.891840934753418 9.302000045776367 2.2193610668182373
13.856283187866211 9.27757453918457 1.3970106840133667
14.059436798095703 9.416714668273926 0.5176944136619568
32.54423141479492 21.618648529052734 2.425765037536621
13.919964790344238 9.250711441040039 2.2187535762786865
13.880148887634277 9.22368049621582 1.3972759246826172
13.91359806060791 9.249048233032227 0.5544793605804443
32.48585510253906 21.41691780090332 2.427849054336548
13.937494277954102 9.192475318908691 2.2191002368927
13.893455505371094 9.162907600402832 1.3991056680679321
13.929123878479004 9.189604759216309 0.5569635033607483
32.42229461669922 21.213125228881836 2.430084228515625
13.954788208007812 9.134232521057129 2.2194466590881348
13.91273307800293 9.106225967407227 1.3999953269958496
13.934106826782227 9.123422622680664 0.5616204738616943
32.4200553894043 21.042482376098633 2.430283308029175
13.98178482055664 9.078969955444336 2.2189760208129883
13.935436248779297 9.048443794250488 1.4005215167999268
13.977530479431152 9.079021453857422 0.5584033131599426
32.46589279174805 20.91162872314453 2.4288711547851562
14.006997108459473 9.026078224182129 2.2185537815093994
13.952171325683594 8.990363121032715 1.4017232656478882
14.00269603729248 9.026199340820312 0.5587109923362732
32.530174255371094 20.792821884155273 2.4268319606781006
14.02150821685791 8.966404914855957 2.2190892696380615
13.97493839263916 8.936284065246582 1.4019829034805298
14.01522159576416 8.965353965759277 0.561627209186554
32.59612274169922 20.675159454345703 2.4247186183929443
14.046298027038574 8.91341781616211 2.2186644077301025
13.99330997467041 8.879499435424805 1.402869462966919
14.025412559509277 8.903210639953613 0.564979076385498
32.56923294067383 20.507068634033203 2.4256439208984375
14.063020706176758 8.85883617401123 2.2188644409179688
14.020421981811523 8.831743240356445 1.402234435081482
14.127541542053223 8.902606010437012 0.5487902760505676
32.621437072753906 20.381366729736328 2.4239466190338135
14.081064224243164 8.801783561706543 2.2190139293670654
14.042580604553223 8.77751350402832 1.4024899005889893
14.076886177062988 8.802366256713867 0.5647661685943604
32.53510665893555 20.16997528076172 2.42679762840271
14.107357025146484 8.749969482421875 2.2183926105499268
14.058211326599121 8.719314575195312 1.4036879539489746
14.398077011108398 8.93358325958252 0.5032036304473877
32.50090408325195 19.992162704467773 2.427910327911377
14.131339073181152 8.696771621704102 2.2179622650146484
14.07994270324707 8.665011405944824 1.4039416313171387
14.370235443115234 8.847163200378418 0.5143773555755615
32.50852966308594 19.84086799621582 2.427626371383667
14.146608352661133 8.63831615447998 2.218301296234131
14.095114707946777 8.60678482055664 1.4051380157470703
32.53602981567383 19.694446563720703 2.4266650676727295
14.173794746398926 8.583846092224121 2.217625141143799
14.130632400512695 8.557659149169922 1.4034496545791626
32.48664474487305 19.510025024414062 2.42822265625
14.195015907287598 8.529202461242676 2.21738338470459
14.145367622375488 8.499361991882324 1.4046443700790405
14.137962341308594 8.498477935791016 0.5784214735031128
32.45354461669922 19.336423873901367 2.429224967956543
14.216028213500977 8.474512100219727 2.2171404361724854
14.168388366699219 8.446146965026855 1.4045783281326294
14.167309761047363 8.449101448059082 0.5774100422859192
32.420589447021484 19.171491622924805 2.4302098751068115
14.237512588500977 8.42353343963623 2.216754198074341
14.185483932495117 8.392823219299316 1.4051913022994995
14.17172908782959 8.388309478759766 0.5812486410140991
32.450565338134766 19.0367431640625 2.4290971755981445
14.260272026062012 8.370018005371094 2.216315269470215
14.208110809326172 8.339512825012207 1.4051222801208496
14.224043846130371 8.352522850036621 0.5754303932189941
32.44975662231445 18.884422302246094 2.428981304168701
14.284984588623047 8.317699432373047 2.215681314468384
14.221961975097656 8.28115463256836 1.4063141345977783
14.22735595703125 8.287981033325195 0.5796541571617126
32.50239181518555 18.763572692871094 2.4270851612091064
14.30518913269043 8.262816429138184 2.215433359146118
14.242022514343262 8.226519584655762 1.4065587520599365
14.260232925415039 8.240756034851074 0.5777609348297119
32.58494186401367 18.65996742248535 2.4241838455200195
14.342487335205078 8.217805862426758 2.213632345199585
14.266178131103516 8.174311637878418 1.4061702489852905
14.28227424621582 8.187281608581543 0.5780505537986755
32.687774658203125 18.560184478759766 2.420584201812744
14.36155891418457 8.159045219421387 2.2135236263275146
14.300177574157715 8.124441146850586 1.4044641256332397
14.318363189697266 8.138553619384766 0.5756635665893555
32.71089553833008 18.422706604003906 2.4196059703826904
14.392014503479004 8.110107421875 2.2122995853424072
14.323959350585938 8.072060585021973 1.4040716886520386
14.303572654724121 8.064377784729004 0.5833868384361267
32.78144454956055 18.312097549438477 2.417043685913086
14.4223051071167 8.061053276062012 2.2110729217529297
14.347551345825195 8.019614219665527 1.4036768674850464
14.3407564163208 8.022932052612305 0.5802242159843445
32.77971267700195 18.176334381103516 2.416875123977661
14.385534286499023 7.981738567352295 1.4008513689041138
14.36060905456543 7.971774101257324 0.5805603265762329
32.86475372314453 18.07387351989746 2.413799524307251
14.41615104675293 7.937052249908447 0.573836624622345
32.94728469848633 17.96984100341797 2.4107885360717773
14.896677017211914 8.129572868347168 2.1729822158813477
33.01190185546875 17.855947494506836 2.408350706100464
14.925830841064453 8.078561782836914 1.3311694860458374
33.02107620239258 17.712289810180664 2.407726287841797
33.062747955322266 17.586387634277344 2.4060115814208984
33.072994232177734 17.444091796875 2.4053170680999756
27.817630767822266 14.679539680480957 1.0323917865753174
33.092308044433594 17.29963493347168 2.4042859077453613
27.778278350830078 14.529010772705078 1.0385122299194336
33.119110107421875 17.166797637939453 2.403008460998535
27.824195861816406 14.429696083068848 1.0369068384170532
33.11648941040039 17.01913833618164 2.4026877880096436
27.80769920349121 14.298332214355469 1.0407862663269043
33.11993408203125 16.875110626220703 2.402148962020874
27.861679077148438 14.203474998474121 1.0383936166763306
33.125003814697266 16.732391357421875 2.4015398025512695
33.13394546508789 16.59208106994629 2.400785207748413
33.131126403808594 16.44635581970215 2.4004039764404297
33.14338684082031 16.308576583862305 2.399505615234375
33.14610290527344 16.166526794433594 2.3989083766937256
33.15777587890625 16.022136688232422 2.3979692459106445
33.15705490112305 15.87934684753418 2.397451877593994
32.658226013183594 15.649249076843262 0.6328883171081543
33.16654586791992 15.748974800109863 2.3966064453125
32.61968231201172 15.498126029968262 0.6385506987571716
33.16469192504883 15.606539726257324 2.3960955142974854
32.70716857910156 15.400130271911621 0.6332343220710754
33.17583084106445 15.470646858215332 2.3951356410980225
32.95021057128906 15.374417304992676 0.6142598390579224
33.17281723022461 15.32857608795166 2.3946304321289062
33.10523986816406 15.306405067443848 0.6029739379882812
33.189666748046875 15.196078300476074 2.3934476375579834
33.1536979675293 15.188716888427734 0.6009812355041504
33.18551254272461 15.054357528686523 2.392948865890503
33.18585968017578 15.063668251037598 0.6003730297088623
33.19445037841797 14.918997764587402 2.391996383666992
33.181182861328125 14.922224998474121 0.6029378175735474
33.20285415649414 14.783757209777832 2.3910462856292725
33.198692321777344 14.791138648986816 0.6035206317901611
33.20869827270508 14.640832901000977 2.390131711959839
33.17262268066406 14.634202003479004 0.607959508895874
33.2182731628418 14.506855010986328 2.3891098499298096
33.19358444213867 14.505387306213379 0.608148992061615
33.22045135498047 14.370014190673828 2.3883190155029297
33.18431854248047 14.363736152648926 0.6109267473220825
33.23125457763672 14.23727035522461 2.387223958969116
33.18134689331055 14.225272178649902 0.6131113171577454
33.227745056152344 14.098772048950195 2.3865926265716553
33.212215423583984 14.101611137390137 0.6123076677322388
33.23736572265625 13.973045349121094 2.3855443000793457
33.20573806762695 13.96921157836914 0.6146162152290344
33.235076904296875 13.835846900939941 2.384841203689575
33.21036148071289 13.835053443908691 0.6160092353820801
33.24148941040039 13.702640533447266 2.3838307857513428
33.228275299072266 13.706730842590332 0.6162049174308777
33.25200271606445 13.571451187133789 2.3826682567596436
33.24799728393555 13.57939338684082 0.6162014603614807
33.23883056640625 13.430992126464844 2.382284641265869
33.26955032348633 13.453020095825195 0.6159968376159668
33.24596405029297 13.299140930175781 2.381204128265381
33.26980209350586 13.318324089050293 0.617596447467804
33.21770477294922 13.146890640258789 2.381255626678467
33.21389389038086 13.155049324035645 0.6240935325622559
33.170230865478516 12.994438171386719 2.3819825649261475
33.143375396728516 12.99360179901123 0.6317260265350342
33.180335998535156 12.865056037902832 2.3807566165924072
33.151126861572266 12.863448143005371 0.6325390338897705
33.23894500732422 12.754561424255371 2.3778793811798096
33.202579498291016 12.750371932983398 0.629531741142273
33.36545181274414 12.679574012756348 0.6168583631515503
33.50971984863281 12.607502937316895 0.6056957244873047
33.712501525878906 12.53974723815918 2.359113931655884
33.73311233520508 12.557425498962402 0.5877406001091003
33.760658264160156 12.423749923706055 2.3565094470977783
33.74376678466797 12.427583694458008 0.588117241859436
33.78258514404297 12.298168182373047 2.3547749519348145
33.75862121582031 12.299528121948242 0.5880916714668274
33.789939880371094 12.16750717163086 2.353517770767212
33.765953063964844 12.16898250579834 0.5886719226837158
33.775611877441406 12.029399871826172 2.3529813289642334
33.78921127319336 12.044392585754395 0.5878391861915588
33.79136657714844 11.902329444885254 2.3514084815979004
33.786163330078125 11.910675048828125 0.5892310738563538
33.80869674682617 11.769396781921387 2.349713087081909
33.80345916748047 11.777788162231445 0.5888831615447998
33.811668395996094 11.63833236694336 2.3485429286956787
33.806434631347656 11.646777153015137 0.5896718502044678
33.816864013671875 11.514901161193848 2.3473358154296875
33.806922912597656 11.521787643432617 0.590584933757782
33.81175994873047 11.381678581237793 2.3464109897613525
33.80891799926758 11.391021728515625 0.5913777351379395
33.84169387817383 11.260461807250977 2.344275712966919
33.82223892211914 11.26431941986084 0.591154932975769
33.82372283935547 11.123562812805176 2.3437600135803223
33.81614685058594 11.131429672241211 0.5925611853599548
33.84085464477539 10.998512268066406 2.3420307636260986
33.82139205932617 11.002571105957031 0.5929524898529053
33.8385009765625 10.867364883422852 2.340951919555664
33.82852554321289 10.8745756149292 0.5931410789489746
33.84040069580078 10.737879753112793 2.339712619781494
33.83992004394531 10.74817180633545 0.5929231643676758
33.84419250488281 10.609258651733398 2.3383939266204834
33.85560607910156 10.623311042785645 0.5922966003417969
33.84033966064453 10.478527069091797 2.337322473526001
33.858375549316406 10.488138198852539 0.5927734971046448
33.8610954284668 10.3427095413208 2.335268259048462
33.86298751831055 10.353816032409668 0.5930471420288086
33.85383605957031 10.211498260498047 2.334282398223877
33.86052322387695 10.224068641662598 0.5938559174537659
33.8652229309082 10.086165428161621 2.3326401710510254
33.867122650146484 10.097311019897461 0.5938465595245361
33.868961334228516 9.958763122558594 2.3312466144561768
33.86846923828125 9.969222068786621 0.5942491888999939
33.88490676879883 9.841548919677734 2.3294806480407715
33.88916015625 9.853418350219727 0.5929291248321533
33.87331008911133 9.710160255432129 2.328587055206299
33.87521743774414 9.72136116027832 0.5945665836334229
33.893211364746094 9.594408988952637 2.3266549110412598
33.89266586303711 9.604936599731445 0.593452513217926
33.8927001953125 9.466666221618652 2.3253486156463623
33.894569396972656 9.477890014648438 0.5936543941497803
33.90375900268555 9.342360496520996 2.323627471923828
33.8959846496582 9.350948333740234 0.5938576459884644
33.916770935058594 9.21874713897705 2.321821928024292
33.91376876831055 9.228689193725586 0.5926201343536377
33.91727066040039 9.091924667358398 2.3204362392425537
33.90463638305664 9.099315643310547 0.5936510562896729
33.92453384399414 8.967124938964844 2.3187999725341797
33.923919677734375 8.977766036987305 0.592207133769989
33.93531036376953 8.8370943069458 2.316955804824829
33.9129524230957 8.842097282409668 0.5933255553245544
33.934383392333984 8.710542678833008 2.3155736923217773
33.91684341430664 8.716886520385742 0.5931222438812256
33.936344146728516 8.591252326965332 2.314148187637329
33.93568801879883 8.601957321166992 0.5915957093238831
33.93935012817383 8.4661226272583 2.312600612640381
33.92418670654297 8.473226547241211 0.5926366448402405
33.9443359375 8.34167194366455 2.3109688758850098
33.92913055419922 8.348847389221191 0.5922301411628723
33.94886016845703 8.217288970947266 2.3093371391296387
33.94331359863281 8.226882934570312 0.5909945964813232
33.940773010253906 8.090081214904785 2.308134078979492
33.94009017944336 8.100871086120605 0.5912119746208191
33.94681167602539 7.966451168060303 2.30642032623291
33.955806732177734 7.979541301727295 0.5897676944732666
33.94996643066406 7.842317581176758 2.3047924041748047
33.95652770996094 7.854831695556641 0.5895712375640869
33.94914627075195 7.7112274169921875 2.303213357925415
33.95812225341797 7.724287509918213 0.5892522931098938
33.961116790771484 7.589439868927002 2.3012442588806152
33.9627685546875 7.600849628448486 0.5886421799659729
33.96404266357422 7.471980571746826 2.2996575832366943
33.9559440612793 7.481256008148193 0.588991641998291
33.984928131103516 7.352355003356934 2.29734206199646
33.964569091796875 7.359030246734619 0.58796626329422
33.985843658447266 7.228517055511475 2.29571795463562
33.97520065307617 7.2373552322387695 0.5867307782173157
33.993648529052734 7.106294631958008 2.293834924697876
33.985408782958984 7.115694999694824 0.5854966640472412
33.998565673828125 6.9836039543151855 2.2920384407043457
33.98295974731445 6.99153995513916 0.5853081345558167
34.00304412841797 6.860965251922607 2.290243148803711
33.997169494628906 6.870943069458008 0.5836548805236816
34.007076263427734 6.7383809089660645 2.2884480953216553
34.00360870361328 6.748875141143799 0.5826296210289001
34.0008544921875 6.613942623138428 2.2870032787323
34.014503479003906 6.627798557281494 0.5811851024627686
