# .PCD v0.7 - Point Cloud Data file format
VERSION 0.7
FIELDS x y z
SIZE 4 4 4
TYPE F F F
COUNT 1 1 1
WIDTH 856
HEIGHT 1
VIEWPOINT 0 0 0 1 0 0 0
POINTS 856
DATA ascii
32.491973876953125 23.19632339477539 3.339219093322754
32.6352653503418 22.997718811035156 3.335142135620117
32.719051361083984 22.757688522338867 3.3315799236297607
32.733524322509766 22.471084594726562 3.3286421298980713
32.65713882446289 22.125150680541992 3.326545238494873
32.581905364990234 21.783781051635742 3.3244435787200928
32.59135818481445 21.501996994018555 3.321537971496582
32.75948715209961 21.325668334960938 3.317094564437866
33.06465530395508 21.236711502075195 3.311281204223633
32.7161979675293 20.730531692504883 3.311819553375244
33.1174430847168 20.701183319091797 3.304989814758301
32.879478454589844 20.27300453186035 3.3044650554656982
32.68621826171875 19.878149032592773 3.3035221099853516
32.79378890991211 19.669036865234375 3.299548625946045
32.6297721862793 19.299495697021484 3.2983317375183105
32.7509651184082 19.100982666015625 3.2941856384277344
32.77733612060547 18.847871780395508 3.2909982204437256
32.70527267456055 18.540416717529297 3.288832902908325
32.8707275390625 18.368709564208984 3.284151315689087
32.77692413330078 18.053342819213867 3.2822041511535645
33.49427032470703 18.181596755981445 3.271515369415283
44.81443786621094 23.972196578979492 3.145359754562378
44.6474494934082 23.531780242919922 3.143129348754883
44.49627685546875 23.10445785522461 3.140742063522339
44.3023796081543 22.659847259521484 3.1388449668884277
44.198482513427734 22.265729904174805 3.135958433151245
44.043060302734375 21.84974479675293 3.1336610317230225
43.92463302612305 21.45625877380371 3.130955219268799
43.81566619873047 21.071121215820312 3.1281485557556152
43.58884811401367 20.63379669189453 3.1267166137695312
43.56499099731445 20.296337127685547 3.1229374408721924
43.36775588989258 19.881603240966797 3.121192693710327
43.274635314941406 19.518573760986328 3.118234157562256
43.076332092285156 19.112014770507812 3.11653733253479
43.031402587890625 18.777019500732422 3.113011598587036
42.84707260131836 18.384544372558594 3.111175537109375
42.741554260253906 18.029632568359375 3.108393430709839
42.556636810302734 17.644922256469727 3.106597661972046
42.541778564453125 17.333724975585938 3.1027023792266846
42.32326889038086 16.942726135253906 3.101353168487549
42.24302291870117 16.610689163208008 3.0982797145843506
42.044639587402344 16.23560905456543 3.0967133045196533
41.95731735229492 15.906840324401855 3.093740940093994
41.85162353515625 15.573827743530273 3.0910089015960693
41.76972579956055 15.252315521240234 3.087970495223999
41.59321594238281 14.899349212646484 3.0861759185791016
41.473392486572266 14.570006370544434 3.0836472511291504
41.40971374511719 14.262887954711914 3.0803780555725098
41.32962417602539 13.952301979064941 3.0773258209228516
41.156150817871094 13.613090515136719 3.075536012649536
41.08281707763672 13.309821128845215 3.0723977088928223
40.96728515625 12.99526596069336 3.0698373317718506
40.83893966674805 12.67936897277832 3.067460060119629
40.7216682434082 12.369607925415039 3.064936876296997
40.60693359375 12.063186645507812 3.0623841285705566
40.53894805908203 11.772865295410156 3.0591752529144287
40.41987228393555 11.46990966796875 3.0566911697387695
40.352577209472656 11.183817863464355 3.053468942642212
40.21573257446289 10.880702018737793 3.051248788833618
40.42280197143555 10.671063423156738 3.0440282821655273
40.90864944458008 10.531342506408691 3.03265643119812
41.315731048583984 10.36634635925293 3.0223264694213867
41.80293273925781 10.216453552246094 3.0106985569000244
42.23048782348633 10.04685115814209 2.999840497970581
42.70428466796875 9.883206367492676 2.9881722927093506
43.181541442871094 9.715001106262207 2.9763286113739014
43.6446533203125 9.538318634033203 2.9645771980285645
44.1649055480957 9.368559837341309 2.951821804046631
44.68960189819336 9.193779945373535 2.93886137008667
44.87157440185547 8.944684028625488 2.9311232566833496
44.92354965209961 8.668876647949219 2.925367593765259
44.96498489379883 8.391119003295898 2.919743776321411
44.831512451171875 8.081953048706055 2.9168806076049805
45.01511764526367 7.830265998840332 2.9089221954345703
45.04545211791992 7.551168918609619 2.9033801555633545
45.067142486572266 7.27087926864624 2.897947072982788
45.093021392822266 6.991526126861572 2.8924148082733154
45.12211227416992 6.712864398956299 2.8867976665496826
45.14948654174805 6.434108734130859 2.8811755180358887
45.175132751464844 6.155269145965576 2.8755502700805664
45.20500564575195 5.877130508422852 2.8698208332061768
45.22821044921875 5.598241806030273 2.8641695976257324
45.25167465209961 5.319522857666016 2.8584811687469482
45.288330078125 5.042386054992676 2.852532386779785
45.31035232543945 4.7636399269104 2.8468000888824463
45.33464813232422 4.4852070808410645 2.840993642807007
45.37116241455078 4.207947731018066 2.8349385261535645
45.403995513916016 3.9302358627319336 2.8289101123809814
45.359378814697266 3.6461880207061768 2.8242239952087402
45.4545783996582 3.3733468055725098 2.817009925842285
12.554872512817383 0.8534483313560486 3.4059438705444336
12.53888988494873 0.7751185894012451 3.404693603515625
45.53959655761719 2.5380425453186035 2.7987146377563477
45.555206298828125 2.2586886882781982 2.7927751541137695
45.59806442260742 1.980497121810913 2.7862911224365234
19.517969131469727 0.7271119356155396 3.2680091857910156
19.23320960998535 0.598364531993866 3.270902633666992
12.996553421020508 0.32414883375167847 3.386603832244873
12.971280097961426 0.243907168507576 3.385425329208374
45.71479797363281 0.5822073221206665 2.7550911903381348
12.564326286315918 0.08204091340303421 3.3899478912353516
12.574564933776855 0.004970252979546785 3.3881146907806396
12.267395973205566 -0.07043515145778656 3.392486810684204
12.307694435119629 -0.14616908133029938 3.3900773525238037
12.331530570983887 -0.2221137434244156 3.387974262237549
12.16598892211914 -0.2938133478164673 3.3896400928497314
11.997041702270508 -0.3634001910686493 3.391408681869507
11.85867691040039 -0.4320509135723114 3.3925929069519043
12.033580780029297 -0.5123398900032043 3.3874166011810303
13.448209762573242 -0.6550937294960022 3.3567330837249756
13.178361892700195 -0.72303307056427 3.3604612350463867
12.824371337890625 -0.7825798392295837 3.3660027980804443
46.047332763671875 -3.0903799533843994 2.668416738510132
12.795796394348145 -0.9385412335395813 3.363023042678833
46.120323181152344 -3.6641769409179688 2.6539220809936523
12.882871627807617 -1.103981614112854 3.35754132270813
13.306913375854492 -1.2225544452667236 3.3465797901153564
11.826525688171387 -1.159888505935669 3.376721143722534
12.069744110107422 -1.2585173845291138 3.3697071075439453
12.519875526428223 -1.3830965757369995 3.358070135116577
11.78521728515625 -1.375240445137024 3.3724617958068848
12.827377319335938 -1.5765628814697266 3.3475446701049805
13.576946258544922 -1.7532292604446411 3.3288559913635254
13.512401580810547 -1.8292443752288818 3.3282768726348877
12.75154972076416 -1.80604088306427 3.3435006141662598
12.754043579101562 -1.8862756490707397 3.3415069580078125
13.548476219177246 -2.088703155517578 3.3212904930114746
13.54919147491455 -2.173990488052368 3.3191871643066406
13.530632019042969 -2.2562429904937744 3.3175177574157715
13.645550727844238 -2.361523389816284 3.3127081394195557
29.38817024230957 -5.270420074462891 2.9387967586517334
13.61744213104248 -2.5291197299957275 3.309065818786621
13.02433967590332 -2.501771926879883 3.3210864067077637
29.58013153076172 -5.868680477142334 2.9200944900512695
33.73531723022461 -6.908265590667725 2.8145127296447754
33.709808349609375 -7.118795394897461 2.80962872505188
33.71913146972656 -7.337136268615723 2.8038556575775146
33.68899154663086 -7.547338008880615 2.799014091491699
12.688462257385254 -2.9252383708953857 3.3166491985321045
33.76485824584961 -8.000638961791992 2.7858188152313232
33.88210678100586 -8.24827766418457 2.777132987976074
33.89574432373047 -8.47220516204834 2.7709972858428955
33.88854217529297 -8.691642761230469 2.765345573425293
33.91278839111328 -8.919957160949707 2.7588398456573486
34.07643127441406 -9.186881065368652 2.748662233352661
34.04726791381836 -9.403460502624512 2.7434170246124268
33.99555969238281 -9.614043235778809 2.738725423812866
33.99633026123047 -9.839909553527832 2.7326154708862305
33.963016510009766 -10.056495666503906 2.7273640632629395
33.95510482788086 -10.281157493591309 2.7213921546936035
33.96385955810547 -10.511713981628418 2.7149226665496826
33.95390319824219 -10.737339973449707 2.708907127380371
33.99763107299805 -10.981058120727539 2.701371908187866
34.006412506103516 -11.214759826660156 2.6947314739227295
33.95486068725586 -11.429211616516113 2.6897096633911133
34.073081970214844 -11.702220916748047 2.679903984069824
34.01279830932617 -11.915308952331543 2.6750240325927734
34.00766372680664 -12.148275375366211 2.6685469150543213
34.057308197021484 -12.40214729309082 2.6604506969451904
34.13041305541992 -12.666474342346191 2.651601791381836
34.353965759277344 -12.989787101745605 2.6383094787597656
34.327613830566406 -13.221115112304688 2.6321516036987305
34.33228302001953 -13.46538257598877 2.6250317096710205
34.33338928222656 -13.70946216583252 2.617952346801758
34.35038375854492 -13.961212158203125 2.6103365421295166
34.378501892089844 -14.219034194946289 2.6023151874542236
34.370662689208984 -14.46338176727295 2.595301866531372
34.36845779418945 -14.71131420135498 2.5880532264709473
29.72865104675293 -12.941828727722168 2.722710371017456
34.411808013916016 -15.232181549072266 2.571883201599121
34.43335723876953 -15.495078086853027 2.563683032989502
34.42115020751953 -15.744258880615234 2.556457281112671
34.42258834838867 -16.001033782958984 2.548734664916992
34.37788009643555 -16.23750114440918 2.5424022674560547
34.390132904052734 -16.50213050842285 2.534194231033325
34.373477935791016 -16.754379272460938 2.5268352031707764
34.3594970703125 -17.00926399230957 2.519319772720337
34.2722282409668 -17.22869110107422 2.5141243934631348
34.170204162597656 -17.440872192382812 2.50937557220459
34.089942932128906 -17.66440773010254 2.503872871398926
34.12942123413086 -17.951358795166016 2.494333028793335
34.27952194213867 -18.299705505371094 2.480973243713379
34.3264274597168 -18.596290588378906 2.470947265625
34.25360870361328 -18.829618453979492 2.4648938179016113
30.655017852783203 -17.09734344482422 2.5798871517181396
30.19274139404297 -17.083267211914062 2.588099241256714
34.309165954589844 -19.691083908081055 2.436864137649536
34.248046875 -19.936372756958008 2.43011474609375
34.49507141113281 -20.364572525024414 2.4123992919921875
34.499698638916016 -20.653823852539062 2.4030978679656982
34.439697265625 -20.906036376953125 2.3960156440734863
34.4604606628418 -21.209104537963867 2.385941743850708
34.388057708740234 -21.45659828186035 2.3791515827178955
34.447383880615234 -21.788419723510742 2.367457389831543
34.4492301940918 -22.086708068847656 2.3577520847320557
34.535030364990234 -22.44192886352539 2.34480619430542
34.401554107666016 -22.656648635864258 2.3399407863616943
34.46710205078125 -23.00429344177246 2.3275034427642822
34.675384521484375 -23.452138900756836 2.3094661235809326
34.689823150634766 -23.77344512939453 2.2986435890197754
34.71228790283203 -24.10322380065918 2.287381172180176
30.069095611572266 -21.15396499633789 2.458233594894409
34.817325592041016 -24.814979553222656 2.262080669403076
34.823909759521484 -25.14334487915039 2.2510147094726562
34.83341598510742 -25.476848602294922 2.2396974563598633
34.836917877197266 -25.80903434753418 2.2284841537475586
34.85203552246094 -26.15301513671875 2.216661214828491
34.86662292480469 -26.499963760375977 2.204711675643921
34.893306732177734 -26.859655380249023 2.192113161087036
34.89716720581055 -27.205299377441406 2.1803019046783447
34.91535568237305 -27.565628051757812 2.1677405834198
34.839866638183594 -27.854801177978516 2.1589794158935547
34.69145202636719 -28.08685874938965 2.153228282928467
34.764102935791016 -28.500625610351562 2.1379194259643555
34.85603713989258 -28.935489654541016 2.121562957763672
34.718997955322266 -29.183481216430664 2.1149888038635254
34.8549919128418 -29.664718627929688 2.096312999725342
34.82661056518555 -30.01105499267578 2.0846734046936035
34.95344161987305 -30.49613380432129 2.065924882888794
34.92955017089844 -30.854869842529297 2.0537161827087402
34.80944061279297 -31.131174087524414 2.045731782913208
34.925071716308594 -31.62249183654785 2.0268144607543945
34.97776412963867 -32.06303405761719 2.010535955429077
34.87984085083008 -32.36944580078125 2.0010673999786377
34.95573806762695 -32.84145736694336 1.9832780361175537
36.91116714477539 28.792261123657227 3.0430986881256104
37.11079025268555 28.583599090576172 3.038121223449707
37.54329299926758 28.189800262451172 3.0274817943573
32.56342315673828 24.139389038085938 3.106139898300171
32.183128356933594 23.552949905395508 3.1106390953063965
32.28561019897461 23.32521629333496 3.107292413711548
32.43779754638672 23.133691787719727 3.1030983924865723
32.326393127441406 22.756406784057617 3.103182554244995
32.40620040893555 22.516592025756836 3.100109815597534
32.50407409667969 22.290231704711914 3.0967066287994385
32.43478012084961 21.95142364501953 3.0960350036621094
32.459835052490234 21.679288864135742 3.0937798023223877
32.48862838745117 21.411523818969727 3.091435194015503
32.49859619140625 21.133323669433594 3.0893783569335938
32.61494064331055 20.92546844482422 3.0855109691619873
32.5981559753418 20.6335506439209 3.083848237991333
32.71387481689453 20.426837921142578 3.079925060272217
32.62226104736328 20.092571258544922 3.0794804096221924
32.48505401611328 19.7342472076416 3.0798003673553467
32.60200500488281 19.532543182373047 3.075770616531372
32.67552185058594 19.305227279663086 3.072449207305908
32.7336540222168 19.069686889648438 3.0693588256835938
32.40430450439453 18.612525939941406 3.072934627532959
32.602203369140625 18.461191177368164 3.067384958267212
32.63008499145508 18.21357536315918 3.064746141433716
32.721858978271484 18.00246238708496 3.060965061187744
32.863250732421875 17.818553924560547 3.0562777519226074
33.308746337890625 17.7966365814209 3.046192169189453
44.59417724609375 23.476634979248047 2.84433913230896
44.5322265625 23.096290588378906 2.8423404693603516
44.396060943603516 22.681196212768555 2.841641426086426
44.20201110839844 22.24123191833496 2.8419671058654785
44.02037048339844 21.812496185302734 2.842067241668701
43.9429817199707 21.439449310302734 2.840283155441284
43.82392120361328 21.049558639526367 2.8392341136932373
43.5751953125 20.60210418701172 2.84053111076355
43.492164611816406 20.237382888793945 2.8388099670410156
43.33539581298828 19.841989517211914 2.838423013687134
43.249263763427734 19.482553482055664 2.836729049682617
43.072608947753906 19.08603286743164 2.836693048477173
42.99354934692383 18.736360549926758 2.8348424434661865
42.7923583984375 18.33717918395996 2.835252285003662
42.711368560791016 17.993194580078125 2.8334131240844727
42.60468292236328 17.641332626342773 2.8320412635803223
42.42213439941406 17.261686325073242 2.8320887088775635
42.363731384277344 16.93579864501953 2.8297832012176514
42.248023986816406 16.589717864990234 2.8285489082336426
42.083030700683594 16.227706909179688 2.8282470703125
41.956336975097656 15.883925437927246 2.827207326889038
41.874820709228516 15.560074806213379 2.8252885341644287
41.781517028808594 15.23439884185791 2.823582172393799
41.582252502441406 14.873409271240234 2.823925018310547
41.473541259765625 14.548211097717285 2.8225033283233643
41.387943267822266 14.233687400817871 2.8206167221069336
41.262149810791016 13.907986640930176 2.8195085525512695
41.11399459838867 13.577784538269043 2.8188369274139404
41.05466842651367 13.279467582702637 2.8163952827453613
40.955116271972656 12.97031307220459 2.8147389888763428
40.77787399291992 12.639493942260742 2.8146297931671143
40.73590087890625 12.353128433227539 2.811797618865967
40.6171875 12.045576095581055 2.810497522354126
40.53849411010742 11.752199172973633 2.808375358581543
40.42310333251953 11.450429916381836 2.8069889545440674
40.34794616699219 11.162251472473145 2.804769277572632
40.210933685302734 10.859261512756348 2.8038089275360107
40.40913772583008 10.647295951843262 2.7959020137786865
40.873512268066406 10.50199031829834 2.7823891639709473
41.32887268066406 10.349194526672363 2.7689456939697266
41.785823822021484 10.19167709350586 2.7553505897521973
42.22584533691406 10.025012969970703 2.741992950439453
42.68680953979492 9.85827922821045 2.728073835372925
43.17948532104492 9.693492889404297 2.7133564949035645
43.65512466430664 9.51940631866455 2.6988725662231445
44.183048248291016 9.351025581359863 2.683136224746704
44.67625427246094 9.169485092163086 2.6680097579956055
44.893333435058594 8.927435874938965 2.6587400436401367
44.93240737915039 8.649042129516602 2.6532716751098633
44.95796203613281 8.368309020996094 2.648056983947754
44.87351989746094 8.068121910095215 2.6452219486236572
45.01365661621094 7.808596611022949 2.6374027729034424
45.03987503051758 7.528859615325928 2.632049798965454
45.06040954589844 7.2484588623046875 2.626781463623047
45.084144592285156 6.968852519989014 2.621401786804199
45.11701583862305 6.690840244293213 2.6157727241516113
45.145206451416016 6.412265300750732 2.610206365585327
45.16870880126953 6.1331915855407715 2.604703903198242
45.19940185546875 5.855226993560791 2.5989933013916016
45.22441864013672 5.576625823974609 2.5933690071105957
45.24771499633789 5.297936916351318 2.587740898132324
33.38337326049805 3.7007992267608643 2.8580007553100586
33.40237045288086 3.495633602142334 2.8537437915802
33.42607116699219 3.290961265563965 2.8493423461914062
45.3565788269043 4.1855549812316895 2.5644161701202393
45.39223098754883 3.908189535140991 2.5582706928253174
45.35342788696289 3.624725103378296 2.5538482666015625
45.4374885559082 3.351080894470215 2.546457052230835
45.46403503417969 3.0727627277374268 2.540386438369751
45.48987579345703 2.7943055629730225 2.5342857837677
12.590025901794434 0.6943978071212769 3.327303171157837
45.541419982910156 2.2370409965515137 2.521942377090454
45.569129943847656 1.958278775215149 2.5156502723693848
19.445837020874023 0.7150155901908875 3.153709650039673
12.045565605163574 0.36815863847732544 3.3345565795898438
12.031575202941895 0.29386717081069946 3.333385944366455
12.714787483215332 0.23263798654079437 3.314763307571411
12.67595386505127 0.1541445255279541 3.3141114711761475
12.656631469726562 0.07625975459814072 3.3129642009735107
45.75213623046875 0.00034855687408708036 2.470463514328003
12.767501831054688 -0.07969702035188675 3.306828737258911
12.953660011291504 -0.1602989137172699 3.300363779067993
12.953393936157227 -0.2397758811712265 3.2986464500427246
12.575879096984863 -0.310029000043869 3.306701183319092
12.725580215454102 -0.39181920886039734 3.301098108291626
12.51411247253418 -0.46219712495803833 3.3049068450927734
12.114506721496582 -0.5219380855560303 3.3137166500091553
12.9287691116333 -0.6363620162010193 3.290475606918335
12.899628639221191 -0.7142811417579651 3.2894480228424072
12.83310317993164 -0.7896013855934143 3.2894153594970703
46.05430221557617 -3.112046718597412 2.39375376701355
12.849287986755371 -0.9489665031433105 3.2853264808654785
46.12295150756836 -3.6856536865234375 2.3786823749542236
13.236968040466309 -1.140982985496521 3.2710142135620117
11.929682731628418 -1.1022688150405884 3.305007219314575
11.990307807922363 -1.1820858716964722 3.3015732765197754
12.102093696594238 -1.2680962085723877 3.2966856956481934
12.605717658996582 -1.3990129232406616 3.280806541442871
33.94082260131836 -3.974276304244995 2.6797964572906494
11.691656112670898 -1.4431368112564087 3.3027894496917725
12.724430084228516 -1.6497430801391602 3.271677255630493
12.810108184814453 -1.7408084869384766 3.2672624588012695
13.801681518554688 -1.9617022275924683 3.2368078231811523
12.682890892028809 -1.8822975158691406 3.266918420791626
14.032339096069336 -2.1704137325286865 3.2257542610168457
14.174642562866211 -2.281526803970337 3.219357967376709
13.330195426940918 -2.2297091484069824 3.241842746734619
13.246294021606445 -2.2993111610412598 3.242149591445923
13.261407852172852 -2.3858296871185303 3.239528179168701
13.254338264465332 -2.4685966968536377 3.2375457286834717
12.7942533493042 -2.4642856121063232 3.249133825302124
12.703362464904785 -2.5277140140533447 3.249722719192505
12.619030952453613 -2.5915274620056152 3.250124931335449
33.71378707885742 -7.136033535003662 2.6045234203338623
33.76593017578125 -7.363787651062012 2.597104787826538
33.806793212890625 -7.590260028839111 2.589965343475342
33.81010818481445 -7.80919075012207 2.58392596244812
33.867435455322266 -8.041605949401855 2.57614803314209
33.916385650634766 -8.273361206054688 2.568559408187866
33.92303466796875 -8.495823860168457 2.5622353553771973
33.65910339355469 -8.6495361328125 2.564443826675415
34.04214859008789 -8.970946311950684 2.5460386276245117
34.0490608215332 -9.196537017822266 2.5395147800445557
34.04773712158203 -9.420685768127441 2.533198118209839
34.01513671875 -9.636719703674316 2.5278406143188477
34.02627944946289 -9.865788459777832 2.521007776260376
33.998512268066406 -10.084273338317871 2.515390634536743
33.93109130859375 -10.291187286376953 2.5110363960266113
33.965511322021484 -10.529613494873047 2.503260612487793
34.051639556884766 -10.785746574401855 2.493680477142334
34.06647491455078 -11.02087688446045 2.486403226852417
34.04174041748047 -11.244057655334473 2.4803967475891113
34.01838302612305 -11.468308448791504 2.474289655685425
34.08428955078125 -11.723899841308594 2.4650678634643555
34.05308151245117 -11.947315216064453 2.459101915359497
34.049583435058594 -12.181224822998047 2.4521195888519287
34.05951690673828 -12.421019554138184 2.4446041584014893
34.17552185058594 -12.70142936706543 2.433290958404541
34.3230094909668 -12.996466636657715 2.4207472801208496
34.3105583190918 -13.233016967773438 2.4137511253356934
34.32160949707031 -13.479766845703125 2.4058480262756348
34.33184814453125 -13.727520942687988 2.3978960514068604
34.32830047607422 -13.971010208129883 2.3903634548187256
34.34982681274414 -14.226061820983887 2.3818435668945312
34.37411880493164 -14.483842849731445 2.373136043548584
34.35060119628906 -14.722770690917969 2.3661019802093506
34.38408279418945 -14.98751163482666 2.3568837642669678
34.400978088378906 -15.246736526489258 2.3481898307800293
34.410518646240234 -15.504270553588867 2.3396811485290527
34.4209098815918 -15.763741493225098 2.331052303314209
34.40312957763672 -16.011695861816406 2.32340669631958
34.45587921142578 -16.294198989868164 2.3129820823669434
34.38573455810547 -16.51996421813965 2.3071813583374023
34.35902786254883 -16.76739501953125 2.2996418476104736
34.33952713012695 -17.019556045532227 2.2917444705963135
34.296791076660156 -17.261327743530273 2.284677505493164
34.19987487792969 -17.47638702392578 2.279684543609619
34.090965270996094 -17.685386657714844 2.2751247882843018
34.1930046081543 -18.005451202392578 2.262068748474121
34.300323486328125 -18.331666946411133 2.2486491203308105
34.36186599731445 -18.63652992248535 2.2369320392608643
34.251094818115234 -18.8493709564209 2.2321279048919678
30.625999450683594 -17.100292205810547 2.371969223022461
30.163837432861328 -17.085914611816406 2.3826205730438232
34.24276351928711 -19.674577713012695 2.2039413452148438
34.37250900268555 -20.030668258666992 2.188767194747925
34.48109436035156 -20.378408432006836 2.1743040084838867
34.32524490356445 -20.571556091308594 2.1709282398223877
34.45955276489258 -20.94051742553711 2.155085563659668
34.44596862792969 -21.222787857055664 2.1454336643218994
34.431907653808594 -21.506736755371094 2.1356923580169678
34.32615661621094 -21.734649658203125 2.1298530101776123
34.553627014160156 -22.176881790161133 2.109262228012085
34.515586853027344 -22.452714920043945 2.100196361541748
34.44458770751953 -22.708566665649414 2.0925002098083496
34.4764404296875 -23.034334182739258 2.0800862312316895
34.66943359375 -23.472261428833008 2.0602097511291504
34.70835494995117 -23.81053924560547 2.047112226486206
34.72800827026367 -24.138769149780273 2.0347371101379395
30.030574798583984 -21.14849853515625 2.2408573627471924
34.81524658203125 -24.83864974975586 2.0072832107543945
34.78835678100586 -25.143049240112305 1.9966096878051758
34.817901611328125 -25.49114418029785 1.983129858970642
34.79871368408203 -25.80661392211914 1.9718036651611328
34.822509765625 -26.157014846801758 1.9582679271697998
34.870338439941406 -26.52924156188965 1.9433919191360474
34.87928771972656 -26.875593185424805 1.9302163124084473
34.8624382019043 -27.205217361450195 1.918137788772583
34.90243148803711 -27.582733154296875 1.9030853509902954
34.84469985961914 -27.886211395263672 1.8927115201950073
34.67818832397461 -28.103832244873047 1.887679100036621
34.71347427368164 -28.487159729003906 1.8723630905151367
34.83604049682617 -28.947328567504883 1.8523765802383423
34.8257942199707 -29.30199432373047 1.8389463424682617
34.83531951904297 -29.67705726623535 1.8243067264556885
34.86575698852539 -30.074216842651367 1.8083693981170654
34.92272186279297 -30.4991512298584 1.7908092737197876
34.9211311340332 -30.877595901489258 1.7761098146438599
34.87227249145508 -31.217845916748047 1.7637364864349365
34.92123794555664 -31.649904251098633 1.7459065914154053
34.9838752746582 -32.099945068359375 1.72707200050354
34.8878173828125 -32.4084587097168 1.7166736125946045
34.97417449951172 -32.8908576965332 1.696033000946045
32.34999084472656 30.09446144104004 2.8651716709136963
32.511817932128906 29.87515640258789 2.8617043495178223
32.78618240356445 29.758480072021484 2.855512857437134
32.36648941040039 29.01752471923828 2.8657219409942627
32.430015563964844 28.717681884765625 2.8644168376922607
32.72062683105469 28.61891746520996 2.8576762676239014
37.01749801635742 28.569520950317383 2.754251480102539
37.319984436035156 28.439470291137695 2.746598482131958
32.696773529052734 24.600967407226562 2.855947732925415
32.353370666503906 24.033273696899414 2.8636081218719482
32.24531936645508 23.647520065307617 2.865633487701416
32.200172424316406 23.31207847595215 2.866119861602783
32.336788177490234 23.110042572021484 2.862231969833374
32.3013801574707 22.786760330200195 2.8623993396759033
32.39533615112305 22.5567626953125 2.85943603515625
32.33936309814453 22.224546432495117 2.8600099086761475
32.32688522338867 21.925294876098633 2.859503984451294
32.32109451293945 21.633153915405273 2.858797073364258
32.386356353759766 21.390398025512695 2.8563454151153564
32.30327224731445 21.052135467529297 2.8574116230010986
32.42582702636719 20.84979248046875 2.853498697280884
32.503211975097656 20.618896484375 2.850625991821289
32.53830337524414 20.362375259399414 2.848728656768799
32.55360794067383 20.095170974731445 2.847266912460327
32.428524017333984 19.74432373046875 2.8491592407226562
32.26436996459961 19.3741512298584 2.8519670963287354
32.25175476074219 19.098438262939453 2.8510758876800537
32.44850540161133 18.947118759155273 2.8450632095336914
32.4002685546875 18.6534366607666 2.844957113265991
32.48268508911133 18.436569213867188 2.841634750366211
32.41010665893555 18.13347625732422 2.8420510292053223
32.53114318847656 17.940114974975586 2.8377044200897217
32.76961135864258 17.810400009155273 2.830434560775757
32.99272918701172 17.670406341552734 2.8234827518463135
33.101287841796875 17.468154907226562 2.819291591644287
44.44039535522461 23.10447120666504 2.5384418964385986
44.43076705932617 22.75440788269043 2.5365312099456787
44.14984130859375 22.26981544494629 2.5412821769714355
44.075077056884766 21.8940486907959 2.540905475616455
43.90666580200195 21.475675582885742 2.5428144931793213
43.79063415527344 21.08709144592285 2.5433907508850098
43.586578369140625 20.66048812866211 2.546128034591675
43.516666412353516 20.30143165588379 2.545490264892578
43.36585998535156 19.908145904541016 2.546839475631714
43.221900939941406 19.522001266479492 2.5479896068573
43.15980911254883 19.17612648010254 2.547050714492798
42.981510162353516 18.78211212158203 2.5490055084228516
42.753177642822266 18.37088394165039 2.552201986312866
33.20071792602539 14.025753021240234 2.7916693687438965
33.22786331176758 13.797674179077148 2.78892183303833
33.249755859375 13.568278312683105 2.786271333694458
33.26359176635742 13.336529731750488 2.78378963470459
33.092594146728516 13.032957077026367 2.786003351211548
33.14570999145508 12.819616317749023 2.7824552059173584
41.9425163269043 15.926753044128418 2.553903818130493
41.8350830078125 15.593052864074707 2.553821086883545
41.74485397338867 15.268484115600586 2.5532658100128174
41.61553192138672 14.932442665100098 2.5536952018737793
41.499691009521484 14.604206085205078 2.5537502765655518
41.404083251953125 14.285778999328613 2.553252935409546
41.24174499511719 13.94729995727539 2.5544731616973877
41.16886520385742 13.641851425170898 2.5533299446105957
41.06336975097656 13.327948570251465 2.5530142784118652
40.936527252197266 13.009800910949707 2.553236722946167
40.79874038696289 12.691039085388184 2.5537269115448
40.70928192138672 12.389883995056152 2.5529162883758545
40.63108444213867 12.09429931640625 2.5517783164978027
33.8519287109375 9.850871086120605 2.729471206665039
33.86930465698242 9.630997657775879 2.726262331008911
33.873695373535156 9.408072471618652 2.723365306854248
33.88916778564453 9.188857078552246 2.7201356887817383
33.87713623046875 8.96290111541748 2.7176122665405273
33.88587188720703 8.743183135986328 2.7144930362701416
33.8786506652832 8.520037651062012 2.7117741107940674
33.881614685058594 8.300165176391602 2.7087433338165283
33.891910552978516 8.082662582397461 2.7054765224456787
33.9261360168457 7.871219635009766 2.701517343521118
33.9112548828125 7.648882865905762 2.6988699436187744
33.92617416381836 7.433872222900391 2.6953675746917725
33.93191146850586 7.217301845550537 2.692082643508911
33.939208984375 7.001546859741211 2.688718795776367
33.951011657714844 6.7871479988098145 2.685192108154297
33.96146774291992 6.572867393493652 2.681666374206543
33.96467590332031 6.357610702514648 2.6783077716827393
33.96554183959961 6.142383575439453 2.674978494644165
33.978824615478516 5.929790019989014 2.6712636947631836
33.9828987121582 5.715937614440918 2.667772054672241
33.99647903442383 5.504016399383545 2.6639719009399414
33.99985122680664 5.29075813293457 2.660426139831543
34.00682830810547 5.078403949737549 2.6567399501800537
34.02436065673828 4.867861747741699 2.652712106704712
34.042564392089844 4.657565116882324 2.6486258506774902
34.04063415527344 4.444769382476807 2.645082473754883
34.051265716552734 4.233898162841797 2.6411373615264893
34.057613372802734 4.022712707519531 2.6372785568237305
33.56397247314453 3.7558114528656006 2.6480541229248047
33.533573150634766 3.544282913208008 2.6452553272247314
33.58937072753906 3.3419759273529053 2.6398777961730957
33.656890869140625 3.1403238773345947 2.634103536605835
33.66743087768555 2.9331111907958984 2.6299734115600586
33.67271041870117 2.7255637645721436 2.6259610652923584
33.66773223876953 2.517390727996826 2.6222167015075684
12.62643814086914 0.8665043115615845 3.2524728775024414
33.6948356628418 2.104094982147217 2.613497018814087
33.70598602294922 1.8973067998886108 2.6091465950012207
33.70886993408203 1.6901099681854248 2.6050071716308594
33.721473693847656 1.483431339263916 2.6005303859710693
33.73579788208008 1.276774287223816 2.5959579944610596
19.288007736206055 0.6116926670074463 3.0377140045166016
33.73967361450195 0.8625698089599609 2.5874502658843994
33.75218963623047 0.6557415127754211 2.5828068256378174
33.768436431884766 0.4488576650619507 2.5780017375946045
12.85525131225586 0.09225749224424362 3.229745864868164
12.552677154541016 0.013092183507978916 3.237609386444092
12.708395004272461 -0.06470819562673569 3.2310397624969482
33.79373550415039 -0.3800504505634308 2.559588670730591
33.797630310058594 -0.5874636769294739 2.5549540519714355
12.291236877441406 -0.2888201177120209 3.239313840866089
33.81357955932617 -1.0028266906738281 2.5452888011932373
12.409531593322754 -0.4439898431301117 3.232132911682129
13.022662162780762 -0.5459539294242859 3.210520029067993
33.70912170410156 -1.6210424900054932 2.5346319675445557
12.803306579589844 -0.6941996216773987 3.2140374183654785
12.785788536071777 -0.7719417214393616 3.2127881050109863
12.672061920166016 -0.843122661113739 3.214702606201172
12.884905815124512 -0.9367174506187439 3.2058043479919434
33.9108772277832 -2.675159454345703 2.5036537647247314
13.215909004211426 -1.1239509582519531 3.190934896469116
13.401802062988281 -1.2226203680038452 3.182713747024536
12.182421684265137 -1.1867424249649048 3.2218499183654785
33.92491912841797 -3.515713691711426 2.4828128814697266
12.766892433166504 -1.4020237922668457 3.1982171535491943
12.768919944763184 -1.4815797805786133 3.196166753768921
33.95820617675781 -4.152130126953125 2.465878486633301
13.426708221435547 -1.7251287698745728 3.169435977935791
12.774001121520996 -1.7209701538085938 3.189934492111206
33.99039077758789 -4.7925004959106445 2.4484968185424805
13.325286865234375 -1.962009072303772 3.1664977073669434
13.403823852539062 -2.057666540145874 3.1615476608276367
34.01145553588867 -5.43562126159668 2.4310100078582764
12.43101692199707 -2.0647225379943848 3.191627025604248
12.40230655670166 -2.138221263885498 3.1905517578125
12.49416732788086 -2.233076810836792 3.1851437091827393
29.383268356323242 -5.438447952270508 2.574629783630371
34.03804397583008 -6.5162787437438965 2.401043176651001
33.991390228271484 -6.723788738250732 2.3967671394348145
13.089476585388184 -2.6725058555603027 3.154658079147339
33.641014099121094 -7.084481716156006 2.397531509399414
33.84385299682617 -7.344330787658691 2.383969306945801
33.801902770996094 -7.552669048309326 2.3793535232543945
33.882362365722656 -7.789206027984619 2.3701303005218506
33.93978500366211 -8.021957397460938 2.3616795539855957
33.96552658081055 -8.248394966125488 2.3543388843536377
33.9548454284668 -8.46674633026123 2.3483033180236816
34.00472640991211 -8.701131820678711 2.3399057388305664
34.063636779785156 -8.939238548278809 2.331080913543701
34.079402923583984 -9.16723346710205 2.3238251209259033
34.092689514160156 -9.395492553710938 2.316593885421753
34.09098815917969 -9.620458602905273 2.3098714351654053
34.100284576416016 -9.849365234375 2.3026535511016846
34.09846878051758 -10.075915336608887 2.295799493789673
34.07602310180664 -10.29703140258789 2.2896904945373535
34.0588264465332 -10.520317077636719 2.283311128616333
34.11259460449219 -10.766639709472656 2.2740423679351807
34.13132858276367 -11.00328540802002 2.2660810947418213
34.17596435546875 -11.249627113342285 2.2569973468780518
34.156341552734375 -11.475923538208008 2.250419855117798
34.136165618896484 -11.702727317810059 2.2437994480133057
34.15316390991211 -11.943241119384766 2.2355899810791016
34.13178634643555 -12.171314239501953 2.228874921798706
34.11077117919922 -12.400256156921387 2.222075939178467
34.23065185546875 -12.682167053222656 2.2093467712402344
34.33899688720703 -12.962484359741211 2.196964979171753
34.33325958251953 -13.201571464538574 2.1892483234405518
34.3370475769043 -13.44544792175293 2.181049108505249
34.355831146240234 -13.696529388427734 2.1721246242523193
34.36079025268555 -13.943460464477539 2.1636974811553955
34.36308288574219 -14.190587997436523 2.1552953720092773
34.37099838256836 -14.441362380981445 2.1465609073638916
34.36701965332031 -14.68844985961914 2.138249635696411
34.369544982910156 -14.939614295959473 2.129565954208374
34.43425369262695 -15.219639778137207 2.118051767349243
34.444854736328125 -15.477676391601562 2.108804702758789
34.46085739135742 -15.739734649658203 2.099217653274536
34.45317840576172 -15.992475509643555 2.0905842781066895
34.45182800292969 -16.249549865722656 2.0815725326538086
34.403560638427734 -16.48561668395996 2.074586868286133
34.37884521484375 -16.733951568603516 2.066451072692871
34.40611267089844 -17.009170532226562 2.05584454536438
34.34914016723633 -17.244110107421875 2.0490024089813232
34.23271942138672 -17.449493408203125 2.0448434352874756
34.1363639831543 -17.665122985839844 2.039705276489258
34.24297332763672 -17.98756217956543 2.02498197555542
34.14500427246094 -18.204322814941406 2.0197529792785645
34.26359558105469 -18.538476943969727 2.0041720867156982
34.2602424621582 -18.809370040893555 1.9942400455474854
34.24961471557617 -19.078004837036133 1.9845433235168457
34.389198303222656 -19.43323516845703 1.9674594402313232
34.4086799621582 -19.723814010620117 1.956023097038269
34.3127326965332 -19.949573516845703 1.9501131772994995
34.39087677001953 -20.278423309326172 1.9355437755584717
34.36594009399414 -20.548992156982422 1.9259183406829834
34.18434143066406 -20.726255416870117 1.9240124225616455
34.510833740234375 -21.21495819091797 1.89652419090271
34.44425582885742 -21.466411590576172 1.8885962963104248
34.350555419921875 -21.701839447021484 1.881958246231079
34.54551696777344 -22.1228084564209 1.8604320287704468
34.422332763671875 -22.343002319335938 1.8550634384155273
34.52977752685547 -22.715158462524414 1.8376432657241821
34.46187210083008 -22.974754333496094 1.8291797637939453
34.64704895019531 -23.40662384033203 1.807276964187622
34.706199645996094 -23.758106231689453 1.7917755842208862
34.7680778503418 -24.11517333984375 1.7759284973144531
30.02964210510254 -21.102649688720703 2.018042802810669
34.84022903442383 -24.804101943969727 1.7464104890823364
34.8241081237793 -25.11610984802246 1.7342095375061035
34.8433723449707 -25.45655059814453 1.7199079990386963
34.8428955078125 -25.78569221496582 1.706510066986084
34.865264892578125 -26.134952545166016 1.6916630268096924
34.8814697265625 -26.483041763305664 1.6769649982452393
34.88440704345703 -26.824390411376953 1.6628201007843018
34.90574264526367 -27.18334197998047 1.6474381685256958
34.92162322998047 -27.541706085205078 1.6321600675582886
34.885231018066406 -27.86200523376465 1.6196900606155396
34.74524688720703 -28.10122299194336 1.6130752563476562
34.703330993652344 -28.421428680419922 1.6006333827972412
34.91561508178711 -28.955163955688477 1.5730234384536743
34.877071380615234 -29.286352157592773 1.5599255561828613
34.903499603271484 -29.675743103027344 1.542755126953125
34.899192810058594 -30.0430908203125 1.5271940231323242
34.938377380371094 -30.452198028564453 1.50876784324646
34.876468658447266 -30.776981353759766 1.4962682723999023
34.946720123291016 -31.222614288330078 1.4754316806793213
34.98686981201172 -31.646806716918945 1.4561607837677002
34.99953842163086 -32.05106735229492 1.4383277893066406
34.97266387939453 -32.423397064208984 1.4227293729782104
34.994964599609375 -32.84581756591797 1.4037680625915527
32.32936477661133 30.077239990234375 2.580458879470825
32.47853469848633 29.84656524658203 2.577594757080078
32.503211975097656 29.503652572631836 2.578699827194214
32.45867156982422 29.102170944213867 2.581963300704956
32.42390441894531 28.714282989501953 2.584821939468384
32.56695556640625 28.486543655395508 2.5818545818328857
32.58815383911133 28.15421485900879 2.5827484130859375
32.60193634033203 27.818809509277344 2.5838022232055664
32.61132049560547 27.483009338378906 2.5849201679229736
32.61550521850586 27.14622688293457 2.5861287117004395
32.63378143310547 26.82439613342285 2.5868098735809326
32.63847732543945 26.494548797607422 2.5878517627716064
32.63178634643555 26.158777236938477 2.5891849994659424
32.67628860473633 25.866901397705078 2.588809013366699
32.68693923950195 25.550840377807617 2.5894455909729004
32.697322845458984 25.23746109008789 2.5900213718414307
32.68919372558594 24.912797927856445 2.5911178588867188
32.69749450683594 24.603614807128906 2.5916223526000977
32.305213928222656 23.999574661254883 2.604810953140259
32.19052505493164 23.609399795532227 2.6090877056121826
32.21640396118164 23.325895309448242 2.608826160430908
32.32054138183594 23.100513458251953 2.60601544380188
32.28752517700195 22.779067993164062 2.607501745223999
32.31085968017578 22.500030517578125 2.607135534286499
32.38059616088867 22.254976272583008 2.6052358150482178
32.413795471191406 21.98634147644043 2.604435920715332
32.375972747802734 21.671985626220703 2.6058309078216553
32.30132293701172 21.336336135864258 2.608334541320801
32.30082702636719 21.052640914916992 2.6084272861480713
32.425872802734375 20.851940155029297 2.604480266571045
32.51337814331055 20.627470016479492 2.6016671657562256
32.585792541503906 20.39422607421875 2.599275588989258
32.38523483276367 19.99335479736328 2.6054904460906982
32.34236145019531 19.6939754486084 2.606647253036499
32.37502670288086 19.44271469116211 2.6053521633148193
32.42560577392578 19.203514099121094 2.6034340858459473
32.34758758544922 18.890316009521484 2.6055471897125244
32.467063903808594 18.694026947021484 2.601332902908325
32.50537109375 18.451581954956055 2.599644422531128
32.65009689331055 18.269901275634766 2.594517469406128
32.710662841796875 18.04127311706543 2.5920121669769287
32.845176696777344 17.853647232055664 2.587099552154541
32.98479080200195 17.668350219726562 2.581967353820801
33.04291915893555 17.439552307128906 2.579376697540283
33.03740692138672 17.17842674255371 2.5787644386291504
33.053951263427734 16.930328369140625 2.5773985385894775
33.056209564208984 16.676374435424805 2.5764386653900146
33.0843505859375 16.43681526184082 2.574601650238037
33.075782775878906 16.18040657043457 2.573889970779419
33.10493850708008 15.94381046295166 2.571920394897461
33.11979675292969 15.701469421386719 2.570359945297241
33.1220588684082 15.454476356506348 2.56915545463562
33.125267028808594 15.209298133850098 2.567873239517212
33.145851135253906 14.973304748535156 2.5659844875335693
33.162044525146484 14.73641300201416 2.5641884803771973
33.169254302978516 14.496684074401855 2.5626344680786133
33.18028259277344 14.259790420532227 2.5609097480773926
33.189659118652344 14.023307800292969 2.559191942214966
33.1844596862793 13.781878471374512 2.5579004287719727
33.20531463623047 13.552372932434082 2.555717706680298
33.229244232177734 13.324991226196289 2.553387403488159
33.091678619384766 13.034815788269043 2.5562655925750732
33.130794525146484 12.816072463989258 2.5533535480499268
33.59363555908203 12.758816719055176 2.536562204360962
33.690799713134766 12.55983829498291 2.5316338539123535
33.72858810424805 12.338855743408203 2.5285940170288086
33.734832763671875 12.107075691223145 2.526540994644165
33.747047424316406 11.878340721130371 2.524245023727417
33.753944396972656 11.648605346679688 2.522078275680542
33.76213836669922 11.420193672180176 2.5198237895965576
33.77069854736328 11.192749977111816 2.5175118446350098
33.78630065917969 10.968405723571777 2.5149216651916504
33.79851150512695 10.743688583374023 2.5123977661132812
33.807334899902344 10.518637657165527 2.5099401473999023
33.81467056274414 10.293885231018066 2.507488250732422
33.817649841308594 10.068581581115723 2.5051355361938477
33.83641052246094 9.848654747009277 2.502211570739746
33.8460578918457 9.626690864562988 2.4995455741882324
33.859073638916016 9.406316757202148 2.49672269821167
33.8658332824707 9.184835433959961 2.4940640926361084
33.8643913269043 8.961835861206055 2.4916369915008545
33.86729431152344 8.740696907043457 2.4890198707580566
33.89396286010742 8.526199340820312 2.4855542182922363
33.91636276245117 8.310989379882812 2.482184410095215
33.910179138183594 8.08933162689209 2.479741096496582
33.90352249145508 7.868287563323975 2.4772703647613525
33.90518569946289 7.649828910827637 2.474473237991333
33.92301559448242 7.435497283935547 2.4710772037506104
33.94145202636719 7.22165060043335 2.4676146507263184
33.9458122253418 7.005229949951172 2.4645888805389404
33.9605598449707 6.791379451751709 2.46116042137146
33.97101974487305 6.577041149139404 2.457834005355835
33.97226333618164 6.361357688903809 2.454780101776123
33.980995178222656 6.147508144378662 2.451422691345215
33.98937225341797 5.933960437774658 2.4480319023132324
34.0042839050293 5.721867561340332 2.4443657398223877
34.017879486083984 5.509814262390137 2.4406991004943848
34.0202751159668 5.296272277832031 2.4373788833618164
34.02034378051758 5.082759380340576 2.434095859527588
34.03391647338867 4.871568202972412 2.4302895069122314
34.042213439941406 4.6598591804504395 2.4266233444213867
34.05018615722656 4.448359966278076 2.422922372817993
34.05585479736328 4.236814022064209 2.4192557334899902
34.07013702392578 4.026538848876953 2.4152348041534424
33.555747985839844 3.7571916580200195 2.430119276046753
33.528324127197266 3.546027183532715 2.427556276321411
33.58608627319336 3.3439550399780273 2.421882152557373
33.638648986816406 3.140934705734253 2.416337251663208
33.660118103027344 2.9347896575927734 2.4118642807006836
33.66438674926758 2.7272074222564697 2.4079666137695312
33.67235565185547 2.5200555324554443 2.403886318206787
33.68403244018555 2.3132498264312744 2.3996217250823975
33.6944465637207 2.1063947677612305 2.3953545093536377
12.593404769897461 0.7094898819923401 3.169036865234375
33.71343994140625 1.6926681995391846 2.3867392539978027
33.71205520629883 1.4853476285934448 2.382761001586914
33.74234390258789 1.2793567180633545 2.377556562423706
19.297760009765625 0.6129863262176514 2.912686347961426
33.74119567871094 0.864946722984314 2.3692924976348877
33.75969314575195 0.6582285761833191 2.3643712997436523
33.76193618774414 0.4511145055294037 2.3600099086761475
12.898385047912598 0.0929541364312172 3.145094633102417
12.881667137145996 0.013812330551445484 3.144057512283325
33.78102111816406 -0.17031891644001007 2.3461530208587646
12.7078857421875 -0.14229291677474976 3.1473042964935303
33.799041748046875 -0.5851326584815979 2.3364527225494385
33.79964828491211 -0.7925681471824646 2.331845998764038
12.448240280151367 -0.36858120560646057 3.1521668434143066
33.822998046875 -1.2084498405456543 2.321619987487793
12.558476448059082 -0.5261178612709045 3.1444058418273926
11.687614440917969 -0.5615059733390808 3.1766395568847656
13.366140365600586 -0.7242951393127441 3.1091649532318115
12.834744453430176 -0.7745094895362854 3.12813663482666
12.816729545593262 -0.8523641228675842 3.1269679069519043
33.885169982910156 -2.4616823196411133 2.289907932281494
33.8812141418457 -2.6704351902008057 2.284992218017578
13.1471586227417 -1.1176804304122925 3.1080141067504883
12.202627182006836 -1.1128535270690918 3.1438732147216797
12.215401649475098 -1.189621925354004 3.1414718627929688
12.126317024230957 -1.2560920715332031 3.143162250518799
12.754981994628906 -1.4003288745880127 3.115745782852173
33.939605712890625 -3.9362831115722656 2.251004457473755
33.93943786621094 -4.147429943084717 2.2455332279205322
13.500861167907715 -1.734199047088623 3.0789523124694824
13.430487632751465 -1.808982491493225 3.0796263217926025
33.962703704833984 -4.786180019378662 2.2277791500091553
11.806754112243652 -1.7380753755569458 3.142587900161743
33.98303985595703 -5.215053558349609 2.2154271602630615
34.01830291748047 -5.434287071228027 2.208102226257324
34.01174545288086 -5.647439956665039 2.2024617195129395
34.01271057128906 -5.862245559692383 2.196441650390625
13.556356430053711 -2.4224865436553955 3.0581064224243164
13.525450706481934 -2.5026895999908447 3.056988477706909
34.04179000854492 -6.514551639556885 2.1768758296966553
33.94023513793945 -6.711230278015137 2.1749956607818604
33.8835563659668 -6.9163007736206055 2.171149969100952
33.84323501586914 -7.124634742736816 2.1665492057800293
33.843624114990234 -7.3418426513671875 2.160125255584717
33.78605651855469 -7.546692371368408 2.15616512298584
33.86357498168945 -7.782440185546875 2.1462273597717285
33.90737533569336 -8.011841773986816 2.137676239013672
33.98555374145508 -8.250794410705566 2.1275134086608887
34.015541076660156 -8.479409217834473 2.1193923950195312
