# .PCD v0.7 - Point Cloud Data file format
VERSION 0.7
FIELDS x y z
SIZE 4 4 4
TYPE F F F
COUNT 1 1 1
WIDTH 853
HEIGHT 1
VIEWPOINT 0 0 0 1 0 0 0
POINTS 853
DATA ascii
15.658005714416504 -2.6384570598602295 0.3587826192378998
16.0568904876709 -2.8071322441101074 0.2695489823818207
15.963586807250977 -2.993211507797241 0.27726560831069946
16.005056381225586 -3.1027984619140625 0.2623940408229828
16.063060760498047 -3.2164697647094727 0.24385897815227509
16.038753509521484 -3.314127206802368 0.2425500899553299
16.07227325439453 -3.4240570068359375 0.22886058688163757
16.064870834350586 -3.5257081985473633 0.2236904799938202
16.052051544189453 -3.6263210773468018 0.21953517198562622
16.051952362060547 -3.7300145626068115 0.21253184974193573
12.684429168701172 12.60424518585205 0.16988463699817657
12.61534309387207 12.383182525634766 0.20792272686958313
12.652571678161621 12.268685340881348 0.2166559100151062
13.006165504455566 11.86182689666748 0.21258476376533508
13.038864135742188 11.746367454528809 0.2212914228439331
13.061841011047363 11.62312126159668 0.23229087889194489
13.07863998413086 11.495497703552246 0.24463026225566864
13.124756813049316 11.394487380981445 0.24913185834884644
13.144797325134277 11.271617889404297 0.26013535261154175
13.183302879333496 11.165422439575195 0.26616403460502625
13.192394256591797 11.035248756408691 0.2794688045978546
13.240493774414062 10.938511848449707 0.2826223075389862
13.277256965637207 10.832913398742676 0.2884554862976074
13.303291320800781 10.719266891479492 0.29677996039390564
13.336114883422852 10.611818313598633 0.3031862676143646
13.368895530700684 10.504974365234375 0.3093993663787842
13.407846450805664 10.40354061126709 0.3138827979564667
13.441385269165039 10.298442840576172 0.3195163309574127
13.479620933532715 10.197465896606445 0.3238023519515991
13.517910957336426 10.096993446350098 0.3278929889202118
13.555476188659668 9.996432304382324 0.3319811224937439
13.583593368530273 9.889435768127441 0.33818483352661133
13.621270179748535 9.789912223815918 0.3418833613395691
13.655036926269531 9.68802547454834 0.34634989500045776
13.693694114685059 9.590032577514648 0.3494647145271301
13.751036643981934 9.505317687988281 0.34794408082962036
13.79171085357666 9.286083221435547 0.36207321286201477
13.852898597717285 9.204588890075684 0.3591848611831665
13.88078498840332 9.101171493530273 0.3640233278274536
13.88980484008789 8.986031532287598 0.37311747670173645
13.955825805664062 8.908071517944336 0.368663489818573
13.970770835876465 8.797749519348145 0.376014769077301
14.039891242980957 8.721742630004883 0.37057650089263916
14.038339614868164 8.602161407470703 0.38141581416130066
14.092105865478516 8.516922950744629 0.37926185131073
14.125972747802734 8.419794082641602 0.3815648555755615
14.154951095581055 8.32008171081543 0.38483622670173645
14.199365615844727 8.22967529296875 0.38441312313079834
14.215949058532715 8.12346076965332 0.39020657539367676
14.356583595275879 7.972304821014404 0.3768808841705322
14.465888023376465 7.917547702789307 0.3612397313117981
15.726842880249023 0.5537742972373962 0.3584712743759155
12.900545120239258 -0.6542609930038452 0.9210789799690247
12.853928565979004 -0.730976939201355 0.9282407760620117
12.860573768615723 -0.8105312585830688 0.9240869879722595
16.171852111816406 -1.6184158325195312 0.2022903561592102
16.004541397094727 -1.7009207010269165 0.23346839845180511
15.831006050109863 -1.7807815074920654 0.26593056321144104
15.752317428588867 -1.869879961013794 0.278140664100647
15.874080657958984 -1.9831817150115967 0.2474752962589264
15.817530632019043 -2.0747716426849365 0.2547195553779602
15.977543830871582 -2.195570230484009 0.21550239622592926
15.946873664855957 -2.2911500930786133 0.21693040430545807
15.829537391662598 -2.373532295227051 0.2368517816066742
15.769784927368164 -2.4636216163635254 0.2443295568227768
15.935445785522461 -2.5897793769836426 0.20315249264240265
16.041303634643555 -2.7081329822540283 0.17462371289730072
16.044174194335938 -2.8100011348724365 0.16813728213310242
16.123384475708008 -2.925977945327759 0.14497806131839752
16.031627655029297 -3.0110840797424316 0.1586972177028656
15.983604431152344 -3.103752374649048 0.1628413200378418
15.996417999267578 -3.208254098892212 0.1536349356174469
15.99130916595459 -3.309465169906616 0.14818185567855835
15.966431617736816 -3.406656503677368 0.14690609276294708
12.661514282226562 12.277260780334473 0.10881520062685013
13.767012596130371 9.641538619995117 0.2312755584716797
13.801275253295898 9.54021167755127 0.23551209270954132
13.793659210205078 9.287568092346191 0.26207318902015686
13.840145111083984 9.196293830871582 0.26273155212402344
13.848334312438965 9.080078125 0.27254053950309753
13.8959379196167 8.990191459655762 0.27259528636932373
13.950392723083496 8.904806137084961 0.2708507478237152
14.065485000610352 8.619016647338867 0.2763475179672241
14.113469123840332 8.53006362915039 0.27557626366615295
14.173514366149902 8.448369979858398 0.2718023657798767
14.217883110046387 8.357318878173828 0.27161645889282227
14.248953819274902 8.258668899536133 0.27442505955696106
14.29891586303711 8.171130180358887 0.2726288139820099
16.208518981933594 0.7704055905342102 0.16323736310005188
15.737032890319824 0.5546346306800842 0.2616889178752899
12.851839065551758 -0.7305902242660522 0.8512572646141052
12.862364768981934 -0.8103746175765991 0.8461897373199463
15.838052749633789 -1.9781522750854492 0.1590975821018219
15.757357597351074 -2.0663576126098633 0.17192424833774567
15.807823181152344 -2.171724557876587 0.15578804910182953
15.802459716796875 -2.2698771953582764 0.15178997814655304
15.821602821350098 -2.371812343597412 0.14224353432655334
15.91344928741455 -2.4855220317840576 0.11646423488855362
15.770071983337402 -2.661822557449341 0.13685539364814758
13.773357391357422 9.266990661621094 0.1741691380739212
13.846625328063965 9.1937255859375 0.1681535840034485
13.877755165100098 9.09254264831543 0.1725478321313858
13.887616157531738 8.978032112121582 0.18205130100250244
13.951062202453613 8.898490905761719 0.17805764079093933
13.984232902526855 8.799734115600586 0.18142172694206238
14.073991775512695 8.266256332397461 0.2142118215560913
15.746992111206055 0.5498784184455872 0.17027238011360168
12.86166000366211 -0.7354711294174194 0.7759977579116821
12.85556411743164 -0.8142717480659485 0.7745309472084045
15.66602897644043 -1.8642690181732178 0.11189331859350204
15.663524627685547 -1.9615192413330078 0.10765422135591507
15.627522468566895 -2.0544910430908203 0.11083366721868515
12.856122970581055 -0.7203056812286377 0.6975499987602234
12.850111961364746 -0.7990729212760925 0.6960898041725159
12.84735107421875 -0.726169764995575 0.6166117787361145
12.871414184570312 -0.8067688941955566 0.6080723404884338
12.842029571533203 -0.7232890725135803 0.5373966693878174
12.853446006774902 -0.803057849407196 0.5317316651344299
12.827438354492188 -0.724574089050293 0.4696398973464966
12.842693328857422 -0.8044953346252441 0.46293237805366516
12.827088356018066 -0.7142500281333923 0.39158323407173157
12.83946704864502 -0.7939748167991638 0.38549351692199707
12.827692985534668 -0.7160751223564148 0.30545327067375183
12.8390531539917 -0.7957426309585571 0.2995051145553589
12.824904441833496 -0.7133753299713135 0.2272825837135315
12.873867988586426 -0.7953397035598755 0.21122945845127106
12.81396484375 -0.7171449065208435 0.16045883297920227
12.884981155395508 -0.8004246354103088 0.13811640441417694
13.62352180480957 13.800532341003418 0.14482101798057556
12.663623809814453 12.739070892333984 1.2910443544387817
12.685009956359863 12.672012329101562 1.2941313982009888
12.790067672729492 12.777275085449219 0.3703441917896271
12.702131271362305 12.605430603027344 1.29756760597229
12.795412063598633 12.698378562927246 0.3784591853618622
12.719365119934082 12.534914016723633 1.3012653589248657
12.679744720458984 12.496329307556152 0.4164166748523712
12.743355751037598 12.471372604370117 1.303740382194519
12.730083465576172 12.458909034729004 0.41382285952568054
12.75993824005127 12.400896072387695 1.3074383735656738
12.783327102661133 12.337348937988281 1.3099122047424316
12.806770324707031 12.269837379455566 1.3126473426818848
31.05093002319336 29.54865837097168 0.33252817392349243
12.825971603393555 12.202848434448242 1.315732717514038
31.07569694519043 29.366497039794922 0.33828285336494446
12.846668243408203 12.137578010559082 1.318511724472046
31.0613956451416 29.148696899414062 0.34791478514671326
12.865255355834961 12.0706148147583 1.3215968608856201
12.897235870361328 12.101526260375977 0.43020734190940857
32.34001159667969 30.14628028869629 2.399608612060547
31.05550765991211 28.950374603271484 0.35618624091148376
12.881446838378906 12.005915641784668 1.324726939201355
12.92445182800293 12.046960830688477 0.43234455585479736
32.41375732421875 30.004383087158203 2.3984017372131348
31.1378116607666 28.82489585876465 0.3558574616909027
12.908530235290527 11.947417259216309 1.326278567314148
12.946293830871582 11.983393669128418 0.43614739179611206
32.470340728759766 29.847110748291016 2.3977513313293457
31.234304428100586 28.712692260742188 0.3540440797805786
12.926227569580078 11.880481719970703 1.3293631076812744
12.969666481018066 11.921489715576172 0.43952131271362305
32.53360366821289 29.696550369262695 2.396850347518921
31.295406341552734 28.568235397338867 0.35573810338974
12.950950622558594 11.820257186889648 1.3312195539474487
12.98548698425293 11.852922439575195 0.4446077346801758
32.55691909790039 29.499956130981445 2.397336721420288
12.971932411193848 11.7527437210083 1.3339513540267944
13.012161254882812 11.790393829345703 0.44750669598579407
32.52581024169922 29.265806198120117 2.399573564529419
13.06335735321045 11.756067276000977 2.1941423416137695
12.992410659790039 11.689160346984863 1.336421012878418
13.031020164489746 11.725157737731934 0.45173609256744385
32.48041915893555 29.02057647705078 2.4022622108459473
13.072596549987793 11.682173728942871 2.1963768005371094
13.014453887939453 11.627228736877441 1.3385827541351318
13.055097579956055 11.664856910705566 0.4546792209148407
32.467369079589844 28.805877685546875 2.403827428817749
13.087075233459473 11.613324165344238 2.1980559825897217
13.038081169128418 11.566934585571289 1.3404362201690674
13.077070236206055 11.602895736694336 0.45805051922798157
32.511985778808594 28.653474807739258 2.4033660888671875
13.108573913574219 11.555041313171387 2.1988532543182373
13.0557222366333 11.505611419677734 1.3429502248764038
13.091222763061523 11.538320541381836 0.4627535343170166
32.585365295410156 28.516799926757812 2.4019668102264404
13.129953384399414 11.49281120300293 2.19978928565979
13.08069133758545 11.446919441223145 1.3444948196411133
13.118203163146973 11.48122501373291 0.4648364782333374
32.59287643432617 28.333194732666016 2.4027085304260254
13.156597137451172 11.439409255981445 2.2000274658203125
13.097814559936523 11.385598182678223 1.347008228302002
13.13181209564209 11.416679382324219 0.4695396423339844
32.5949821472168 28.136003494262695 2.4036593437194824
13.168027877807617 11.368996620178223 2.201892614364624
13.116640090942383 11.321998596191406 1.3494750261306763
13.154561042785645 11.35631275177002 0.47247982025146484
32.60179901123047 27.94401741027832 2.4044229984283447
13.188591957092285 11.306754112243652 2.2028274536132812
13.142720222473145 11.264863967895508 1.350709319114685
13.180791854858398 11.299132347106934 0.4745602309703827
32.61529541015625 27.758808135986328 2.404937505722046
13.212678909301758 11.247737884521484 2.2033894062042236
13.157224655151367 11.198040008544922 1.3537919521331787
13.195531845092773 11.232327461242676 0.4792165160179138
32.621246337890625 27.558475494384766 2.40572452545166
13.23465347290039 11.1831636428833 2.2042763233184814
13.188517570495605 11.141756057739258 1.3543610572814941
13.22507095336914 11.174379348754883 0.4808189868927002
32.63861846923828 27.378620147705078 2.406055212020874
13.254398345947266 11.120893478393555 2.205209493637085
13.206244468688965 11.078137397766113 1.3568264245986938
13.243000030517578 11.110760688781738 0.48461565375328064
32.651302337646484 27.195777893066406 2.406517744064331
13.277700424194336 11.061810493469238 2.2057690620422363
13.223689079284668 11.014528274536133 1.359291434288025
13.270110130310059 11.055034637451172 0.4862616956233978
32.670814514160156 27.019554138183594 2.406726837158203
13.296910285949707 10.999524116516113 2.2067012786865234
13.242762565612793 10.952512741088867 1.3614475727081299
13.293196678161621 10.996113777160645 0.48876717686653137
32.674041748046875 26.830839157104492 2.4074547290802
13.31969928741455 10.940401077270508 2.207259178161621
13.259648323059082 10.888924598693848 1.3639124631881714
13.312230110168457 10.934041976928711 0.4921317398548126
32.705406188964844 26.666120529174805 2.4072184562683105
13.336442947387695 10.876527786254883 2.2083775997161865
13.291635513305664 10.837891578674316 1.3639036417007446
13.336714744567871 10.87663745880127 0.4942052960395813
32.69328689575195 26.466917037963867 2.408409595489502
13.352903366088867 10.81266975402832 2.209495782852173
13.306071281433105 10.772719383239746 1.366676926612854
13.353307723999023 10.812997817993164 0.4979993402957916
32.69965362548828 26.283777236938477 2.4089579582214355
13.378796577453613 10.75663948059082 2.209677219390869
13.33375358581543 10.718457221984863 1.3672839403152466
13.371538162231445 10.75091552734375 0.5013628005981445
32.70773696899414 26.09364891052246 2.409461498260498
13.404373168945312 10.69666576385498 2.2099974155426025
13.349493980407715 10.650973320007324 1.3700093030929565
13.39712905883789 10.691109657287598 0.5033867359161377
32.72602844238281 25.921939849853516 2.4095635414123535
13.423932075500488 10.635896682739258 2.2107391357421875
13.372804641723633 10.593549728393555 1.3712338209152222
13.414826393127441 10.629014015197754 0.5067492127418518
32.68458557128906 25.70407485961914 2.4116289615631104
13.44518756866455 10.576659202575684 2.2112927436828613
13.393928527832031 10.534558296203613 1.3727668523788452
13.438058853149414 10.571490287780762 0.5088182091712952
32.70650863647461 25.546348571777344 2.411529779434204
13.45650863647461 10.513617515563965 2.212644577026367
13.416894912719727 10.48094367980957 1.3737266063690186
13.453410148620605 10.511734008789062 0.5122273564338684
32.732177734375 25.383054733276367 2.411315679550171
13.485135078430176 10.46048641204834 2.212445020675659
13.443424224853516 10.42646598815918 1.3743276596069336
13.47421932220459 10.45266056060791 0.514726459980011
32.757102966308594 25.21988868713379 2.4111039638519287
13.505653381347656 10.401201248168945 2.212996482849121
13.457941055297852 10.3628511428833 1.3767889738082886
13.48697280883789 10.387557029724121 0.5189507007598877
32.767391204833984 25.046236038208008 2.411355495452881
13.527905464172363 10.343414306640625 2.2133588790893555
13.482034683227539 10.306792259216309 1.3776984214782715
13.509218215942383 10.329974174499512 0.5210171341896057
32.77886199951172 24.87433433532715 2.4115452766418457
13.54991626739502 10.285595893859863 2.2137203216552734
13.49404525756836 10.24169635772705 1.380469560623169
13.533191680908203 10.273847579956055 0.5226507186889648
32.77954864501953 24.69513511657715 2.412069797515869
13.569698333740234 10.226252555847168 2.2142693996429443
13.519632339477539 10.187088012695312 1.381066918373108
13.54906940460205 10.211750984191895 0.5260108709335327
32.75336456298828 24.496774673461914 2.413461446762085
13.585240364074707 10.163908004760742 2.215195655822754
13.535073280334473 10.124998092651367 1.3832165002822876
13.582425117492676 10.162943840026855 0.5254828929901123
32.73222351074219 24.30337142944336 2.4146628379821777
13.606515884399414 10.106039047241211 2.21555495262146
13.552236557006836 10.064401626586914 1.3850555419921875
13.597813606262207 10.100813865661621 0.5288416743278503
32.599639892578125 24.020206451416016 2.419555425643921
13.631307601928711 10.04724407196045 2.2156760692596436
13.578868865966797 10.007328033447266 1.385601282119751
13.624585151672363 10.043628692626953 0.5299909114837646
32.43507385253906 23.72483253479004 2.4254562854766846
13.646068572998047 9.984901428222656 2.2166011333465576
13.597527503967285 9.948172569274902 1.3871279954910278
13.633493423461914 9.977132797241211 0.534646213054657
32.462982177734375 23.571855545043945 2.4249610900878906
13.666606903076172 9.926968574523926 2.216958522796631
13.623971939086914 9.894840240478516 1.3874082565307617
13.64409351348877 9.912142753601074 0.5388699769973755
32.51454544067383 23.436508178710938 2.4236624240875244
13.682866096496582 9.866101264953613 2.217693567276001
13.644170761108398 9.837089538574219 1.3886216878890991
13.670387268066406 9.858719825744629 0.5396325588226318
32.504608154296875 23.266040802001953 2.424358606338501
13.709324836730957 9.816336631774902 2.217339515686035
13.658400535583496 9.778816223144531 1.3905059099197388
13.68276309967041 9.799023628234863 0.543039083480835
32.56106948852539 23.135101318359375 2.4228575229644775
13.727139472961426 9.756887435913086 2.217883825302124
13.68823528289795 9.728227615356445 1.390159249305725
13.6745023727417 9.721271514892578 0.5511605739593506
32.56391143798828 22.96660041809082 2.423107624053955
13.744708061218262 9.697434425354004 2.218427896499634
13.70167064666748 9.666111946105957 1.3923057317733765
13.718179702758789 9.6806001663208 0.5480230450630188
32.60271453857422 22.81560516357422 2.422165632247925
13.77391529083252 9.642720222473145 2.2179720401763916
13.728696823120117 9.610161781311035 1.392531394958496
13.70895004272461 9.59921932220459 0.5565318465232849
32.60405731201172 22.647520065307617 2.4224228858947754
13.791004180908203 9.583221435546875 2.2185146808624268
13.74772834777832 9.552294731140137 1.3937408924102783
13.734053611755371 9.545710563659668 0.5572908520698547
32.60236358642578 22.469757080078125 2.422773599624634
13.81566047668457 9.525555610656738 2.2184362411499023
13.768171310424805 9.492011070251465 1.3949004411697388
13.772757530212402 9.49813175201416 0.5553979277610779
32.51985168457031 22.254295349121094 2.425743579864502
13.832670211791992 9.469849586486816 2.2188360691070557
13.787127494812012 9.43791675567627 1.39584481716156
13.899441719055176 9.517801284790039 0.5340802669525146
32.53520965576172 22.098552703857422 2.425475597381592
13.851099014282227 9.411720275878906 2.2191860675811768
13.813663482666016 9.385575294494629 1.395801305770874
14.164495468139648 9.627001762390137 0.48362627625465393
32.564697265625 21.961227416992188 2.424711227416992
13.871794700622559 9.358782768249512 2.219203472137451
13.82809829711914 9.328639030456543 1.397369623184204
14.200199127197266 9.582756042480469 0.48179998993873596
32.603675842285156 21.82243537902832 2.423624277114868
13.889768600463867 9.300614356994629 2.2195520401000977
13.852161407470703 9.27481460571289 1.3976364135742188
14.057392120361328 9.415345191955566 0.5181282162666321
32.54423141479492 21.618648529052734 2.425765037536621
13.919964790344238 9.250711441040039 2.2187535762786865
13.87188720703125 9.218192100524902 1.3985278606414795
13.92180061340332 9.254499435424805 0.5527417063713074
32.48585510253906 21.41691780090332 2.427849054336548
13.937494277954102 9.192475318908691 2.2191002368927
13.88724422454834 9.158812522888184 1.4000455141067505
13.939399719238281 9.196381568908691 0.5547910928726196
32.43853759765625 21.215673446655273 2.4295551776885986
13.964719772338867 9.137256622314453 2.2186310291290283
13.908085823059082 9.099725723266602 1.4008862972259521
13.954227447509766 9.133125305175781 0.557659387588501
32.428436279296875 21.04792594909668 2.430006980895996
13.98178482055664 9.078969955444336 2.2189760208129883
13.925033569335938 9.041690826416016 1.402089238166809
13.9630765914917 9.069634437561035 0.5614465475082397
32.46799087524414 20.912982940673828 2.4288015365600586
14.002806663513184 9.023378372192383 2.2189371585845947
13.952171325683594 8.990363121032715 1.4017232656478882
13.99855899810791 9.02353286743164 0.5595808029174805
32.522335052490234 20.79580307006836 2.42708683013916
14.015748977661133 8.966165542602539 2.2195229530334473
13.967120170593262 8.934713363647461 1.402974247932434
13.999151229858398 8.958510398864746 0.5647231340408325
32.59251403808594 20.680845260620117 2.424834728240967
14.040538787841797 8.91319751739502 2.2190983295440674
13.995957374572754 8.88459587097168 1.4022912979125977
14.0217924118042 8.904336929321289 0.565464198589325
32.605186462402344 20.529701232910156 2.424459218978882
14.0651273727417 8.860163688659668 2.218672513961792
14.01832103729248 8.830421447753906 1.4025487899780273
14.01506519317627 8.831743240356445 0.5722994208335876
32.623558044433594 20.382694244384766 2.4238767623901367
14.081064224243164 8.801783561706543 2.2190139293670654
14.036270141601562 8.77357006072998 1.4034329652786255
14.072711944580078 8.799757957458496 0.5656369924545288
32.52873229980469 20.16602325439453 2.427006721496582
14.107357025146484 8.749969482421875 2.2183926105499268
14.051886558532715 8.715392112731934 1.40463125705719
14.402259826660156 8.936178207397461 0.502332329750061
32.498775482177734 19.9908504486084 2.427980661392212
14.131339073181152 8.696771621704102 2.2179622650146484
14.07571792602539 8.662412643432617 1.4045708179473877
14.3891019821167 8.858777046203613 0.5104550719261169
32.499183654785156 19.82738494873047 2.427931308746338
14.152364730834961 8.638445854187012 2.217865467071533
14.10507583618164 8.60949420928955 1.403828740119934
32.52533721923828 19.68797492980957 2.4270176887512207
14.178057670593262 8.586427688598633 2.2172391414642334
14.126387596130371 8.55508804321289 1.404079794883728
32.525203704833984 19.53318214416504 2.426950454711914
14.197153091430664 8.530484199523926 2.2171902656555176
14.149618148803711 8.501916885375977 1.4040145874023438
32.455692291259766 19.33770179748535 2.4291536808013916
14.216028213500977 8.474512100219727 2.2171404361724854
14.174779891967773 8.449955940246582 1.403632402420044
14.163082122802734 8.44658088684082 0.5782825350761414
32.45069885253906 19.18929672241211 2.4292166233062744
14.239659309387207 8.424802780151367 2.2165606021881104
14.198291778564453 8.400399208068848 1.4032994508743286
14.159017562866211 8.38078784942627 0.5838680863380432
32.40314483642578 19.00892448425293 2.4306609630584717
14.262422561645508 8.3712797164917 2.2161216735839844
14.218803405761719 8.34578800201416 1.4035446643829346
14.196446418762207 8.336321830749512 0.581107497215271
32.44111633300781 18.87939453125 2.4292662143707275
14.295754432678223 8.323968887329102 2.2147130966186523
14.230535507202148 8.286144256591797 1.4050517082214355
14.216720581054688 8.281786918640137 0.5818384289741516
32.50022506713867 18.7623233795166 2.427156925201416
14.320298194885254 8.271541595458984 2.214076519012451
14.254908561706543 8.233962059020996 1.404664158821106
14.243183135986328 8.230904579162598 0.5812566876411438
32.60770797729492 18.665454864501953 2.4234235286712646
14.333099365234375 8.209110260009766 2.2145509719848633
14.271900177001953 8.174286842346191 1.405487060546875
14.2730131149292 8.178672790527344 0.5801849961280823
32.648658752441406 18.53797721862793 2.4218742847442627
14.352890014648438 8.154121398925781 2.2143001556396484
14.295865058898926 8.121992111206055 1.405096411705017
14.32264518737793 8.140987396240234 0.5747888684272766
32.72613525390625 18.43128776550293 2.419102430343628
14.385501861572266 8.106436729431152 2.2128825187683105
14.326120376586914 8.073277473449707 1.4037550687789917
14.299280166625977 8.061959266662598 0.5842616558074951
32.753082275390625 18.296255111694336 2.4179797172546387
14.420127868652344 8.059837341308594 2.2112674713134766
14.345386505126953 8.018404960632324 1.4039937257766724
14.3407564163208 8.022932052612305 0.5802242159843445
32.79281997680664 18.183603286743164 2.416442394256592
14.385534286499023 7.981738567352295 1.4008513689041138
14.36060905456543 7.971774101257324 0.5805603265762329
32.86475372314453 18.07387351989746 2.413799524307251
14.418306350708008 7.938239097595215 0.5733989477157593
32.92973327636719 17.96027183532715 2.4113686084747314
14.940436363220215 8.153447151184082 2.169083833694458
33.03828430175781 17.87021255493164 2.4074792861938477
14.88002872467041 8.053777694702148 1.3378270864486694
33.01887130737305 17.711109161376953 2.40779972076416
33.053924560546875 17.581695556640625 2.4063031673431396
33.0553092956543 17.434762954711914 2.4059019088745117
33.105594635009766 17.30657958984375 2.403846025466919
27.80919647216797 14.54517936706543 1.0357720851898193
33.090267181396484 17.151851654052734 2.403963327407837
27.819774627685547 14.427401542663574 1.037298321723938
33.09648895263672 17.008859634399414 2.4033498764038086
27.809917449951172 14.299470901489258 1.0405906438827515
33.104347229003906 16.867170333862305 2.402665615081787
27.85057830810547 14.197816848754883 1.039374589920044
33.122772216796875 16.731264114379883 2.4016129970550537
33.12053680419922 16.585369110107422 2.4012293815612793
33.137840270996094 16.449689865112305 2.400181531906128
33.14338684082031 16.308576583862305 2.399505615234375
33.142181396484375 16.157459259033203 2.399012565612793
33.15327453613281 16.019962310791016 2.398118734359741
33.15930938720703 15.880425453186035 2.397376775741577
32.68519973754883 15.662172317504883 0.6305203437805176
33.164283752441406 15.747901916503906 2.396682024002075
32.60166931152344 15.489570617675781 0.6401302218437195
33.16920852661133 15.608665466308594 2.3959450721740723
32.70943069458008 15.401193618774414 0.6330357789993286
33.17583084106445 15.470646858215332 2.3951356410980225
32.99086380004883 15.39338207244873 0.6106997728347778
33.181888580322266 15.332768440246582 2.3943283557891846
33.11202621459961 15.309542655944824 0.6023804545402527
33.189666748046875 15.196078300476074 2.3934476375579834
33.14236831665039 15.183526039123535 0.6019719839096069
33.18096160888672 15.052292823791504 2.3931005001068115
33.17905044555664 15.060578346252441 0.600967526435852
33.18533706665039 14.914900779724121 2.392300844192505
33.19709396362305 14.929378509521484 0.6015490293502808
33.19601058959961 14.780710220336914 2.391275405883789
33.196407318115234 14.79012393951416 0.603719174861908
33.19700241088867 14.642593383789062 2.390556573867798
33.17008590698242 14.639988899230957 0.6080798506736755
33.2091178894043 14.50285530090332 2.389415740966797
33.1684684753418 14.49441146850586 0.6103380918502808
33.22274398803711 14.371006965637207 2.388242244720459
33.14773178100586 14.347899436950684 0.6141126155853271
33.23125457763672 14.23727035522461 2.387223958969116
33.16302490234375 14.217418670654297 0.6147053837776184
33.236785888671875 14.10944938659668 2.3863275051116943
33.189117431640625 14.09863567352295 0.6142230033874512
33.24427795410156 13.975950241088867 2.38531231880188
33.208038330078125 13.97017765045166 0.614416778087616
33.25584030151367 13.844489097595215 2.3841452598571777
33.17815399169922 13.821638107299805 0.6188062429428101
33.24610900878906 13.704545974731445 2.383676052093506
33.242095947265625 13.712430000305176 0.615005612373352
33.254310607910156 13.572393417358398 2.3825900554656982
33.259525299072266 13.58410358428955 0.6152003407478333
33.22956466674805 13.427248001098633 2.3825957775115967
33.267234802246094 13.4520845413208 0.6161969900131226
33.26220703125 13.30563735961914 2.380657196044922
33.27443313598633 13.32017707824707 0.6171949505805969
33.21305847167969 13.145051956176758 2.3814117908477783
33.209259033203125 13.153215408325195 0.6244937777519226
33.18651580810547 13.000816345214844 2.381434440612793
33.15497589111328 12.998147964477539 0.6307221055030823
33.18267059326172 12.865960121154785 2.380678415298462
33.1557731628418 12.865251541137695 0.6321374177932739
33.224945068359375 12.749189376831055 2.378351926803589
33.18629455566406 12.744118690490723 0.6309400200843811
33.38654327392578 12.694252014160156 0.6149667501449585
33.52837371826172 12.614521980285645 0.6040842533111572
33.72655487060547 12.544974327087402 2.358639717102051
33.747127532958984 12.562641143798828 0.5865301489830017
33.770042419433594 12.427202224731445 2.356191873550415
33.79054260253906 12.444805145263672 0.5840815305709839
33.756752014160156 12.28876781463623 2.355649948120117
33.77500534057617 12.305497169494629 0.5866776704788208
33.7523193359375 12.15396499633789 2.354792833328247
33.747196197509766 12.162224769592285 0.5902895927429199
33.78738021850586 12.033591270446777 2.352581024169922
33.756351470947266 12.032679557800293 0.590671181678772
33.79343795776367 11.896432876586914 2.351285219192505
33.7858772277832 11.903951644897461 0.5893107056617737
33.79454040527344 11.764470100402832 2.3501946926116943
33.815223693847656 11.781886100769043 0.5878693461418152
33.80931091308594 11.637519836425781 2.348623037338257
33.81114959716797 11.64840030670166 0.5892658829689026
33.80704116821289 11.504976272583008 2.347616195678711
33.787689208984375 11.508659362792969 0.5922892093658447
33.81175994873047 11.381678581237793 2.3464109897613525
33.80891799926758 11.391021728515625 0.5913777351379395
33.829837799072266 11.25651741027832 2.3446805477142334
33.80805206298828 11.259596824645996 0.5923749804496765
33.82372283935547 11.123562812805176 2.3437600135803223
33.8350830078125 11.13766098022461 0.5909331440925598
33.84323501586914 10.999283790588379 2.341948986053467
33.82850646972656 11.004883766174316 0.5923415422439575
33.84326171875 10.86889362335205 2.340789318084717
33.830894470214844 10.875338554382324 0.5929374694824219
33.83802032470703 10.7371244430542 2.339794874191284
33.849422454833984 10.751188278198242 0.5921066403388977
33.84657669067383 10.610006332397461 2.3383126258850098
33.836585998535156 10.617342948913574 0.593930184841156
33.80692672729492 10.468182563781738 2.338469982147217
33.84885025024414 10.485189437866211 0.5935906767845154
33.84197998046875 10.336873054504395 2.335925340652466
33.85584259033203 10.351631164550781 0.5936604738235474
33.8634033203125 10.214383125305176 2.333953380584717
33.86290740966797 10.224788665771484 0.5936509370803833
33.88198471069336 10.091156959533691 2.3320631980895996
33.885738372802734 9.963695526123047 2.33066725730896
33.91849899291992 9.851302146911621 2.3283209800720215
33.824562072753906 9.834640502929688 0.5984708070755005
33.89733123779297 9.717044830322266 2.327756404876709
33.87761306762695 9.72204875946045 0.5943604111671448
33.911712646484375 9.593255996704102 2.325949192047119
33.87275695800781 9.592913627624512 0.59517902135849
33.9095458984375 9.471369743347168 2.324765920639038
33.89696502685547 9.478560447692871 0.593448281288147
33.90134811401367 9.341696739196777 2.3237111568450928
33.88157653808594 9.34697437286377 0.595093309879303
33.92158889770508 9.22005844116211 2.321654796600342
33.89693832397461 9.224108695983887 0.5940634608268738
33.91244125366211 9.090630531311035 2.320604085922241
33.899818420410156 9.098023414611816 0.5940635800361633
33.92453384399414 8.967124938964844 2.3187999725341797
33.90224838256836 8.972030639648438 0.5940655469894409
33.91596221923828 8.832056999206543 2.3176302909851074
33.888851165771484 8.835813522338867 0.5953916311264038
33.9271240234375 8.70867919921875 2.3158273696899414
33.914432525634766 8.716266632080078 0.5933296084403992
33.933921813964844 8.590638160705566 2.3142330646514893
33.95742416381836 8.607465744018555 0.5897329449653625
33.934505462646484 8.464913368225098 2.3127706050872803
33.90968704223633 8.469606399536133 0.5938799977302551
33.9443359375 8.34167194366455 2.3109688758850098
33.941226959228516 8.351822853088379 0.5911931991577148
33.94886016845703 8.217288970947266 2.3093371391296387
33.93362808227539 8.224535942077637 0.5918242931365967
33.94563674926758 8.09123706817627 2.3079636096954346
33.95463180541992 8.104341506958008 0.5899654030799866
33.9614143371582 7.969876766204834 2.3059072494506836
33.955806732177734 7.979541301727295 0.5897676944732666
33.957275390625 7.844005584716797 2.304535388946533
33.95652770996094 7.854831695556641 0.5895712375640869
33.9759407043457 7.717313766479492 2.302269220352173
33.9556884765625 7.723735809326172 0.5894608497619629
33.97575378417969 7.592709064483643 2.300727367401123
33.960330963134766 7.600305080413818 0.5888505578041077
33.96648025512695 7.4725165367126465 2.2995715141296387
33.97297286987305 7.485007286071777 0.587531566619873
33.982486724853516 7.351826190948486 2.297429323196411
33.97431182861328 7.361140727996826 0.5871307849884033
33.9907341003418 7.229556560516357 2.2955451011657715
33.977638244628906 7.2378740310668945 0.5865225791931152
34.00343704223633 7.108340263366699 2.293487787246704
33.98052978515625 7.114673137664795 0.585914671421051
34.00836181640625 6.985614776611328 2.291691303253174
33.98540496826172 6.992042064666748 0.585098922252655
34.02998352050781 6.866400241851807 2.289285659790039
33.987396240234375 6.868968963623047 0.5844926238059998
34.0204963684082 6.7348713874816895 2.2878870964050293
33.999881744384766 6.741973400115967 0.5829246640205383
34.01802444458008 6.617280960083008 2.286390781402588
33.99738693237305 6.624464511871338 0.5826540589332581
34.01740264892578 6.487909317016602 2.2846477031707764
34.01385498046875 6.498454570770264 0.5806652903556824
34.01763153076172 6.365025520324707 2.282942295074463
34.016517639160156 6.3760552406311035 0.5798515677452087
34.029720306396484 6.244473457336426 2.280797243118286
34.03098678588867 6.255967140197754 0.5779861211776733
34.047672271728516 6.131180763244629 2.278512954711914
34.03662109375 6.140468120574951 0.5768763422966003
34.05154800415039 6.0092902183532715 2.2766315937042236
34.064979553222656 6.02296257019043 0.5737455487251282
34.05744171142578 5.887871265411377 2.2746617794036865
34.0579719543457 5.765650749206543 2.272869348526001
34.05314254760742 5.64268159866333 2.271256685256958
34.04930877685547 5.6533918380737305 0.5727843642234802
34.06266403198242 5.522214412689209 2.269111156463623
34.046478271484375 5.530951023101807 0.5721853375434875
34.061893463134766 5.400184631347656 2.2673211097717285
34.03828430175781 5.407815933227539 0.5720109343528748
34.06159210205078 5.272282600402832 2.265407085418701
34.057640075683594 5.283066272735596 0.569383978843689
34.05498504638672 5.149653434753418 2.2637991905212402
34.0657958984375 5.162700653076172 0.5677272081375122
34.06276321411133 5.029322147369385 2.261653184890747
34.08338165283203 5.043797969818115 0.565222442150116
34.06517028808594 4.9082865715026855 2.259687662124634
34.08575439453125 4.922699451446533 0.5639886856079102
34.063846588134766 4.792891025543213 2.257937431335449
34.10414505004883 4.8100266456604 0.5613940954208374
34.072837829589844 4.672971725463867 2.255702018737793
34.09088134765625 4.686923503875732 0.5614373087882996
34.093788146972656 4.554702281951904 2.2530126571655273
34.10927963256836 4.568267822265625 0.558714747428894
34.094512939453125 4.433765888214111 2.2510464191436768
34.10502243041992 4.44664192199707 0.557908296585083
34.14189910888672 4.318833351135254 2.2473552227020264
34.11269760131836 4.326667308807373 0.556036651134491
34.12267303466797 4.189443588256836 2.2459895610809326
34.08852767944336 4.196784973144531 0.5568137764930725
34.12955093383789 4.069453716278076 2.243748664855957
34.07306671142578 4.074262619018555 0.5568663477897644
34.07695388793945 3.9541938304901123 0.5552103519439697
33.73075866699219 3.800788402557373 0.5838540196418762
33.538482666015625 3.649291753768921 2.2596421241760254
33.396934509277344 3.645246744155884 0.6113513708114624
33.540977478027344 3.5311856269836426 2.257537603378296
33.37455749511719 3.525027275085449 0.6118906140327454
33.57785415649414 3.41664457321167 2.2541422843933105
33.292266845703125 3.398939609527588 0.6175821423530579
33.63919448852539 3.3043298721313477 2.2498185634613037
33.345848083496094 3.286898612976074 0.6114754676818848
33.64296340942383 3.186213731765747 2.2476139068603516
33.27506637573242 3.162747621536255 0.6161072254180908
33.69908905029297 3.0669922828674316 2.243337869644165
33.25891876220703 3.0383191108703613 0.6158945560455322
33.70699691772461 2.949157238006592 2.240943193435669
33.065635681152344 2.9043867588043213 0.63109290599823
33.702049255371094 2.8302595615386963 2.239013433456421
32.611236572265625 2.749880790710449 0.6689437627792358
33.71410369873047 2.7128331661224365 2.23643159866333
32.871158599853516 2.6563165187835693 0.6447556614875793
33.71580123901367 2.5945911407470703 2.2342214584350586
33.292236328125 2.5734379291534424 0.6064991354942322
33.719139099121094 2.482436180114746 2.2320425510406494
32.791175842285156 2.425429105758667 0.6484443545341492
33.71253967285156 2.3637046813964844 2.230114459991455
32.9110221862793 2.318861961364746 0.6362932324409485
33.70802307128906 2.245215892791748 2.228093147277832
33.0156135559082 2.2104902267456055 0.6254221796989441
33.715553283691406 2.1275720596313477 2.225600481033325
33.03285598754883 2.0959010124206543 0.6221156120300293
33.69524002075195 2.0082695484161377 2.2241456508636475
32.98753356933594 1.977495551109314 0.6242246627807617
33.699764251708984 1.8846522569656372 2.2216241359710693
15.826452255249023 0.8916143774986267 2.119370222091675
33.6960563659668 1.766516923904419 2.219510793685913
15.809460639953613 0.8353350162506104 2.119936466217041
33.704410552978516 1.6490403413772583 2.2169222831726074
15.827095031738281 0.7808985710144043 2.1174631118774414
33.72233581542969 1.5319792032241821 2.2139530181884766
15.832103729248047 0.7257801294326782 2.116074562072754
15.841782569885254 0.6736099123954773 2.1143085956573486
15.836462020874023 0.6180367469787598 2.1137890815734863
19.30843162536621 0.7565777897834778 0.8507058620452881
15.850855827331543 0.5632135272026062 2.1115264892578125
19.32560157775879 0.6897308826446533 0.8472371101379395
12.45351505279541 0.3951154947280884 3.02120041847229
15.85510540008545 0.507979154586792 2.1101343631744385
12.522197723388672 0.35354742407798767 3.0176849365234375
15.859159469604492 0.4527217149734497 2.1087417602539062
19.31963539123535 0.5545709133148193 0.8457350730895996
12.600784301757812 0.3095516264438629 3.0137276649475098
15.860596656799316 0.39461246132850647 2.1075079441070557
19.34608268737793 0.48440414667129517 0.8408278822898865
12.624224662780762 0.2660476267337799 3.0119261741638184
15.874215126037598 0.33953046798706055 2.105238676071167
12.60255241394043 0.22160027921199799 3.011859893798828
15.87519359588623 0.284136563539505 2.1040618419647217
33.78535842895508 0.47274354100227356 2.190201759338379
15.880959510803223 0.22881078720092773 2.1024463176727295
33.80668258666992 0.3550497889518738 2.186920404434204
15.874080657958984 0.1733134686946869 2.101926803588867
33.7875862121582 0.24283014237880707 2.1853156089782715
12.57925796508789 0.04777969419956207 3.009141206741333
32.843711853027344 0.13293962180614471 0.6026666164398193
12.634263038635254 0.0038904091343283653 3.0060625076293945
32.8736457824707 0.018347695469856262 0.5975906252861023
12.674125671386719 -0.04033224284648895 3.0035617351531982
32.86830520629883 -0.096347875893116 0.59559166431427
12.731318473815918 -0.08495267480611801 3.0003695487976074
32.93478012084961 -0.21147485077381134 0.5872042775154114
12.7858304977417 -0.13217805325984955 2.9972190856933594
33.040626525878906 -0.3332296907901764 0.5751585960388184
12.79523754119873 -0.17693494260311127 2.9958767890930176
32.89461898803711 -0.44655126333236694 0.5855013728141785
12.639640808105469 -0.2188781499862671 3.001030206680298
32.91006088256836 -0.5616304874420166 0.5815121531486511
12.618824005126953 -0.260363906621933 3.000927209854126
33.73439025878906 -0.687620997428894 0.5058227777481079
33.84003829956055 -0.8197860717773438 2.1602683067321777
33.736534118652344 -0.8054498434066772 0.502873957157135
33.85200881958008 -0.9323808550834656 2.157285213470459
33.56916809082031 -0.9128033518791199 0.515100359916687
33.825782775878906 -1.0557104349136353 2.155535936355591
33.099918365478516 -1.0214002132415771 0.5539084672927856
33.8217887878418 -1.173744559288025 2.1530210971832275
33.27013397216797 -1.1428887844085693 0.5359259843826294
33.385154724121094 -1.2635031938552856 0.5228004455566406
12.931485176086426 -0.5333669781684875 2.345708131790161
12.546004295349121 -0.5656759142875671 2.996859550476074
12.954327583312988 -0.5796037912368774 2.3425233364105225
12.666055679321289 -0.6176232099533081 2.9909729957580566
33.30445861816406 -1.6155924797058105 0.5210101008415222
12.990567207336426 -0.6789501309394836 2.9768900871276855
13.136161804199219 -0.6819650530815125 2.323847532272339
13.030473709106445 -0.7266494035720825 2.9742143154144287
13.121176719665527 -0.7271075248718262 2.323983907699585
12.96645736694336 -0.7160995006561279 1.6932313442230225
12.928990364074707 -0.7091723680496216 1.0469449758529663
12.825965881347656 -0.757876455783844 2.9814469814300537
12.974431991577148 -0.7621082663536072 2.3359909057617188
12.941630363464355 -0.7577695846557617 1.6954175233840942
12.938648223876953 -0.7527366876602173 1.0437012910842896
12.909582138061523 -0.7527113556861877 0.3861164450645447
12.800760269165039 -0.8012217283248901 2.9813995361328125
12.884618759155273 -0.801949143409729 2.342836618423462
12.911581993103027 -0.8012294173240662 1.6982488632202148
12.911238670349121 -0.7963582873344421 1.0473978519439697
12.884805679321289 -0.7963915467262268 0.3904277980327606
11.997747421264648 -0.792876660823822 3.012880325317383
12.896554946899414 -0.8478864431381226 2.340536594390869
12.930804252624512 -0.8477365970611572 1.6941803693771362
12.927799224853516 -0.8426810503005981 1.0427066087722778
12.910813331604004 -0.8432430624961853 0.3824354112148285
11.997353553771973 -0.8349133133888245 3.011885166168213
12.920748710632324 -0.8947790861129761 2.3371164798736572
12.131343841552734 -0.8868139386177063 3.005413293838501
12.922419548034668 -0.9402214288711548 2.3357059955596924
12.15303897857666 -0.9310547709465027 3.003493070602417
12.904072761535645 -0.9841688871383667 2.3360865116119385
12.47834300994873 -0.9998476505279541 2.9891514778137207
12.880607604980469 -1.027603030204773 2.3369174003601074
12.501928329467773 -1.0478622913360596 2.9870526790618896
12.901472091674805 -1.0768641233444214 2.333665609359741
12.448382377624512 -1.087128758430481 2.988163709640503
12.424564361572266 -1.1287509202957153 2.988053560256958
33.68724822998047 -3.1705856323242188 0.44403737783432007
12.767036437988281 -1.2475799322128296 2.9717631340026855
33.6639404296875 -3.281031370162964 0.4427741467952728
12.79238224029541 -1.2951486110687256 2.9695754051208496
33.57772445678711 -3.3909687995910645 0.44701841473579407
12.820033073425293 -1.3431700468063354 2.967280149459839
33.72146224975586 -3.5244300365448 0.4303094446659088
13.133085250854492 -1.4223747253417969 2.953104257583618
33.7730827331543 -3.6490345001220703 0.4219251275062561
13.35885238647461 -1.494050145149231 2.9425017833709717
33.883628845214844 -3.780672788619995 0.4081130027770996
15.944215774536133 -1.7689546346664429 0.4407411813735962
13.353508949279785 -1.5406585931777954 2.9415037631988525
33.87741470336914 -3.8997387886047363 0.4049036204814911
15.947468757629395 -1.8256902694702148 0.43767520785331726
13.248510360717773 -1.5777466297149658 2.9446094036102295
33.706886291503906 -4.005317687988281 0.41649410128593445
15.845320701599121 -1.8728464841842651 0.45471248030662537
12.580923080444336 -1.5426923036575317 2.971392869949341
33.79378890991211 -4.135315418243408 0.4046941101551056
15.896958351135254 -1.9352478981018066 0.44226884841918945
12.5853271484375 -1.5878376960754395 2.9700353145599365
33.67270278930664 -4.239830493927002 0.4119093418121338
16.08966636657715 -2.0157546997070312 0.4025977849960327
33.99186325073242 -4.406632900238037 2.0668609142303467
33.59403610229492 -4.3431267738342285 0.41541239619255066
15.907317161560059 -2.0464913845062256 0.4352572560310364
33.98111343383789 -4.525885105133057 2.0641098022460938
33.768470764160156 -4.4855780601501465 0.3954279124736786
15.875500679016113 -2.098757266998291 0.43876415491104126
34.009552001953125 -4.650534152984619 2.0596816539764404
33.84857940673828 -4.616509914398193 0.38404542207717896
15.821616172790527 -2.1478514671325684 0.44650372862815857
34.000423431396484 -4.770229339599609 2.0568222999572754
33.935585021972656 -4.749092102050781 0.37196773290634155
15.789472579956055 -2.1996474266052246 0.4500200152397156
33.995811462402344 -4.890627861022949 2.0537521839141846
33.97524642944336 -4.875616073608398 0.36419573426246643
16.00508689880371 -2.2867002487182617 0.4055801331996918
34.003135681152344 -5.012876033782959 2.050154447555542
15.923891067504883 -2.3318448066711426 0.4184936285018921
34.00508117675781 -5.134489059448242 2.0467653274536133
33.99652862548828 -5.1211347579956055 0.3538702726364136
15.857144355773926 -2.378638982772827 0.4285951852798462
34.01059341430664 -5.262874603271484 2.043034315109253
33.987117767333984 -5.2471795082092285 0.3502858281135559
15.826236724853516 -2.4333529472351074 0.43158480525016785
34.02151107788086 -5.386216163635254 2.0392160415649414
33.97819900512695 -5.367297172546387 0.3468268811702728
15.795585632324219 -2.485117197036743 0.43463799357414246
34.02457809448242 -5.508500099182129 2.0357134342193604
33.998348236083984 -5.492183685302734 0.34062689542770386
15.813247680664062 -2.5445055961608887 0.4282723069190979
34.02967834472656 -5.631280422210693 2.0321013927459717
33.983642578125 -5.611595153808594 0.33762282133102417
15.840373039245605 -2.6056437492370605 0.42001792788505554
34.04273223876953 -5.749472618103027 2.0282950401306152
33.99653625488281 -5.7295989990234375 0.3322291076183319
15.770895004272461 -2.647960901260376 0.4306768476963043
34.04695510864258 -5.872481346130371 2.024676561355591
34.00798416137695 -5.853683948516846 0.3267045021057129
15.831493377685547 -2.7150111198425293 0.41581669449806213
34.06303405761719 -5.997756481170654 2.020521640777588
15.761231422424316 -2.759636640548706 0.42642566561698914
34.07127380371094 -6.121890068054199 2.01668381690979
15.947021484375 -2.849613904953003 0.3870103359222412
34.07661437988281 -6.245704174041748 2.012949228286743
15.837722778320312 -2.8871703147888184 0.40517398715019226
34.1134147644043 -6.375596523284912 2.0078163146972656
34.02231979370117 -6.346487045288086 0.3070949614048004
34.074981689453125 -6.49774169921875 2.0057737827301025
33.988800048828125 -6.469235897064209 0.3053341209888458
16.095951080322266 -3.053480625152588 0.34792107343673706
34.07649612426758 -6.621377468109131 2.00213885307312
33.985321044921875 -6.5915913581848145 0.30094191431999207
16.005420684814453 -3.0942327976226807 0.36231401562690735
34.0677604675293 -6.743162631988525 1.9989327192306519
34.025367736816406 -6.722687721252441 0.2924048602581024
16.08340072631836 -3.1676185131073 0.34361371397972107
34.00228500366211 -6.85361385345459 1.9982123374938965
34.038055419921875 -6.848742961883545 0.28639376163482666
16.081634521484375 -3.225644826889038 0.3405136466026306
33.95478820800781 -6.961281776428223 1.9968684911727905
33.96127700805664 -6.950555324554443 0.289037823677063
16.16683006286621 -3.2985708713531494 0.32043448090553284
33.925289154052734 -7.078708648681641 1.9945340156555176
33.91950607299805 -7.065462589263916 0.2881018817424774
16.15257453918457 -3.3544561862945557 0.3196936249732971
33.917354583740234 -7.200684070587158 1.9912248849868774
33.891963958740234 -7.183262825012207 0.2857837378978729
16.106903076171875 -3.4036810398101807 0.3251112997531891
33.90654754638672 -7.322162628173828 1.9880225658416748
33.8664436340332 -7.3014817237854 0.2832365930080414
16.21467399597168 -3.4856648445129395 0.3002091944217682
