# .PCD v0.7 - Point Cloud Data file format
VERSION 0.7
FIELDS x y z
SIZE 4 4 4
TYPE F F F
COUNT 1 1 1
WIDTH 850
HEIGHT 1
VIEWPOINT 0 0 0 1 0 0 0
POINTS 850
DATA ascii
33.65612030029297 2.33065128326416 1.379828929901123
33.65456008911133 2.1232197284698486 1.3764573335647583
33.65271759033203 1.9159504175186157 1.3730193376541138
33.6595573425293 1.7092881202697754 1.368911623954773
33.66214370727539 1.5024787187576294 1.3650028705596924
33.67741394042969 1.2962377071380615 1.360152006149292
19.26890754699707 0.6227839589118958 2.330592393875122
13.028656005859375 0.3407067060470581 2.7510323524475098
33.7306022644043 0.677051842212677 1.3445552587509155
12.395166397094727 0.17195670306682587 2.7909085750579834
33.7497444152832 0.26331764459609985 1.3348109722137451
33.76140594482422 0.05631280317902565 1.3296606540679932
12.729135513305664 -0.05762871727347374 2.763275623321533
33.773929595947266 -0.35801997780799866 1.319825530052185
33.77977752685547 -0.5653299689292908 1.3147999048233032
12.818349838256836 -0.293962687253952 2.7519102096557617
33.81358337402344 -0.9809542894363403 1.3029513359069824
33.814605712890625 -1.1886258125305176 1.2979811429977417
33.813350677490234 -1.3963074684143066 1.2930775880813599
33.72612380981445 -1.600005030632019 1.2940475940704346
12.719075202941895 -0.6824119687080383 2.749352216720581
12.88880729675293 -0.7708223462104797 2.7355449199676514
12.867796897888184 -0.848817765712738 2.7349696159362793
12.829401969909668 -0.9253669381141663 2.7355828285217285
12.494183540344238 -0.9783016443252563 2.756998300552368
33.89209747314453 -2.8609120845794678 1.2500271797180176
12.804895401000977 -1.1608302593231201 2.730890989303589
12.766641616821289 -1.2363749742507935 2.731386661529541
12.749772071838379 -1.3137420415878296 2.730344295501709
13.966019630432129 -1.5255898237228394 2.641690731048584
12.299430847167969 -1.4200972318649292 2.7578325271606445
33.94322967529297 -4.128049373626709 1.2104449272155762
12.690491676330566 -1.6232287883758545 2.725282669067383
12.626795768737793 -1.6938841342926025 2.7274458408355713
12.620991706848145 -1.7719968557357788 2.7254302501678467
12.592005729675293 -1.846776008605957 2.7250518798828125
12.616808891296387 -1.9295552968978882 2.7207553386688232
12.526802062988281 -1.9945268630981445 2.724740505218506
12.499457359313965 -2.0688858032226562 2.7241649627685547
34.00110626220703 -5.840165615081787 1.152661681175232
29.246932983398438 -5.208683490753174 1.4933886528015137
34.030235290527344 -6.276004791259766 1.1360735893249512
34.04172134399414 -6.494341850280762 1.127835750579834
34.011680603027344 -6.705149173736572 1.122550129890442
33.947105407714844 -6.9090728759765625 1.119726300239563
33.90278625488281 -7.116965293884277 1.1153171062469482
33.9244499206543 -7.33912467956543 1.1059008836746216
33.94563293457031 -7.562036037445068 1.096398115158081
34.00035858154297 -7.793505668640137 1.0842580795288086
34.04283142089844 -8.023415565490723 1.0728989839553833
34.0692138671875 -8.250619888305664 1.0626174211502075
34.07957458496094 -8.474842071533203 1.0534201860427856
34.08362579345703 -8.698270797729492 1.0445786714553833
34.10744094848633 -8.927624702453613 1.0341088771820068
34.11430740356445 -9.153463363647461 1.0248035192489624
34.114871978759766 -9.378402709960938 1.0158557891845703
34.10531997680664 -9.601262092590332 1.0075633525848389
34.12114715576172 -9.832090377807617 0.9971917271614075
34.127769470214844 -10.06121826171875 0.9873989820480347
34.118534088134766 -10.286481857299805 0.978708803653717
34.1430778503418 -10.522878646850586 0.9672578573226929
34.140316009521484 -10.751877784729004 0.957802951335907
34.13982391357422 -10.982460975646973 0.9480394721031189
34.14915466308594 -11.217179298400879 0.9373676180839539
34.16255569458008 -11.454325675964355 0.9262332916259766
34.17243194580078 -11.691414833068848 0.9152342081069946
34.18069076538086 -11.929058074951172 0.904221773147583
34.14785385131836 -12.153202056884766 0.8963572978973389
34.150108337402344 -12.390655517578125 0.8855491280555725
34.17784881591797 -12.638626098632812 0.8725369572639465
34.19636154174805 -12.884589195251465 0.8601110577583313
34.3052978515625 -13.166624069213867 0.8401626944541931
34.307106018066406 -13.409464836120605 0.8287537097930908
34.318336486816406 -13.657249450683594 0.8164180517196655
34.332435607910156 -13.907546997070312 0.8036859035491943
34.346588134765625 -14.159293174743652 0.7907834649085999
34.353424072265625 -14.409423828125 0.7783232927322388
34.34104919433594 -14.65273666381836 0.767301619052887
34.35167694091797 -14.907155990600586 0.7541992664337158
29.518522262573242 -13.025835990905762 1.1486834287643433
34.41835021972656 -15.440881729125977 0.7236378788948059
34.39790344238281 -15.686039924621582 0.7126361131668091
34.4309196472168 -15.957098007202148 0.6969178915023804
34.43753433227539 -16.217687606811523 0.6832635998725891
34.43325424194336 -16.474653244018555 0.6703652739524841
34.437870025634766 -16.73740577697754 0.6565222144126892
34.45485305786133 -17.007898330688477 0.6414205431938171
34.47426223754883 -17.28145980834961 0.6259092688560486
34.39387130737305 -17.50615882873535 0.6189432740211487
34.33592987060547 -17.742877960205078 0.6098772883415222
34.431758880615234 -18.061050415039062 0.5870610475540161
34.402645111083984 -18.31594467163086 0.5750772356987
34.40940475463867 -18.591535568237305 0.559714674949646
34.405330657958984 -18.863109588623047 0.5451173186302185
30.786334991455078 -17.1257266998291 0.8564155101776123
34.5655517578125 -19.506662368774414 0.5000544190406799
34.58325958251953 -19.797548294067383 0.48278483748435974
34.5780029296875 -20.077375411987305 0.46738559007644653
34.56631088256836 -20.3553524017334 0.45236489176750183
34.6201171875 -20.67431640625 0.43107375502586365
34.611602783203125 -20.95856285095215 0.4152993857860565
34.60090255737305 -21.243478775024414 0.39950716495513916
34.60661697387695 -21.540645599365234 0.38194864988327026
34.576255798339844 -21.817399978637695 0.36755481362342834
34.57990264892578 -22.117687225341797 0.34971967339515686
34.645565032958984 -22.460594177246094 0.3257130980491638
34.565853118896484 -22.711538314819336 0.31534335017204285
30.40142822265625 -20.24378204345703 0.6990812420845032
30.28290557861328 -20.43433380126953 0.6943190693855286
34.67231369018555 -23.707124710083008 0.2494645118713379
34.601173400878906 -23.97157096862793 0.23736126720905304
34.750816345214844 -24.392362594604492 0.20326952636241913
29.847259521484375 -21.225378036499023 0.6704033613204956
30.03556251525879 -21.6381778717041 0.6344491243362427
29.732789993286133 -21.6986141204834 0.6473473906517029
29.642017364501953 -21.912569046020508 0.6389302611351013
29.636703491210938 -22.191343307495117 0.6216791272163391
29.556804656982422 -22.41606903076172 0.6117975115776062
29.562999725341797 -22.70804214477539 0.5928925275802612
32.37511444091797 30.85050392150879 0.9722495675086975
32.44275665283203 30.537757873535156 0.9781367182731628
32.335269927978516 30.064926147460938 0.9980903267860413
32.418033599853516 29.773513793945312 1.0022764205932617
32.490318298339844 29.47484016418457 1.0071192979812622
32.46723937988281 29.093128204345703 1.0194461345672607
32.41006088256836 28.685684204101562 1.0342565774917603
32.53925323486328 28.44626808166504 1.0339089632034302
32.580596923828125 28.131977081298828 1.040403962135315
32.58666229248047 27.790393829345703 1.0494977235794067
32.607330322265625 27.46459197998047 1.0572214126586914
32.610652923583984 27.127452850341797 1.0661054849624634
32.623416900634766 26.801448822021484 1.0740395784378052
32.64582061767578 26.486373901367188 1.0810182094573975
32.670265197753906 26.175779342651367 1.0876445770263672
32.67726135253906 25.854116439819336 1.095438003540039
32.694923400878906 25.54380226135254 1.1022117137908936
32.69420623779297 25.222055435180664 1.1102181673049927
32.70427703857422 24.911558151245117 1.117203712463379
32.72932815551758 24.61509132385254 1.1228567361831665
32.747169494628906 24.315685272216797 1.12888765335083
32.74970245361328 24.007545471191406 1.1359128952026367
32.532188415527344 23.542875289916992 1.1594957113265991
32.60015106201172 23.288921356201172 1.1611592769622803
32.67927932739258 23.04422378540039 1.1618343591690063
32.71240234375 22.76864242553711 1.165842056274414
32.726924896240234 22.482219696044922 1.1710941791534424
32.75486755371094 22.207117080688477 1.175180435180664
32.7574462890625 21.916976928710938 1.181013584136963
32.76936340332031 21.63534164428711 1.1859902143478394
32.78073501586914 21.355478286743164 1.190853476524353
32.83189392089844 21.103271484375 1.1926069259643555
32.779212951660156 20.786561965942383 1.201927661895752
32.83049774169922 20.537994384765625 1.203383445739746
32.813724517822266 20.24869728088379 1.209734559059143
18.405256271362305 11.201333045959473 2.2768959999084473
18.394729614257812 11.040966987609863 2.280372142791748
18.379501342773438 10.879117012023926 2.2841103076934814
32.911563873291016 19.211166381835938 1.2215484380722046
32.9246940612793 18.949186325073242 1.2249939441680908
32.928035736083984 18.68333625793457 1.2290198802947998
32.84226989746094 18.369434356689453 1.2394068241119385
32.881492614746094 18.127643585205078 1.2405420541763306
32.987388610839844 17.923227310180664 1.2367082834243774
33.036582946777344 17.688514709472656 1.2368810176849365
33.02677917480469 17.423601150512695 1.2412097454071045
33.04330062866211 17.17420196533203 1.2435026168823242
33.050907135009766 16.92161750793457 1.2463164329528809
33.075374603271484 16.67902374267578 1.2477890253067017
33.066829681396484 16.421228408813477 1.2515207529067993
33.07878494262695 16.175127029418945 1.2536530494689941
33.094364166259766 15.93209457397461 1.255405306816101
33.110015869140625 15.690330505371094 1.2570345401763916
33.12666320800781 15.450241088867188 1.2584753036499023
33.13707733154297 15.208457946777344 1.2602471113204956
33.15668869018555 14.972054481506348 1.2612460851669312
33.12905502319336 14.71572494506836 1.2655084133148193
33.09861755371094 14.459898948669434 1.2698529958724976
33.13505172729492 14.23454475402832 1.2693085670471191
33.152503967285156 14.001907348632812 1.2700092792510986
33.173885345458984 13.77188777923584 1.270321011543274
33.199241638183594 13.544393539428711 1.270241618156433
33.204524993896484 13.309679985046387 1.2714817523956299
33.0772819519043 13.023858070373535 1.2820371389389038
33.1218147277832 12.807402610778809 1.2802677154541016
33.54366683959961 12.734694480895996 1.2515993118286133
33.66853713989258 12.54647445678711 1.2439351081848145
33.71363830566406 12.328408241271973 1.24183189868927
33.733856201171875 12.101836204528809 1.241390585899353
33.75632858276367 11.876802444458008 1.2406842708587646
33.75090026855469 11.64283561706543 1.241852045059204
33.74954605102539 11.411299705505371 1.2426261901855469
33.76083755493164 11.184924125671387 1.24240243434906
33.76966857910156 10.958531379699707 1.2422490119934082
33.76844024658203 10.729728698730469 1.2427068948745728
33.783775329589844 10.506983757019043 1.2418909072875977
33.79193115234375 10.282710075378418 1.2414824962615967
33.79095458984375 10.056453704833984 1.24161958694458
33.81913375854492 9.839515686035156 1.2395936250686646
33.84016036987305 9.6209716796875 1.2379732131958008
33.84440612792969 9.398266792297363 1.237442970275879
33.86260223388672 9.180046081542969 1.2358261346817017
33.864925384521484 8.958128929138184 1.235235571861267
33.861934661865234 8.735528945922852 1.2349228858947754
33.878780364990234 8.518654823303223 1.2331085205078125
33.893272399902344 8.301665306091309 1.231363296508789
33.90055847167969 8.083426475524902 1.2300313711166382
33.90546417236328 7.865184783935547 1.228771686553955
33.89048385620117 7.643013954162598 1.228827714920044
33.928627014160156 7.4332804679870605 1.2250182628631592
33.93912887573242 7.2177605628967285 1.2230737209320068
33.94435501098633 7.001583576202393 1.2214088439941406
33.955055236816406 6.786981582641602 1.2192593812942505
33.96440505981445 6.572510242462158 1.2171108722686768
33.961605072021484 6.356159210205078 1.2157317399978638
33.9711799621582 6.142573356628418 1.2133772373199463
33.9892463684082 5.930822372436523 1.2103232145309448
34.00204849243164 5.718417167663574 1.2075486183166504
34.00663757324219 5.504961013793945 1.2052648067474365
34.00200271606445 5.290433883666992 1.2035473585128784
34.00982666015625 5.0782318115234375 1.2008450031280518
34.02225112915039 4.866981029510498 1.197718858718872
34.035343170166016 4.656035900115967 1.1944503784179688
34.04317092895508 4.4445953369140625 1.191464900970459
34.05463409423828 4.233847141265869 1.1881232261657715
34.073707580566406 4.024177551269531 1.1841394901275635
33.540348052978516 3.7527318000793457 1.2198176383972168
33.49497985839844 3.5397958755493164 1.2203309535980225
33.559425354003906 3.3386218547821045 1.2128372192382812
33.6157112121582 3.136139392852783 1.2058303356170654
33.63798141479492 2.9302315711975098 1.2011808156967163
33.649044036865234 2.7233614921569824 1.197246789932251
33.6568489074707 2.516315221786499 1.1934541463851929
33.66238021850586 2.3092055320739746 1.1897324323654175
33.66863250732422 2.1022450923919678 1.1858646869659424
33.67161560058594 1.8951808214187622 1.1821407079696655
33.680301666259766 1.6885071992874146 1.177907109260559
33.68373489379883 1.4816210269927979 1.1739622354507446
33.68788528442383 1.274829626083374 1.1698704957962036
19.263681411743164 0.60980224609375 2.2225899696350098
33.708335876464844 0.861672580242157 1.1605123281478882
33.72263717651367 0.6550875902175903 1.1553875207901
13.01259708404541 0.17167632281780243 2.675776481628418
33.74146270751953 0.24144724011421204 1.1455671787261963
33.74398422241211 0.03447868674993515 1.1410191059112549
33.76517868041992 -0.17261433601379395 1.134993314743042
12.806985855102539 -0.14531481266021729 2.6842164993286133
12.768843650817871 -0.22322978079319 2.6852846145629883
11.6654634475708 -0.27570611238479614 2.765596866607666
12.805773735046387 -0.3810642957687378 2.6789019107818604
33.805179595947266 -1.2101587057113647 1.1082583665847778
33.77985763549805 -1.416783332824707 1.105107069015503
33.725379943847656 -1.621805191040039 1.1040502786636353
12.718405723571777 -0.6911203265190125 2.6777443885803223
12.851170539855957 -0.7774080038070679 2.665733575820923
12.865936279296875 -0.8575441241264343 2.6625490188598633
33.86210632324219 -2.462352752685547 1.072182059288025
12.536100387573242 -0.9902373552322388 2.6832950115203857
13.066195487976074 -1.112719178199768 2.640885591506958
12.776983261108398 -1.1671292781829834 2.660649538040161
13.066198348999023 -1.27437424659729 2.6363232135772705
13.117518424987793 -1.3606599569320679 2.630056142807007
13.116727828979492 -1.4419660568237305 2.627725839614868
12.223031044006348 -1.4198060035705566 2.694000244140625
33.93344497680664 -4.149106025695801 1.018559217453003
33.92185592651367 -4.359076499938965 1.012954592704773
33.94157409667969 -4.5734543800354 1.0048211812973022
33.940185546875 -4.78545618057251 0.9982120990753174
12.962285041809082 -1.9101060628890991 2.624544143676758
12.835878372192383 -1.9720343351364136 2.6317615509033203
13.01638412475586 -2.081559419631958 2.614969491958618
13.124218940734863 -2.1814498901367188 2.603761911392212
33.98405075073242 -5.859850883483887 0.9595242738723755
29.240087509155273 -5.22707986831665 1.326458215713501
34.01773452758789 -6.2964396476745605 0.9419598579406738
34.0300178527832 -6.5149126052856445 0.9333559274673462
12.58593463897705 -2.490997076034546 2.632098913192749
33.92729568481445 -6.92789363861084 0.9259395599365234
33.905269622802734 -7.14038610458374 0.9197421669960022
33.87120056152344 -7.350545883178711 0.9144046306610107
33.97106170654297 -7.590769290924072 0.8981769680976868
33.996376037597656 -7.815746784210205 0.8878018260002136
34.029903411865234 -8.043615341186523 0.8766255974769592
34.0628776550293 -8.272424697875977 0.8653537631034851
34.06142807006836 -8.493743896484375 0.8567454218864441
34.07110595703125 -8.718570709228516 0.8471031188964844
34.09568786621094 -8.948138236999512 0.836103618144989
34.11680221557617 -9.17781925201416 0.8252478837966919
34.11139678955078 -9.40121078491211 0.8164406418800354
34.11028289794922 -9.626508712768555 0.8071487545967102
34.109596252441406 -9.852701187133789 0.7976888418197632
34.12749481201172 -10.085180282592773 0.7865433692932129
34.11137390136719 -10.30844783782959 0.778100311756134
34.15475082397461 -10.550724983215332 0.7645310759544373
34.13179016113281 -10.773523330688477 0.756388247013092
34.16714859008789 -11.015707015991211 0.7431856989860535
34.142112731933594 -11.23940658569336 0.7349461317062378
34.19498062133789 -11.48988151550293 0.7199397087097168
34.15647888183594 -11.710721969604492 0.7125683426856995
34.18805694580078 -11.956528663635254 0.6990582942962646
34.147483825683594 -12.178056716918945 0.6915947198867798
34.118595123291016 -12.404306411743164 0.6829963326454163
34.21251678466797 -12.676711082458496 0.6636019945144653
34.281986236572266 -12.942289352416992 0.6461218595504761
34.27691650390625 -13.181296348571777 0.6349576115608215
34.299896240234375 -13.432355880737305 0.6211749315261841
34.305335998535156 -13.677922248840332 0.6087613105773926
34.32475280761719 -13.930431365966797 0.5949422121047974
34.327613830566406 -14.177607536315918 0.5824151635169983
34.33700180053711 -14.428818702697754 0.5691366791725159
34.325340270996094 -14.672453880310059 0.5575656294822693
34.333919525146484 -14.926025390625 0.5440105199813843
29.50497055053711 -13.042947769165039 0.9674186706542969
34.40467071533203 -15.46168041229248 0.51148921251297
34.40123748779297 -15.71465015411377 0.4984557330608368
34.396888732910156 -15.968581199645996 0.48532620072364807
34.415950775146484 -16.23495101928711 0.46986305713653564
34.41865158081055 -16.495269775390625 0.4557058811187744
34.41855239868164 -16.755794525146484 0.4416167438030243
34.422794342041016 -17.020030975341797 0.4269293248653412
34.46071243286133 -17.30283546447754 0.4088902771472931
34.37747573852539 -17.526100158691406 0.40200936794281006
34.321109771728516 -17.763656616210938 0.3924596905708313
34.44926834106445 -18.09895896911621 0.36524897813796997
34.348602294921875 -18.316015243530273 0.35952624678611755
34.38678741455078 -18.6083927154541 0.34038466215133667
30.808269500732422 -16.917448043823242 0.6690219640731812
30.783615112304688 -17.150712966918945 0.6571301817893982
34.55080795288086 -19.528186798095703 0.2766436040401459
34.53453063964844 -19.799707412719727 0.26177382469177246
34.523101806640625 -20.075767517089844 0.246214359998703
34.53532791137695 -20.36762046813965 0.22810019552707672
34.55467224121094 -20.666000366210938 0.20903097093105316
34.4804801940918 -20.91010284423828 0.19901949167251587
34.384220123291016 -21.14155387878418 0.19104725122451782
34.425086975097656 -21.45904541015625 0.1691245585680008
34.404380798339844 -21.74057960510254 0.153136745095253
34.60049057006836 -22.16291618347168 0.11486445367336273
30.397083282470703 -20.269899368286133 0.4923543930053711
30.271760940551758 -20.455961227416992 0.48823365569114685
29.825672149658203 -21.239809036254883 0.4648332893848419
30.11617660522461 -21.72658920288086 0.41571441292762756
29.78322982788086 -21.765716552734375 0.4329710006713867
29.687971115112305 -21.97702980041504 0.4246787130832672
29.62710952758789 -22.21488380432129 0.4124913513660431
29.577926635742188 -22.463062286376953 0.39882558584213257
29.56234359741211 -22.738805770874023 0.3812423646450043
33.85319519042969 -29.88429069519043 -0.35718274116516113
33.70585250854492 -30.12455177307129 -0.3662339150905609
33.660980224609375 -30.4583683013916 -0.38771435618400574
33.46196365356445 -30.65416145324707 -0.3910132944583893
20.209365844726562 -18.976383209228516 1.169431209564209
20.015729904174805 -19.027240753173828 1.1760464906692505
32.3828010559082 30.92902374267578 0.6791999936103821
31.45309066772461 29.67462921142578 0.7768034338951111
15.539620399475098 14.482439041137695 2.22843861579895
31.624652862548828 29.11220359802246 0.7860786318778992
31.63912582397461 28.76932716369629 0.7968038320541382
32.026222229003906 28.764734268188477 0.7740026712417603
32.30620574951172 28.660457611083984 0.7607501149177551
32.51181411743164 28.488719940185547 0.7540282607078552
32.53545379638672 28.158824920654297 0.763249933719635
32.54490661621094 27.819992065429688 0.7734848260879517
32.58040237426758 27.506563186645508 0.7811989188194275
32.591064453125 27.175216674804688 0.7908608317375183
32.60197830200195 26.847314834594727 0.80027174949646
32.61861801147461 26.52722930908203 0.8089594841003418
32.64112091064453 26.21482276916504 0.8169225454330444
32.646175384521484 25.89136505126953 0.8261756300926208
32.670494079589844 25.5860538482666 0.8335593342781067
32.66862106323242 25.26310920715332 0.842976987361908
32.72111892700195 24.984752655029297 0.8475503325462341
32.70531463623047 24.656848907470703 0.8577392101287842
32.72114562988281 24.35569953918457 0.865037739276886
32.725669860839844 24.048784255981445 0.8730939030647278
32.57100296020508 23.629077911376953 0.8943426609039307
32.6127815246582 23.35565948486328 0.8988444209098816
32.682586669921875 23.103925704956055 0.9008304476737976
32.70389938354492 22.819673538208008 0.9067033529281616
32.72049331665039 22.534332275390625 0.9127917289733887
32.791748046875 22.288341522216797 0.914168655872345
32.740264892578125 21.9611873626709 0.9255486726760864
32.79665756225586 21.708742141723633 0.927828311920166
32.78770065307617 21.41497039794922 0.9353322386741638
32.830055236816406 21.156713485717773 0.9384470582008362
32.825016021728516 20.86983871459961 0.9452884197235107
32.84981918334961 20.603965759277344 0.9495206475257874
32.84968948364258 20.324399948120117 0.955628514289856
32.879737854003906 20.06536102294922 0.9591174125671387
32.858272552490234 19.77688217163086 0.9666364192962646
32.900569915771484 19.528629302978516 0.968822717666626
32.930728912353516 19.274551391601562 0.9718473553657532
32.908897399902344 18.991920471191406 0.978920042514801
32.91779708862305 18.72903060913086 0.9833582043647766
32.83857727050781 18.418434143066406 0.9947284460067749
32.85195541381836 18.162124633789062 0.9984978437423706
32.972923278808594 17.966001510620117 0.9935086369514465
32.981109619140625 17.70914649963379 0.9974226951599121
33.002376556396484 17.460796356201172 1.0001503229141235
33.028038024902344 17.216081619262695 1.0023908615112305
33.03418731689453 16.96259307861328 1.0060482025146484
33.05005645751953 16.71552848815918 1.0087960958480835
33.06235122680664 16.468021392822266 1.0116922855377197
33.06837844848633 16.218791961669922 1.0149513483047485
33.095951080322266 15.981385231018066 1.0163724422454834
33.09123229980469 15.729692459106445 1.020216703414917
33.110877990722656 15.49091625213623 1.022005319595337
33.12068557739258 15.248734474182129 1.0244418382644653
33.151485443115234 15.017304420471191 1.0250983238220215
33.129676818847656 14.763334274291992 1.0297675132751465
33.110572814941406 14.512199401855469 1.0340931415557861
33.11620330810547 14.273301124572754 1.036350131034851
33.13025665283203 14.03916072845459 1.037822961807251
33.16846466064453 13.816122055053711 1.0372834205627441
33.184879302978516 13.58482837677002 1.0383312702178955
33.220069885253906 13.362040519714355 1.037793517112732
33.093292236328125 13.075925827026367 1.0497848987579346
33.114906311035156 12.850320816040039 1.0500651597976685
33.51245880126953 12.768754959106445 1.0209178924560547
33.66268539428711 12.590206146240234 1.0109660625457764
33.68745422363281 12.36458683013916 1.0106797218322754
33.728553771972656 12.14555549621582 1.0090073347091675
33.74378204345703 11.91784954071045 1.009234070777893
33.746185302734375 11.68649673461914 1.0103436708450317
33.750797271728516 11.456844329833984 1.011167049407959
33.7642707824707 11.231034278869629 1.0111877918243408
33.78383255004883 11.007962226867676 1.0106227397918701
33.79433822631836 10.782646179199219 1.010650634765625
33.79001998901367 10.553450584411621 1.0117156505584717
33.78416442871094 10.324713706970215 1.0127893686294556
33.77964401245117 10.097299575805664 1.0136476755142212
33.80902862548828 9.880680084228516 1.0117677450180054
33.83222961425781 9.662708282470703 1.0102572441101074
33.83674240112305 9.439998626708984 1.0100878477096558
33.85230255126953 9.221001625061035 1.0089538097381592
33.86259841918945 9.001144409179688 1.0081192255020142
33.86085510253906 8.778752326965332 1.0081110000610352
33.8682975769043 8.559407234191895 1.0072842836380005
33.88206481933594 8.342205047607422 1.0058598518371582
33.89250946044922 8.124691009521484 1.0045865774154663
33.90544128417969 7.908266067504883 1.0030149221420288
33.911163330078125 7.690664291381836 1.001896619796753
33.923282623291016 7.475003242492676 1.0001765489578247
33.943782806396484 7.261568069458008 0.9977013468742371
33.948299407958984 7.045121192932129 0.9963623881340027
33.95437240600586 6.8294806480407715 0.9947980046272278
33.94047927856445 6.61040735244751 0.9946817755699158
33.96045684814453 6.398405075073242 0.9918281435966492
33.97322463989258 6.185333251953125 0.9894315004348755
33.981712341308594 5.971826076507568 0.9872646331787109
33.998687744140625 5.760110378265381 0.9843319058418274
34.005489349365234 5.546965599060059 0.9820882081985474
34.01686477661133 5.334878444671631 0.9793853759765625
34.01015853881836 5.120335102081299 0.9779902696609497
34.025787353515625 4.90949010848999 0.9747486114501953
34.03615951538086 4.698099136352539 0.971814751625061
34.06102752685547 4.488846778869629 0.9676421880722046
34.051971435546875 4.275367259979248 0.966022789478302
34.07622146606445 4.066298961639404 0.961689293384552
33.6385383605957 3.8049910068511963 0.9935100078582764
33.49734115600586 3.581101417541504 1.0020010471343994
33.556034088134766 3.379362106323242 0.9946940541267395
33.61549377441406 3.1772232055664062 0.987216055393219
33.63798522949219 2.9713220596313477 0.9825414419174194
33.64927291870117 2.764446258544922 0.9786452651023865
33.656314849853516 2.5573155879974365 0.9749835729598999
33.67202377319336 2.3508946895599365 0.9705331325531006
33.676509857177734 2.1437418460845947 0.9668665528297424
15.753508567810059 0.9060486555099487 2.3846652507781982
15.779519081115723 0.8104752898216248 2.3809566497802734
15.800965309143066 0.7144359350204468 2.3775579929351807
15.784969329833984 0.6167239546775818 2.3770883083343506
15.803242683410645 0.5203815698623657 2.3738420009613037
15.825906753540039 0.42397060990333557 2.370192527770996
15.831040382385254 0.32695072889328003 2.367892265319824
15.823616027832031 0.2297094762325287 2.3665475845336914
33.759334564208984 0.28254765272140503 0.9258508682250977
13.010997772216797 0.029319144785404205 2.5885016918182373
13.009804725646973 -0.05048493295907974 2.5868847370147705
33.77072525024414 -0.338814377784729 0.9115949869155884
33.78560256958008 -0.5462419986724854 0.9057375192642212
33.78923416137695 -0.7536445260047913 0.9006813764572144
12.834746360778809 -0.36481571197509766 2.593815565109253
33.81260681152344 -1.16933274269104 0.8889405727386475
33.81241226196289 -1.3770357370376587 0.8838720321655273
33.73726272583008 -1.581328272819519 0.8848052620887756
13.101086616516113 -0.6944084763526917 2.564272403717041
12.813881874084473 -0.7580312490463257 2.5856716632843018
12.861570358276367 -0.8400596380233765 2.5796737670898438
33.86185836791992 -2.421025276184082 0.8527795076370239
12.646331787109375 -0.981951117515564 2.593069314956665
33.85371780395508 -2.8383193016052246 0.8418598175048828
12.974530220031738 -1.1677569150924683 2.5615334510803223
33.90193557739258 -3.261704683303833 0.8258349895477295
33.90670394897461 -3.472231388092041 0.8192474842071533
33.92106246948242 -3.684124708175659 0.8117475509643555
33.92617416381836 -3.8954179286956787 0.8048992156982422
33.931941986083984 -4.107153415679932 0.7978801131248474
33.9363899230957 -4.319108963012695 0.790854275226593
33.945438385009766 -4.532066345214844 0.7833249568939209
33.94525146484375 -4.744195938110352 0.7764522433280945
33.945709228515625 -4.956783771514893 0.7694082856178284
33.974388122558594 -5.17405891418457 0.7598578333854675
33.97510528564453 -5.387660503387451 0.7525482177734375
12.744706153869629 -2.101012945175171 2.550264835357666
12.74519157409668 -2.1815009117126465 2.5474140644073486
13.384872436523438 -2.375631809234619 2.4898862838745117
34.03602981567383 -6.257188320159912 0.7171179056167603
34.037742614746094 -6.473659992218018 0.7090969085693359
34.02830123901367 -6.688468933105469 0.7019103169441223
33.97453308105469 -6.894686698913574 0.6984320878982544
33.92927169799805 -7.102540969848633 0.694116473197937
33.937278747558594 -7.321869850158691 0.6850659251213074
34.010009765625 -7.556262493133545 0.6702414751052856
34.01897430419922 -7.7776103019714355 0.6608231067657471
34.08565902709961 -8.013263702392578 0.6462091207504272
34.09939956665039 -8.237629890441895 0.6360808610916138
34.08071517944336 -8.454789161682129 0.6286704540252686
34.10216522216797 -8.682602882385254 0.6175829768180847
34.13367462158203 -8.914021492004395 0.6054560542106628
34.12704086303711 -9.136362075805664 0.5965668559074402
34.11511993408203 -9.357904434204102 0.5880126357078552
34.16314697265625 -9.596892356872559 0.5739539861679077
34.16930389404297 -9.825258255004883 0.5634869337081909
34.16438293457031 -10.051249504089355 0.5538706183433533
34.14842987060547 -10.27468204498291 0.5451081395149231
34.21005630493164 -10.52260971069336 0.5291671752929688
34.191978454589844 -10.747184753417969 0.5202968716621399
34.16010284423828 -10.967975616455078 0.5125470757484436
34.175079345703125 -11.204610824584961 0.5003684759140015
34.22716522216797 -11.454808235168457 0.48461097478866577
34.21240997314453 -11.683850288391113 0.4748356342315674
34.214942932128906 -11.919698715209961 0.4633088707923889
34.163299560546875 -12.137345314025879 0.4566590487957001
34.15242004394531 -12.370074272155762 0.44607678055763245
34.24089050292969 -12.640386581420898 0.42603111267089844
34.29095458984375 -12.89857292175293 0.40936771035194397
34.310298919677734 -13.146798133850098 0.39540186524391174
34.3046760559082 -13.386695861816406 0.3836149573326111
34.314064025878906 -13.63364028930664 0.37023264169692993
34.33925247192383 -13.888301849365234 0.35515937209129333
34.304569244384766 -14.11989974975586 0.3456292748451233
34.34550857543945 -14.383917808532715 0.3286673426628113
34.311180114746094 -14.61773681640625 0.31876471638679504
34.33742141723633 -14.878607749938965 0.30282869935035706
29.508975982666016 -13.002077102661133 0.7595570683479309
34.40322494506836 -15.411505699157715 0.2690257132053375
34.39643478393555 -15.66268539428711 0.25569477677345276
34.40412139892578 -15.921894073486328 0.24074682593345642
34.37746810913086 -16.166526794433594 0.22899498045444489
34.39673614501953 -16.434192657470703 0.21249814331531525
34.401458740234375 -16.69661521911621 0.1972326934337616
34.31402587890625 -16.915233612060547 0.1910039782524109
34.28664779663086 -17.164175033569336 0.1785898655653
34.07283401489258 -17.31954574584961 0.18486033380031586
34.316864013671875 -17.709537506103516 0.1445564180612564
33.78984069824219 -17.70108985900879 0.182566300034523
34.30010986328125 -18.237646102905273 0.11441179364919662
34.049530029296875 -18.373432159423828 0.12398307770490646
30.82768440246582 -17.126888275146484 0.4262520670890808
29.844207763671875 -21.199588775634766 0.2281014323234558
30.235239028930664 -21.757953643798828 0.16413237154483795
29.811904907226562 -21.732423782348633 0.19335705041885376
29.707216262817383 -21.936750411987305 0.18586251139640808
29.637022018432617 -22.167451858520508 0.17418742179870605
29.58494758605957 -22.413145065307617 0.16018132865428925
29.609169006347656 -22.71904182434082 0.13693267107009888
33.775325775146484 -26.246931076049805 -0.3787406384944916
33.63037109375 -26.467145919799805 -0.38540413975715637
33.548606872558594 -26.738075256347656 -0.39982277154922485
33.49654006958008 -27.034635543823242 -0.41808706521987915
32.5561408996582 -26.942670822143555 -0.353107750415802
32.39736557006836 -27.148237228393555 -0.35850074887275696
32.20844268798828 -27.328401565551758 -0.36029869318008423
32.05477523803711 -27.53841209411621 -0.3665941655635834
31.90575408935547 -27.75279426574707 -0.37362784147262573
30.984615325927734 -28.318246841430664 -0.36152875423431396
31.23358726501465 29.83330726623535 0.5038049817085266
31.253110885620117 29.487850189208984 0.5161677598953247
15.527395248413086 14.471424102783203 2.09189510345459
31.311622619628906 28.825960159301758 0.5381092429161072
31.370882034301758 28.527345657348633 0.5457203984260559
31.521896362304688 28.31372833251953 0.5440995693206787
31.69011878967285 28.115877151489258 0.5406399369239807
31.9328556060791 27.983417510986328 0.5297927260398865
31.980600357055664 27.680633544921875 0.5377395153045654
32.03190612792969 27.38350486755371 0.5451087355613708
32.3238639831543 27.29203224182129 0.5291344523429871
32.50482940673828 27.105390548706055 0.523732602596283
14.568910598754883 11.998092651367188 2.245161533355713
14.635098457336426 11.902841567993164 2.244013547897339
14.662568092346191 11.776629447937012 2.246462106704712
14.710137367248535 11.667258262634277 2.246922492980957
14.714522361755371 11.524542808532715 2.2513625621795654
14.702725410461426 11.370620727539062 2.2572128772735596
14.718130111694336 11.239067077636719 2.260410785675049
14.704609870910645 11.086739540100098 2.266204833984375
14.749772071838379 10.979662895202637 2.2664473056793213
14.8046236038208 10.880125999450684 2.2657206058502197
14.871721267700195 10.789700508117676 2.2637975215911865
14.86043930053711 10.643113136291504 2.2690136432647705
14.909805297851562 10.540825843811035 2.2685725688934326
14.962565422058105 10.441184997558594 2.2677528858184814
15.063118934631348 10.374666213989258 2.2625157833099365
15.156817436218262 10.30281925201416 2.257859230041504
15.059736251831055 10.10244083404541 2.270430564880371
15.09048843383789 9.989510536193848 2.2713205814361572
15.109569549560547 9.869494438171387 2.2731871604919434
15.15038013458252 9.764205932617188 2.2730226516723633
15.161858558654785 9.640595436096191 2.2754178047180176
15.209561347961426 9.540526390075684 2.2744948863983154
15.25830078125 9.4412841796875 2.2734146118164062
15.30980110168457 9.343878746032715 2.2720258235931396
15.373494148254395 9.253910064697266 2.2694931030273438
15.436659812927246 9.1635103225708 2.2669503688812256
15.476058959960938 9.059082984924316 2.266451120376587
32.93562698364258 19.009553909301758 0.7299030423164368
32.94465637207031 18.746519088745117 0.7351300716400146
32.83430480957031 18.418237686157227 0.7506757974624634
32.8686408996582 18.173555374145508 0.7533382773399353
32.96426010131836 17.963491439819336 0.7504904270172119
33.00055694580078 17.721805572509766 0.752692461013794
33.013980865478516 17.46915626525879 0.7567391991615295
33.005218505859375 17.206409454345703 0.7625641822814941
33.04326248168945 16.969478607177734 0.7641656994819641
33.04228210449219 16.713825225830078 0.7690095901489258
33.05725860595703 16.467714309692383 0.772319495677948
33.0695686340332 16.221609115600586 0.7757136821746826
33.08549499511719 15.978570938110352 0.778650164604187
33.086181640625 15.729528427124023 0.7827576994895935
33.09318542480469 15.484880447387695 0.7861759662628174
33.11474609375 15.248242378234863 0.7882026433944702
33.147361755371094 15.017682075500488 0.7891417741775513
33.10190963745117 14.753202438354492 0.7966391444206238
33.1037712097168 14.511460304260254 0.7999369502067566
33.115821838378906 14.27538013458252 0.8022258281707764
33.13447570800781 14.043196678161621 0.8038153052330017
33.1625862121582 13.815922737121582 0.8044677376747131
33.18177032470703 13.585809707641602 0.80575031042099
33.22065353393555 13.364534378051758 0.80522620677948
33.087486267089844 13.075878143310547 0.8192119002342224
33.123043060302734 12.855728149414062 0.8187071084976196
33.503662109375 12.767688751220703 0.7887745499610901
33.67715072631836 12.597919464111328 0.7763407826423645
33.71226119995117 12.375998497009277 0.7755337357521057
33.72903060913086 12.148037910461426 0.7761566042900085
33.73393630981445 11.9166841506958 0.7776578068733215
33.74104690551758 11.687031745910645 0.7788472175598145
33.74566650390625 11.457417488098145 0.780121386051178
33.74779510498047 11.227869987487793 0.7814821004867554
33.78060531616211 11.009227752685547 0.7801274657249451
33.78066635131836 10.780603408813477 0.7814167737960815
33.795372009277344 10.557443618774414 0.7813473343849182
33.79621887207031 10.330719947814941 0.7823274731636047
33.787925720214844 10.102097511291504 0.7839568853378296
33.80488586425781 9.881793022155762 0.7833371758460999
33.82041549682617 9.661660194396973 0.7827187180519104
33.835479736328125 9.441975593566895 0.7820212244987488
33.84912109375 9.222467422485352 0.7813254594802856
33.843048095703125 8.998278617858887 0.7821740508079529
33.85382843017578 8.779263496398926 0.7814851403236389
33.86802673339844 8.561674118041992 0.7803921699523926
33.877933502197266 8.343524932861328 0.7795443534851074
33.88934326171875 8.126272201538086 0.7784548997879028
33.89936447143555 7.9091901779174805 0.7773667573928833
33.89633560180664 7.689642906188965 0.7772632241249084
33.91622543334961 7.475792407989502 0.7751143574714661
33.93476867675781 7.2619853019714355 0.7729652523994446
33.94123077392578 7.04600191116333 0.7717195749282837
33.946319580078125 6.830210208892822 0.7704773545265198
33.95395278930664 6.615381717681885 0.76890629529953
33.949459075927734 6.398684024810791 0.7682473063468933
33.97299575805664 6.187646389007568 0.7651087641716003
33.98344421386719 5.9744873046875 0.7629619240760803
33.98764419555664 5.760598182678223 0.7612307667732239
33.99739074707031 5.548003673553467 0.7589200735092163
34.005802154541016 5.335504531860352 0.756609320640564
34.00598907470703 5.122069358825684 0.7548828721046448
34.02554702758789 4.911820888519287 0.7514046430587769
34.03887176513672 4.700841903686523 0.7483410835266113
34.04694366455078 4.489360809326172 0.7456122636795044
34.05567169189453 4.27820348739624 0.7427156567573547
34.07001876831055 4.067933559417725 0.7392297983169556
33.64246368408203 3.8077704906463623 0.7732075452804565
33.48846435546875 3.582474708557129 0.7838570475578308
33.537200927734375 3.379793643951416 0.7771503925323486
33.606536865234375 3.1787123680114746 0.7685720324516296
33.63098907470703 2.97304368019104 0.7637032866477966
33.64126968383789 2.7661309242248535 0.7599313259124756
33.65028381347656 2.55920147895813 0.7561585903167725
33.66000747680664 2.352402448654175 0.7522128224372864
33.67144775390625 2.145768404006958 0.7480101585388184
15.755083084106445 0.9068012237548828 2.282036781311035
15.782068252563477 0.8112716674804688 2.2781074047088623
15.794538497924805 0.7148130536079407 2.275369644165039
15.802436828613281 0.6180750727653503 2.2729713916778564
15.799784660339355 0.520937442779541 2.2714297771453857
15.839359283447266 0.42500489950180054 2.26619029045105
15.836517333984375 0.3277384638786316 2.264557361602783
15.818132400512695 0.23030385375022888 2.264219045639038
33.74615478515625 0.2848077714443207 0.7075697779655457
12.033679008483887 0.027462895959615707 2.58886981010437
12.186909675598145 -0.04693498834967613 2.57395601272583
12.961284637451172 -0.12939700484275818 2.5048508644104004
33.78031921386719 -0.5437757968902588 0.6865680813789368
33.78792190551758 -0.751231849193573 0.6811121106147766
12.817866325378418 -0.36394041776657104 2.511890411376953
33.813232421875 -1.1669647693634033 0.6689661741256714
33.8120231628418 -1.3746283054351807 0.6639336347579956
13.247401237487793 -0.6202621459960938 2.468250036239624
13.168593406677246 -0.6975575685501099 2.4730937480926514
12.824828147888184 -0.7582802772521973 2.501317262649536
12.825757026672363 -0.8373197317123413 2.499110698699951
12.721871376037598 -0.9089497923851013 2.506150960922241
33.861366271972656 -2.6274659633636475 0.6262862682342529
12.85042953491211 -1.076749324798584 2.4902729988098145
13.028956413269043 -1.1722356081008911 2.4720442295074463
12.905367851257324 -1.2409790754318237 2.4807019233703613
12.997446060180664 -1.3303544521331787 2.4700467586517334
33.912445068359375 -3.6807634830474854 0.5906872153282166
33.91357421875 -3.891542911529541 0.5840097069740295
33.916358947753906 -4.102835655212402 0.5770602226257324
33.93560791015625 -4.316573619842529 0.5684981942176819
33.94363784790039 -4.5293869972229 0.5608200430870056
33.959205627441406 -4.7437028884887695 0.5523285269737244
13.057415008544922 -1.9059886932373047 2.4462857246398926
13.134927749633789 -1.9996817111968994 2.436398506164551
13.189152717590332 -2.0908119678497314 2.428556203842163
13.196561813354492 -2.175072193145752 2.424929141998291
34.00191116333008 -5.8180460929870605 0.5110870003700256
29.248485565185547 -5.189666271209717 0.9408960938453674
34.02022171020508 -6.251814365386963 0.49353939294815063
34.04539489746094 -6.472642421722412 0.4830774664878845
34.0183219909668 -6.6840338706970215 0.47731631994247437
33.965538024902344 -6.8903889656066895 0.47382596135139465
33.915401458740234 -7.097166538238525 0.4699791669845581
33.91462326049805 -7.314507484436035 0.46140170097351074
34.01744079589844 -7.555426597595215 0.44296908378601074
34.09721755981445 -7.793001651763916 0.42651066184043884
34.091007232666016 -8.0120210647583 0.4179787337779999
34.08435821533203 -8.231493949890137 0.40934881567955017
34.08113479614258 -8.452386856079102 0.40025413036346436
34.08708953857422 -8.676254272460938 0.3901417851448059
34.133968353271484 -8.911581993103027 0.37597256898880005
34.121524810791016 -9.132365226745605 0.3673069179058075
34.12013626098633 -9.356757164001465 0.35743749141693115
34.1422004699707 -9.588478088378906 0.3451578617095947
34.158870697021484 -9.819722175598145 0.33323267102241516
34.14914321899414 -10.044228553771973 0.3237014710903168
34.141761779785156 -10.270133972167969 0.31379154324531555
34.190940856933594 -10.514181137084961 0.29820916056632996
34.18046569824219 -10.741011619567871 0.2882755696773529
34.152366638183594 -10.962937355041504 0.2799178659915924
34.184326171875 -11.205083847045898 0.26549607515335083
34.20232009887695 -11.443927764892578 0.25226858258247375
34.176265716552734 -11.668937683105469 0.24323245882987976
34.21736526489258 -11.917967796325684 0.22735826671123505
34.140357971191406 -12.126622200012207 0.2230839878320694
34.07611846923828 -12.33986759185791 0.2174111306667328
34.142242431640625 -12.601386070251465 0.1984924077987671
34.31265640258789 -12.904131889343262 0.16881638765335083
34.2900390625 -13.136431694030762 0.15839897096157074
34.30481719970703 -13.384139060974121 0.14401213824748993
34.27250289916992 -13.61451530456543 0.13423848152160645
33.811336517333984 -13.672213554382324 0.16825984418392181
33.758602142333984 -13.892602920532227 0.16042934358119965
33.696170806884766 -14.109400749206543 0.15345309674739838
33.61677551269531 -14.31932544708252 0.14809508621692657
33.602752685546875 -14.557697296142578 0.13580162823200226
29.491302490234375 -12.992143630981445 0.5515813231468201
33.64238739013672 -15.068086624145508 0.103560671210289
20.59609031677246 -13.880524635314941 1.172629475593567
20.520095825195312 -14.013323783874512 1.1686514616012573
20.03736686706543 -13.864871978759766 1.2137069702148438
19.866886138916016 -13.928104400634766 1.221278190612793
19.753175735473633 -14.030102729797363 1.2219481468200684
19.625234603881836 -14.121355056762695 1.2243221998214722
19.574115753173828 -14.267836570739746 1.2171863317489624
19.56195831298828 -14.44377326965332 1.2050814628601074
19.509326934814453 -14.590896606445312 1.1978422403335571
19.530181884765625 -14.794395446777344 1.1812400817871094
19.539003372192383 -14.990824699401855 1.1659150123596191
19.49585723876953 -15.148846626281738 1.1569628715515137
29.12216567993164 -26.287242889404297 -0.3519785404205322
20.18453025817871 -18.674848556518555 0.8344744443893433
20.417747497558594 -19.124738693237305 0.7830344438552856
20.137975692749023 -19.09627342224121 0.8029573559761047
19.772493362426758 -18.981740951538086 0.8352306485176086
32.328067779541016 31.2395076751709 0.11157511174678802
30.915584564208984 29.5103702545166 0.2814379930496216
30.996957778930664 29.227170944213867 0.28827664256095886
15.514444351196289 14.44941234588623 1.9671192169189453
31.113910675048828 28.625362396240234 0.3061118721961975
31.210294723510742 28.3629150390625 0.3105977773666382
31.131044387817383 27.944530487060547 0.33348390460014343
31.246261596679688 27.70411491394043 0.3354620039463043
31.399450302124023 27.49814796447754 0.3332516551017761
13.535059928894043 11.70683479309082 2.2171013355255127
13.5594482421875 11.583447456359863 2.2203240394592285
13.602645874023438 11.476917266845703 2.2214913368225098
13.612884521484375 11.343486785888672 2.225982427597046
13.653558731079102 11.23633861541748 2.227227210998535
13.705034255981445 11.138547897338867 2.227278232574463
13.67342472076416 10.974405288696289 2.235750675201416
13.716876983642578 10.871753692626953 2.236438035964966
13.754876136779785 10.76529598236084 2.237600326538086
13.803128242492676 10.667314529418945 2.237643003463745
13.851490020751953 10.56974983215332 2.2376010417938232
13.891214370727539 10.465994834899902 2.238353967666626
13.90859317779541 10.346085548400879 2.2412662506103516
13.996528625488281 10.278871536254883 2.2370448112487793
14.029285430908203 10.171178817749023 2.238267421722412
14.08232307434082 10.078554153442383 2.237398862838745
14.111959457397461 9.96955680847168 2.2387773990631104
14.136702537536621 9.857722282409668 2.240557909011841
14.169638633728027 9.752177238464355 2.2414517402648926
14.212530136108398 9.653879165649414 2.24129319190979
14.253094673156738 9.55431079864502 2.2412922382354736
14.285491943359375 9.44965934753418 2.242016315460205
14.315472602844238 9.343879699707031 2.242901086807251
14.353075981140137 9.243483543395996 2.2429723739624023
14.396714210510254 9.14725399017334 2.2423899173736572
14.439713478088379 9.050835609436035 2.24180269241333
14.4769868850708 8.951087951660156 2.241699695587158
14.523791313171387 8.857452392578125 2.2406136989593506
14.549493789672852 8.751245498657227 2.2414839267730713
14.62929916381836 8.677602767944336 2.237114906311035
14.740575790405273 8.621928215026855 2.2296996116638184
14.841357231140137 8.559237480163574 2.2232463359832764
14.906399726867676 8.475433349609375 2.2201426029205322
14.986621856689453 8.399924278259277 2.2155468463897705
15.058623313903809 8.31941032409668 2.2116782665252686
15.101318359375 8.2225980758667 2.210519552230835
27.715444564819336 14.872498512268066 1.0265765190124512
27.797012329101562 14.697562217712402 1.0239009857177734
27.950836181640625 14.560397148132324 1.0143394470214844
33.01435470581055 16.43381118774414 0.556058943271637
32.93339920043945 16.142398834228516 0.5686999559402466
33.013458251953125 15.931427955627441 0.5661946535110474
33.02556610107422 15.688436508178711 0.5698584914207458
33.10183334350586 15.476707458496094 0.567425549030304
33.107948303222656 15.232975006103516 0.5713479518890381
33.14137268066406 15.002900123596191 0.5725947022438049
33.095848083496094 14.738526344299316 0.5809810161590576
33.10218811035156 14.498865127563477 0.5844269394874573
33.111412048339844 14.261650085449219 0.587460458278656
33.13182067871094 14.03030776977539 0.5893202424049377
33.16535949707031 13.805377006530762 0.5898325443267822
33.17341232299805 13.570751190185547 0.592544674873352
33.21034240722656 13.348808288574219 0.5924684405326843
33.0928840637207 13.066537857055664 0.6063822507858276
