# .PCD v0.7 - Point Cloud Data file format
VERSION 0.7
FIELDS x y z
SIZE 4 4 4
TYPE F F F
COUNT 1 1 1
WIDTH 847
HEIGHT 1
VIEWPOINT 0 0 0 1 0 0 0
POINTS 847
DATA ascii
12.84943675994873 -1.0766661167144775 2.490361452102661
12.876177787780762 -1.1584950685501099 2.485668897628784
12.972790718078613 -1.247460126876831 2.4746768474578857
12.996455192565918 -1.330253005027771 2.470135450363159
33.91838836669922 -3.681408405303955 0.590153694152832
33.91753005981445 -3.8919970989227295 0.5836535692214966
33.91240310668945 -4.102357387542725 0.5774163603782654
33.940547943115234 -4.317202568054199 0.5680513381958008
33.93870162963867 -4.528728485107422 0.5612668991088867
33.94736862182617 -4.742049694061279 0.5534031987190247
13.06924057006836 -1.9077144861221313 2.4452099800109863
13.134927749633789 -1.9996817111968994 2.436398506164551
13.18718433380127 -2.0905003547668457 2.4287359714508057
13.194596290588379 -2.174748420715332 2.4251089096069336
33.98719024658203 -5.815526485443115 0.5124391913414001
29.250446319580078 -5.190014362335205 0.9407156109809875
34.01042556762695 -6.250013828277588 0.4944433867931366
34.04539489746094 -6.472642421722412 0.4830774664878845
34.0153923034668 -6.683457374572754 0.4775887131690979
33.961631774902344 -6.889597415924072 0.4741896092891693
33.91637420654297 -7.097370624542236 0.4698881506919861
33.927276611328125 -7.31723690032959 0.4602186977863312
34.01258087158203 -7.554347038269043 0.4434248208999634
34.10401153564453 -7.794554710388184 0.4258713126182556
34.07162094116211 -8.007464408874512 0.4198078513145447
34.07758331298828 -8.229857444763184 0.40999048948287964
34.07436752319336 -8.450709342956543 0.40089622139930725
34.09481430053711 -8.678218841552734 0.38940688967704773
34.129150390625 -8.910324096679688 0.37643253803253174
34.1186408996582 -9.131592750549316 0.3675838112831116
34.12013626098633 -9.356757164001465 0.35743749141693115
34.12590408325195 -9.583900451660156 0.34672725200653076
34.1502571105957 -9.817246437072754 0.33406513929367065
34.146278381347656 -10.043386459350586 0.3239787518978119
34.15415573120117 -10.273862838745117 0.3125860393047333
34.18428039550781 -10.51213264465332 0.29885953664779663
34.187110900878906 -10.743101119995117 0.2876252233982086
34.17037582397461 -10.968719482421875 0.2781481444835663
34.190948486328125 -11.207253456115723 0.2648434340953827
34.1966552734375 -11.442031860351562 0.2528283894062042
34.18663024902344 -11.672476768493652 0.2422037422657013
34.210784912109375 -11.915675163269043 0.22801287472248077
34.13566970825195 -12.124955177307129 0.2235526591539383
34.074249267578125 -12.339189529418945 0.21759866178035736
34.14877700805664 -12.603799819946289 0.19783496856689453
34.307064056396484 -12.902029037475586 0.1693800389766693
34.303985595703125 -13.14177417755127 0.1569858342409134
34.30760192871094 -13.385224342346191 0.14372870326042175
34.25307083129883 -13.606797218322754 0.1362219601869583
33.639671325683594 -13.602800369262695 0.18585583567619324
33.742950439453125 -13.886161804199219 0.1620393842458725
33.64199447631836 -14.086715698242188 0.15904852747917175
33.5755615234375 -14.301770210266113 0.15236850082874298
33.55799102783203 -14.538307189941406 0.14046192169189453
29.487659454345703 -12.990538597106934 0.5519621968269348
33.61785888671875 -15.057100296020508 0.10613435506820679
33.4990348815918 -15.25146770477295 0.10430676490068436
20.615070343017578 -13.893315315246582 1.1703609228134155
20.54064178466797 -14.027353286743164 1.1661831140518188
19.993179321289062 -13.834297180175781 1.2190444469451904
19.89133071899414 -13.94524097442627 1.2183094024658203
19.762910842895508 -14.037016868591309 1.220759391784668
19.625234603881836 -14.121355056762695 1.2243221998214722
19.572507858276367 -14.266663551330566 1.217384696006775
19.5611572265625 -14.443181991577148 1.2051808834075928
19.509326934814453 -14.590896606445312 1.1978422403335571
19.540491104125977 -14.802206993103027 1.1799449920654297
19.511371612548828 -14.969626426696777 1.169405460357666
19.510786056518555 -15.160445213317871 1.1550660133361816
29.114042282104492 -26.279911041259766 -0.35086652636528015
20.532609939575195 -18.764116287231445 0.8050881028175354
20.318897247314453 -18.799161911010742 0.8158379197120667
20.21880340576172 -18.938392639160156 0.8108137845993042
19.790435791015625 -18.998964309692383 0.8326910734176636
32.406925201416016 31.31571388244629 0.10298235714435577
30.897558212280273 29.493160247802734 0.28339290618896484
30.993331909179688 29.223752975463867 0.2886677384376526
15.52684497833252 14.460962295532227 1.9657866954803467
31.11831283569336 28.629413604736328 0.30564090609550476
31.234642028808594 28.385042190551758 0.3080053925514221
31.18000602722168 27.988481521606445 0.3282926082611084
31.25670623779297 27.7133731842041 0.3343592882156372
31.397951126098633 27.49683380126953 0.3334096074104309
13.54486083984375 11.715312957763672 2.2160751819610596
13.545805931091309 11.571791648864746 2.2217464447021484
13.600360870361328 11.474987983703613 2.221728801727295
13.602164268493652 11.334551811218262 2.2270913124084473
13.663564682006836 11.244573593139648 2.2261962890625
13.694978713989258 11.13037395477295 2.2283105850219727
13.659431457519531 10.963172912597656 2.2371816635131836
13.713752746582031 10.86927604675293 2.2367565631866455
13.764294624328613 10.772668838500977 2.2366440296173096
13.805495262145996 10.669143676757812 2.237403631210327
13.868130683898926 10.582448959350586 2.2359235286712646
13.899174690246582 10.471993446350098 2.2375540733337402
13.90859317779541 10.346085548400879 2.2412662506103516
13.99813461303711 10.280051231384277 2.236884355545044
14.029285430908203 10.171178817749023 2.238267421722412
14.083134651184082 10.079133987426758 2.237318515777588
14.093235969543457 9.956327438354492 2.240628480911255
14.126073837280273 9.850310325622559 2.241605758666992
14.181133270263672 9.760088920593262 2.2403218746185303
14.21912670135498 9.658360481262207 2.2406468391418457
14.2506103515625 9.55264663696289 2.24153470993042
14.286322593688965 9.450209617614746 2.2419352531433105
14.325488090515137 9.350417137145996 2.2419278621673584
14.365644454956055 9.251578330993652 2.2417542934417725
14.399238586425781 9.148856163024902 2.2421460151672363
14.434646606445312 9.047659873962402 2.242291212081909
14.47529125213623 8.950039863586426 2.2418627738952637
14.511027336120605 8.849666595458984 2.241838216781616
14.561450958251953 8.758439064025879 2.240339517593384
14.628442764282227 8.677093505859375 2.237196922302246
14.761221885681152 8.634005546569824 2.2277324199676514
14.830998420715332 8.553261756896973 2.224231004714966
14.896870613098145 8.470013618469238 2.2210464477539062
14.997054100036621 8.40577220916748 2.214559555053711
14.982733726501465 8.277477264404297 2.218846321105957
15.103943824768066 8.224028587341309 2.2102718353271484
27.743545532226562 14.887578010559082 1.0239325761795044
27.786441802978516 14.691971778869629 1.0248936414718628
27.93050765991211 14.54980754852295 1.0162445306777954
33.00364685058594 16.428482055664062 0.5570566654205322
32.9512939453125 16.15117073059082 0.5670344233512878
33.04307556152344 15.945719718933105 0.5634418725967407
33.03006362915039 15.690574645996094 0.5694412589073181
33.07114028930664 15.462356567382812 0.5702693462371826
33.107948303222656 15.232975006103516 0.5713479518890381
33.14228057861328 15.003311157226562 0.5725114941596985
33.114967346191406 14.747040748596191 0.5792176127433777
33.084842681884766 14.4912691116333 0.5860248804092407
33.10409164428711 14.258496284484863 0.5881343483924866
33.12447738647461 14.027198791503906 0.5899947285652161
33.1644401550293 13.804994583129883 0.5899173021316528
33.183555603027344 13.57490062713623 0.5916147232055664
33.22420883178711 13.354382514953613 0.5911983847618103
33.06137466430664 13.054096221923828 0.6092652082443237
33.11257553100586 12.840251922607422 0.6075981259346008
33.474334716796875 12.745049476623535 0.5774433016777039
33.66535568237305 12.582046508789062 0.5627856850624084
33.7153205871582 12.365707397460938 0.5608767867088318
33.735774993896484 12.139106750488281 0.5615240931510925
33.73780822753906 11.906747817993164 0.5637132525444031
33.745792388916016 11.677428245544434 0.5652247667312622
33.74092102050781 11.444615364074707 0.5677706003189087
33.75053024291992 11.217643737792969 0.5688652396202087
33.761474609375 10.991907119750977 0.5697060227394104
33.77376937866211 10.767365455627441 0.5702929496765137
33.7855339050293 10.543380737304688 0.5707970261573792
33.788204193115234 10.317328453063965 0.5719963908195496
33.77696228027344 10.087930679321289 0.5743246078491211
33.80052185058594 9.869669914245605 0.5733723640441895
33.82746887207031 9.652865409851074 0.5719857215881348
33.833831787109375 9.43074893951416 0.5723348259925842
33.840667724609375 9.209437370300293 0.5725143551826477
33.839324951171875 8.986607551574707 0.5733078122138977
33.8548469543457 8.76888370513916 0.5724493861198425
33.86125183105469 8.549354553222656 0.5722917914390564
33.86623001098633 8.33007526397705 0.572136640548706
33.87754821777344 8.112910270690918 0.5712851285934448
33.886512756347656 7.895692348480225 0.5705227255821228
33.89990997314453 7.679988384246826 0.5692360401153564
33.914859771728516 7.465056896209717 0.5676865577697754
33.93234634399414 7.251061916351318 0.5657845735549927
33.92020034790039 7.031266689300537 0.5664404630661011
33.94276809692383 6.819152355194092 0.563835084438324
33.951297760009766 6.604549884796143 0.5623782873153687
33.953582763671875 6.389176368713379 0.5613646507263184
33.960384368896484 6.175090312957764 0.5598222613334656
33.97270202636719 5.962364673614502 0.557659924030304
33.980743408203125 5.749218463897705 0.5557636618614197
33.992366790771484 5.5369977951049805 0.553423285484314
34.00069808959961 5.324539661407471 0.5512610077857971
33.99785232543945 5.110705375671387 0.5499928593635559
34.009437561035156 4.899375915527344 0.5472960472106934
34.026611328125 4.689046859741211 0.5439717173576355
34.03459167480469 4.477649211883545 0.5413622260093689
34.04718780517578 4.26707124710083 0.5382139682769775
34.06836700439453 4.057682991027832 0.5341649055480957
33.5439567565918 3.7867276668548584 0.5796728730201721
33.47010040283203 3.570655107498169 0.5840783715248108
33.48801040649414 3.364992380142212 0.5800103545188904
33.50168228149414 3.158961296081543 0.5762090682983398
33.5339241027832 2.9546356201171875 0.5705938935279846
33.58675765991211 2.7518208026885986 0.5629740953445435
33.53110885620117 2.540337324142456 0.5651564598083496
33.607261657714844 2.3389077186584473 0.5551584959030151
33.61759567260742 2.1325364112854004 0.5510655641555786
15.744099617004395 0.9011493921279907 2.188659191131592
15.779976844787598 0.8061396479606628 2.1837782859802246
15.784440040588379 0.7093341946601868 2.1817259788513184
15.783334732055664 0.6123098134994507 2.1801302433013916
15.796563148498535 0.5158131718635559 2.1771576404571533
15.820148468017578 0.4194674491882324 2.173170328140259
15.821245193481445 0.3224025368690491 2.171201229095459
15.81278133392334 0.22521057724952698 2.1700618267059326
33.722286224365234 0.27483803033828735 0.5077611207962036
33.72193908691406 0.06798764318227768 0.5034555792808533
33.711360931396484 -0.13881398737430573 0.49998292326927185
33.7343635559082 -0.3458416759967804 0.4932660758495331
12.929204940795898 -0.21264615654945374 2.428481101989746
11.946022987365723 -0.2698768079280853 2.5184483528137207
12.15101432800293 -0.34907102584838867 2.497525691986084
12.859956741333008 -0.44832897186279297 2.4292874336242676
33.79439926147461 -1.3837053775787354 0.4629282057285309
33.733150482177734 -1.5885311365127563 0.46336933970451355
13.161252975463867 -0.7014859914779663 2.394850492477417
12.73117733001709 -0.7569515109062195 2.4332478046417236
12.792704582214355 -0.8393876552581787 2.4252917766571045
33.842262268066406 -2.4270575046539307 0.4305826723575592
12.725554466247559 -0.991927444934845 2.4272122383117676
12.889711380004883 -1.0843009948730469 2.409332036972046
33.82235336303711 -3.0522048473358154 0.41426271200180054
12.504521369934082 -1.2066150903701782 2.4413022994995117
33.88056182861328 -3.477036952972412 0.39592719078063965
33.911617279052734 -3.690598487854004 0.3863622546195984
33.91363525390625 -3.9014899730682373 0.379442036151886
33.909400939941406 -4.111948490142822 0.37299197912216187
33.90780258178711 -4.323006629943848 0.3661574125289917
33.90587615966797 -4.534335613250732 0.35922256112098694
33.94797897338867 -4.7521514892578125 0.3478938639163971
33.94829559326172 -4.964753150939941 0.3404662013053894
33.95712661743164 -5.179039478302002 0.33207619190216064
33.94984817504883 -5.391282558441162 0.32511499524116516
33.97856521606445 -5.609793186187744 0.31450381875038147
33.96074676513672 -5.821127414703369 0.308298796415329
13.26829719543457 -2.3589553833007812 2.3315176963806152
13.281800270080566 -2.445518970489502 2.326974868774414
34.0333366394043 -6.480569839477539 0.27645906805992126
34.00715637207031 -6.692079067230225 0.2705208361148834
33.949424743652344 -6.897371768951416 0.26758021116256714
33.908966064453125 -7.1060895919799805 0.2628082036972046
33.963531494140625 -7.335370063781738 0.24843749403953552
33.954376220703125 -7.551762580871582 0.24026042222976685
34.036006927490234 -7.7894110679626465 0.2228412926197052
34.03654861450195 -8.009654998779297 0.21337547898292542
34.03373336791992 -8.229732513427734 0.20409700274467468
34.0372200012207 -8.451998710632324 0.19403015077114105
34.080726623535156 -8.68518352508545 0.1797502189874649
34.110130310058594 -8.915953636169434 0.1667221635580063
34.11202621459961 -9.140459060668945 0.15632370114326477
34.09132766723633 -9.359527587890625 0.1480747014284134
34.07784652709961 -9.5811128616333 0.13893739879131317
34.105010986328125 -9.814996719360352 0.12546585500240326
34.058021545410156 -10.028214454650879 0.11946357041597366
34.04591369628906 -10.252131462097168 0.10971644520759583
29.46651268005371 -12.991729736328125 0.36067745089530945
33.359375 -19.083887100219727 -0.351697713136673
33.31257247924805 -19.329566955566406 -0.36476752161979675
33.29657745361328 -19.59456443786621 -0.38177064061164856
33.17010498046875 -19.79536247253418 -0.3856431543827057
20.53329849243164 -13.483745574951172 1.0578473806381226
20.358789443969727 -13.548826217651367 1.0665513277053833
20.03418731689453 -13.511080741882324 1.0943143367767334
19.749425888061523 -13.496241569519043 1.1172341108322144
19.58744239807129 -13.562772750854492 1.1246109008789062
19.504365921020508 -13.683226585388184 1.12184739112854
19.465131759643555 -13.834859848022461 1.1133198738098145
19.457050323486328 -14.009767532348633 1.100587010383606
19.34783935546875 -14.295246124267578 1.0867774486541748
19.420284271240234 -14.533997535705566 1.0628513097763062
19.34627914428711 -14.664850234985352 1.0580966472625732
19.5252742767334 -15.375105857849121 0.9888339042663574
19.43724822998047 -15.500151634216309 0.9852158427238464
28.907176971435547 -23.63792610168457 -0.3526011109352112
28.804765701293945 -23.850923538208008 -0.3626094162464142
28.739686965942383 -24.09613800048828 -0.3780372142791748
28.644630432128906 -24.31764030456543 -0.3895301818847656
28.68743133544922 -24.658788681030273 -0.4207366704940796
28.767610549926758 -25.03662109375 -0.4577385485172272
28.6375732421875 -25.234281539916992 -0.46520623564720154
20.912330627441406 -18.65694808959961 0.6213217377662659
20.753564834594727 -18.745540618896484 0.6247637271881104
20.36703872680664 -18.624900817871094 0.6614294648170471
20.14476776123047 -18.65018081665039 0.6743870377540588
19.864925384521484 -18.619050979614258 0.6959720253944397
19.68576431274414 -18.67963409423828 0.7027959823608398
19.54676628112793 -18.777292251586914 0.7036325335502625
15.52364730834961 14.44285774230957 1.8476436138153076
13.104455947875977 11.605766296386719 2.1528127193450928
13.111473083496094 11.469400405883789 2.1583664417266846
13.12183952331543 11.33729362487793 2.163419008255005
13.170492172241211 11.239130973815918 2.1640775203704834
13.21614933013916 11.138871192932129 2.164985418319702
13.25035285949707 11.029546737670898 2.167076349258423
13.289871215820312 10.925285339355469 2.168487548828125
13.325517654418945 10.818442344665527 2.1702358722686768
13.351802825927734 10.704713821411133 2.1729183197021484
13.38578987121582 10.597875595092773 2.1746644973754883
13.42367935180664 10.494706153869629 2.1758978366851807
13.464752197265625 10.394514083862305 2.1767020225524902
13.501139640808105 10.291192054748535 2.1779301166534424
13.535176277160645 10.186615943908691 2.1793272495269775
13.570037841796875 10.083198547363281 2.180551528930664
13.608962059020996 9.983270645141602 2.1812589168548584
13.642330169677734 9.879739761352539 2.182478666305542
13.676563262939453 9.77733325958252 2.1835248470306396
13.71900749206543 9.681196212768555 2.183622360229492
13.748526573181152 9.576364517211914 2.1850080490112305
13.789590835571289 9.480001449584961 2.185098886489868
13.822572708129883 9.378458976745605 2.1859631538391113
13.85648250579834 9.277976989746094 2.186652183532715
13.891345024108887 9.1785306930542 2.187166213989258
13.929681777954102 9.081725120544434 2.187243938446045
13.971543312072754 8.9874906539917 2.1868844032287598
14.01445484161377 8.894149780273438 2.1863465309143066
14.061814308166504 8.803791999816895 2.185281753540039
14.089099884033203 8.701147079467773 2.1862142086029053
14.13096809387207 8.607826232910156 2.1855762004852295
14.188446044921875 8.524068832397461 2.183274030685425
14.239428520202637 8.436373710632324 2.181575298309326
14.326852798461914 8.369983673095703 2.176105499267578
14.422896385192871 8.190654754638672 2.173013925552368
14.497020721435547 8.115663528442383 2.168734550476074
14.632685661315918 8.074244499206543 2.158196210861206
15.080766677856445 8.201394081115723 2.1161856651306152
15.844348907470703 8.491352081298828 2.04258394241333
27.781147003173828 14.671757698059082 0.84908127784729
27.697967529296875 14.411417007446289 0.8628082871437073
27.729652404785156 14.212630271911621 0.8648815155029297
27.79640007019043 14.032402038574219 0.8633219003677368
33.07245635986328 15.940166473388672 0.35456711053848267
32.35842514038086 15.352291107177734 0.43064096570014954
32.73133850097656 15.2841796875 0.39888328313827515
33.01140213012695 15.169224739074707 0.3762417733669281
33.13518142700195 14.980820655822754 0.36892008781433105
33.12138366699219 14.730748176574707 0.3750089108943939
33.088436126708984 14.473822593688965 0.38281428813934326
33.106651306152344 14.240681648254395 0.38543033599853516
33.11775207519531 14.005534172058105 0.38859105110168457
33.158485412597656 13.783785820007324 0.3886973261833191
33.17469787597656 13.552645683288574 0.39105549454689026
33.21427917480469 13.331838607788086 0.39098218083381653
33.081932067871094 13.043830871582031 0.40753331780433655
33.0782585144043 12.808659553527832 0.411369264125824
33.48252487182617 12.729768753051758 0.375350683927536
33.65473175048828 12.559679985046387 0.36182695627212524
33.695194244384766 12.339999198913574 0.36098313331604004
33.710792541503906 12.111875534057617 0.36241093277931213
33.71641540527344 11.88104248046875 0.3646630048751831
33.73176956176758 11.654498100280762 0.3658258318901062
33.730525970458984 11.423097610473633 0.3684542775154114
33.744728088378906 11.197796821594238 0.36944374442100525
33.75270462036133 10.971210479736328 0.3708941638469696
33.765811920166016 10.74705982208252 0.37170833349227905
33.780296325683594 10.524046897888184 0.3722499907016754
33.78284454345703 10.298065185546875 0.3738067150115967
33.75526428222656 10.063909530639648 0.3781294524669647
33.77675247192383 9.84524917602539 0.37758031487464905
33.80736541748047 9.629703521728516 0.37601789832115173
33.81645965576172 9.40854263305664 0.37639346718788147
33.815467834472656 9.185282707214355 0.3776050806045532
33.831298828125 8.96723461151123 0.3770620822906494
33.84283447265625 8.748587608337402 0.37679946422576904
33.84813690185547 8.52891731262207 0.37700238823890686
33.85395812988281 8.309985160827637 0.3770235776901245
33.869014739990234 8.09384536743164 0.37602388858795166
33.87105941772461 7.875125885009766 0.3761446475982666
33.88529586791992 7.659757614135742 0.37496060132980347
33.905941009521484 7.4462175369262695 0.3730301856994629
33.9125862121582 7.230010032653809 0.37231528759002686
33.9178581237793 7.0139994621276855 0.3716036379337311
33.923709869384766 6.798584938049316 0.3707064390182495
33.94676208496094 6.586965084075928 0.3680250942707062
33.94501876831055 6.370906352996826 0.36760008335113525
33.93994140625 6.154760360717773 0.3673691153526306
33.949180603027344 5.941659450531006 0.3656308948993683
33.963951110839844 5.729835033416748 0.36323270201683044
33.98624801635742 5.519486904144287 0.35998108983039856
33.9856071472168 5.305698871612549 0.3588114082813263
33.983619689941406 5.0921244621276855 0.3576451539993286
33.99408721923828 4.8807525634765625 0.35515138506889343
34.00423049926758 4.669577598571777 0.3525615930557251
34.00615310668945 4.457552909851074 0.350638747215271
34.02156448364258 4.247529029846191 0.34728512167930603
34.02085494995117 4.0357208251953125 0.34536299109458923
32.58353805541992 3.662649393081665 0.48228004574775696
32.76039123535156 3.4792370796203613 0.4630143940448761
32.37660598754883 3.2377920150756836 0.49791067838668823
32.82061004638672 3.079055070877075 0.45249733328819275
32.832515716552734 2.877164125442505 0.4488162696361542
32.56541061401367 2.6525967121124268 0.4721039831638336
33.05012512207031 2.488173484802246 0.4222520887851715
32.64532470703125 2.256418228149414 0.4587176740169525
32.90747833251953 2.0718531608581543 0.4302007257938385
15.737187385559082 0.8928704857826233 2.1004161834716797
15.77497673034668 0.7979902625083923 2.0951693058013916
15.791308403015137 0.7017481327056885 2.091952323913574
15.771251678466797 0.6039587259292603 2.092231035232544
15.791373252868652 0.507757306098938 2.0885229110717773
15.814889907836914 0.4114346504211426 2.084419012069702
15.82089900970459 0.31450289487838745 2.081968307495117
15.805415153503418 0.21722182631492615 2.081568479537964
32.73307418823242 0.251286119222641 0.41470491886138916
32.75946044921875 0.050548944622278214 0.4078874886035919
32.78759765625 -0.150518536567688 0.4007683992385864
12.49150276184082 -0.13525162637233734 2.4005520343780518
12.495257377624512 -0.2119516134262085 2.3984291553497314
12.548284530639648 -0.2898445129394531 2.391378164291382
12.843527793884277 -0.37545260787010193 2.3602404594421387
12.840821266174316 -0.45422372221946716 2.3585619926452637
12.86050033569336 -0.5339223742485046 2.3546080589294434
32.920936584472656 -1.5658756494522095 0.3535604476928711
13.102063179016113 -0.7050236463546753 2.326350688934326
12.841058731079102 -0.7700479030609131 2.350257158279419
12.827987670898438 -0.8482723832130432 2.3493714332580566
12.574267387390137 -0.9090430736541748 2.3725831508636475
12.779585838317871 -1.00269615650177 2.3497002124786377
12.225738525390625 -1.0348312854766846 2.403129816055298
33.11569595336914 -3.0042033195495605 0.29362648725509644
12.034539222717285 -1.1675591468811035 2.417840003967285
33.12595748901367 -3.4154083728790283 0.27983012795448303
33.180110931396484 -3.626847267150879 0.2677551209926605
33.1706428527832 -3.8318917751312256 0.2619919776916504
33.405818939208984 -4.066882610321045 0.23117519915103912
33.05216979980469 -4.229796886444092 0.2602307200431824
33.88698196411133 -4.548062324523926 0.1677289456129074
33.89839553833008 -4.761497974395752 0.15913231670856476
33.93011474609375 -4.978424549102783 0.14830262959003448
33.89847946166992 -5.186446189880371 0.14383795857429504
33.79582214355469 -5.383162975311279 0.14657443761825562
33.75288009643555 -5.588890552520752 0.14303751289844513
33.86261749267578 -5.820746898651123 0.12354761362075806
29.248165130615234 -5.212806224822998 0.5947697758674622
33.774051666259766 -6.23317289352417 0.11605314165353775
33.69173049926758 -6.432007312774658 0.1160886362195015
29.450305938720703 -13.001473426818848 0.17976868152618408
33.08469009399414 -16.338592529296875 -0.3570265471935272
20.553537368774414 -13.331594467163086 0.9290362596511841
20.496925354003906 -13.65544319152832 0.9089630246162415
19.501819610595703 -13.517895698547363 1.0004918575286865
19.38158416748047 -13.611553192138672 1.002813696861267
19.90747833251953 -14.34915542602539 0.9021833539009094
19.382862091064453 -14.152782440185547 0.959616482257843
19.416793823242188 -14.361217498779297 0.9401282668113708
19.40752410888672 -14.539618492126465 0.9263885021209717
19.31920051574707 -14.659579277038574 0.923523485660553
19.472698211669922 -15.544418334960938 0.838349461555481
19.311695098876953 -15.611084938049316 0.845066249370575
19.29210662841797 -15.79217529296875 0.8312559127807617
27.54501724243164 -22.830808639526367 -0.39184868335723877
27.368146896362305 -22.96929931640625 -0.3903556168079376
27.17774200439453 -23.09554100036621 -0.3869311511516571
26.97251319885254 -23.208003997802734 -0.3813455402851105
26.7961483001709 -23.344280242919922 -0.3801024556159973
26.622854232788086 -23.482553482055664 -0.3793949484825134
20.838151931762695 -18.609588623046875 0.4725586175918579
20.541866302490234 -18.5731201171875 0.4973847568035126
20.303268432617188 -18.58538246154785 0.5136011242866516
20.060197830200195 -18.590696334838867 0.5306549072265625
19.856243133544922 -18.629764556884766 0.541776716709137
19.656890869140625 -18.671140670776367 0.5522592663764954
19.43271827697754 -18.686674118041992 0.5667362809181213
15.504838943481445 14.455280303955078 1.718019723892212
12.9708251953125 11.799229621887207 2.0459649562835693
12.998311996459961 11.679513931274414 2.0497803688049316
13.030780792236328 11.565194129943848 2.0528738498687744
13.073570251464844 11.460763931274414 2.054609775543213
13.105785369873047 11.347766876220703 2.0575201511383057
13.153000831604004 11.248398780822754 2.058526039123535
13.193406105041504 11.143738746643066 2.060253858566284
13.22231674194336 11.030074119567871 2.063251256942749
13.263399124145508 10.927238464355469 2.064702272415161
13.300628662109375 10.821799278259277 2.0665149688720703
13.333959579467773 10.713820457458496 2.068690299987793
13.371930122375488 10.610170364379883 2.070225477218628
13.410698890686035 10.507686614990234 2.07157564163208
13.443989753723145 10.401469230651855 2.073472023010254
13.477275848388672 10.295845031738281 2.075275421142578
13.512158393859863 10.192000389099121 2.0768027305603027
13.547872543334961 10.08930492401123 2.0781445503234863
13.58604621887207 9.988913536071777 2.0791168212890625
13.61946964263916 9.885507583618164 2.0805461406707764
13.655374526977539 9.784387588500977 2.0816054344177246
13.697871208190918 9.688374519348145 2.0818331241607666
13.731537818908691 9.586504936218262 2.0829789638519287
13.774311065673828 9.49136734008789 2.083014726638794
13.807378768920898 9.389906883239746 2.0840632915496826
13.84302806854248 9.290614128112793 2.0847394466400146
13.877148628234863 9.190689086914062 2.085505485534668
13.91473388671875 9.093416213989258 2.0858054161071777
13.949975967407227 8.994949340820312 2.0862877368927
13.9904146194458 8.900132179260254 2.0861165523529053
14.02599811553955 8.802510261535645 2.0864064693450928
14.061758041381836 8.70530891418457 2.086599826812744
14.10195255279541 8.611113548278809 2.086230754852295
14.141521453857422 8.516751289367676 2.085857629776001
14.181320190429688 8.422735214233398 2.085386276245117
14.22221565246582 8.329556465148926 2.084723472595215
14.26077938079834 8.235196113586426 2.084243059158325
14.303910255432129 8.143631935119629 2.083195924758911
14.341245651245117 8.048921585083008 2.0827066898345947
14.580940246582031 8.066344261169434 2.0603034496307373
14.837108612060547 8.089701652526855 2.0361504554748535
27.519235610961914 14.785901069641113 0.6765361428260803
27.533374786376953 14.576772689819336 0.6811739206314087
27.570703506469727 14.3809175491333 0.6831721067428589
27.602237701416016 14.182875633239746 0.6856439113616943
27.636825561523438 13.987236022949219 0.6876433491706848
27.695003509521484 13.804137229919434 0.6869887113571167
27.7877197265625 13.638391494750977 0.6825312972068787
27.920677185058594 13.491950988769531 0.6736876964569092
28.1463680267334 13.388858795166016 0.6549230217933655
28.461088180541992 13.325285911560059 0.6266788840293884
32.56876754760742 15.005736351013184 0.19823922216892242
33.1058235168457 15.007896423339844 0.14711987972259521
33.12409210205078 14.77212142944336 0.15056413412094116
33.1060676574707 14.521492958068848 0.15765070915222168
33.1136474609375 14.283466339111328 0.16187617182731628
33.1314697265625 14.050945281982422 0.1648615151643753
33.16147232055664 13.824484825134277 0.16641083359718323
33.17520523071289 13.592145919799805 0.1694999486207962
33.21780776977539 13.37242317199707 0.1694164127111435
33.06644821166992 13.076553344726562 0.18938839435577393
33.111270904541016 12.86015796661377 0.1887456476688385
33.4522819519043 12.757186889648438 0.15716800093650818
33.612422943115234 12.582818031311035 0.144287109375
33.648353576660156 12.36165714263916 0.14416418969631195
33.6622428894043 12.133102416992188 0.14617504179477692
33.653953552246094 11.897541999816895 0.15032649040222168
33.66191101074219 11.668732643127441 0.15264049172401428
33.6881217956543 11.446995735168457 0.15291449427604675
33.69682312011719 11.220026969909668 0.15484631061553955
33.696449279785156 10.990912437438965 0.15756449103355408
33.69832229614258 10.763433456420898 0.15989764034748077
33.72432327270508 10.54436206817627 0.1595960259437561
33.733680725097656 10.32071590423584 0.16086097061634064
33.727264404296875 10.093070030212402 0.16360226273536682
33.738433837890625 9.871479034423828 0.1643872708082199
33.763465881347656 9.65450382232666 0.16360093653202057
33.77751541137695 9.434915542602539 0.16379962861537933
33.782470703125 9.213419914245605 0.16478881239891052
33.781166076660156 8.990937232971191 0.1662762463092804
33.79767608642578 8.773815155029297 0.16579236090183258
33.80314636230469 8.554387092590332 0.16629865765571594
33.81492614746094 8.337122917175293 0.16601645946502686
33.829185485839844 8.120964050292969 0.1653396487236023
33.83625411987305 7.903582572937012 0.16525930166244507
33.84095764160156 7.686198711395264 0.1652819663286209
33.850101470947266 7.470337390899658 0.16470952332019806
33.865657806396484 7.256319046020508 0.16334140300750732
33.8652458190918 7.039350986480713 0.16347083449363708
33.87808609008789 6.825605392456055 0.16210533678531647
33.88371276855469 6.610822677612305 0.16134069859981537
33.88309860229492 6.3953022956848145 0.16107948124408722
33.89285659790039 6.182178020477295 0.15961740911006927
33.90519714355469 5.969862461090088 0.15775461494922638
33.90738296508789 5.756126403808594 0.15679681301116943
33.927860260009766 5.545795440673828 0.1538269966840744
33.944087982177734 5.334964275360107 0.15115690231323242
33.940311431884766 5.12131929397583 0.15040412545204163
33.959808349609375 4.9114789962768555 0.14712730050086975
33.966182708740234 4.699953556060791 0.1450626403093338
33.98307800292969 4.490095615386963 0.141781747341156
33.981895446777344 4.278091907501221 0.14022409915924072
33.980377197265625 4.06638765335083 0.1385664939880371
32.475067138671875 3.6844167709350586 0.2915622293949127
32.40365219116211 3.475186586380005 0.29692891240119934
32.34870910644531 3.2687690258026123 0.3004799783229828
32.36475372314453 3.0700106620788574 0.2965908944606781
32.351829528808594 2.868715763092041 0.29556146264076233
32.353519439697266 2.6690011024475098 0.2928983271121979
32.340087890625 2.468311309814453 0.29167070984840393
32.38594055175781 2.272130012512207 0.2841850221157074
32.41273498535156 2.0743327140808105 0.2785382568836212
15.750414848327637 0.9112272262573242 2.002139091491699
15.774373054504395 0.8155781030654907 1.9981331825256348
15.781852722167969 0.7189440727233887 1.9957720041275024
15.793708801269531 0.6224434971809387 1.9928921461105347
15.804973602294922 0.5258232951164246 1.99000883102417
15.822604179382324 0.42927566170692444 1.9863977432250977
15.824731826782227 0.3322174549102783 1.9843367338180542
15.826260566711426 0.23514804244041443 1.9822746515274048
32.4788818359375 0.28294000029563904 0.24000534415245056
32.70533752441406 0.08430078625679016 0.21214774250984192
32.59738540649414 -0.1159198060631752 0.21913382411003113
32.53893280029297 -0.3153076767921448 0.22082722187042236
32.39275360107422 -0.5126155018806458 0.23162125051021576
32.42137145996094 -0.7120115756988525 0.22393889725208282
32.41893768310547 -0.9109423756599426 0.21938981115818024
32.40633010864258 -1.109566330909729 0.21578264236450195
12.88588809967041 -0.5201321840286255 2.2729392051696777
32.5056266784668 -1.5124176740646362 0.1950119137763977
13.044034004211426 -0.6869015693664551 2.2519943714141846
12.860711097717285 -0.7563813924789429 2.2692532539367676
12.849702835083008 -0.8348629474639893 2.268202304840088
12.854084968566895 -0.9143683910369873 2.265463352203369
12.87582015991211 -0.9953400492668152 2.2608182430267334
13.229997634887695 -1.1044174432754517 2.2205886840820312
11.994711875915527 -1.0754005908966064 2.3503124713897705
12.835528373718262 -1.8695472478866577 2.2359566688537598
12.778425216674805 -1.9413695335388184 2.239204168319702
29.242660522460938 -5.180393218994141 0.41319847106933594
19.549968719482422 -6.938309192657471 1.311720609664917
19.49272346496582 -7.053016185760498 1.3107881546020508
19.372339248657227 -7.144245624542236 1.3173353672027588
19.299943923950195 -7.252444267272949 1.3181023597717285
19.262216567993164 -7.373525619506836 1.3146352767944336
19.245025634765625 -7.502721309661865 1.3085976839065552
19.213115692138672 -7.626486301422119 1.3042373657226562
19.24582862854004 -7.776575565338135 1.2919169664382935
19.20940589904785 -7.899386405944824 1.2878875732421875
20.59965705871582 -13.152168273925781 0.7876381278038025
20.361452102661133 -13.176809310913086 0.8066221475601196
20.02074432373047 -13.131476402282715 0.8400315046310425
19.819515228271484 -13.174295425415039 0.8541441559791565
19.604516983032227 -13.205711364746094 0.8702733516693115
19.46864128112793 -13.288745880126953 0.8752877712249756
19.383134841918945 -13.405644416809082 0.8731117844581604
19.347352981567383 -13.557332992553711 0.863724946975708
19.32258415222168 -13.71771240234375 0.8525869846343994
19.314306259155273 -13.891057014465332 0.8388753533363342
19.295795440673828 -14.058382987976074 0.8264375925064087
19.294330596923828 -14.239568710327148 0.8113027811050415
19.292158126831055 -14.421860694885254 0.7960384488105774
19.283716201782227 -14.601062774658203 0.781464159488678
19.29743766784668 -14.798835754394531 0.763360857963562
19.295331954956055 -14.986360549926758 0.7473527193069458
19.297889709472656 -15.179327964782715 0.7303915619850159
19.281707763671875 -15.359275817871094 0.7160021066665649
19.291091918945312 -15.561420440673828 0.6974843740463257
19.296405792236328 -15.762370109558105 0.679302990436554
19.295379638671875 -15.960173606872559 0.6618123054504395
19.31624412536621 -16.178321838378906 0.6406501531600952
19.32984733581543 -16.392831802368164 0.620293378829956
19.413105010986328 -16.66956901550293 0.5886896848678589
20.830522537231445 -18.564577102661133 0.3044067621231079
20.5285701751709 -18.523025512695312 0.3316726088523865
20.307100296020508 -18.550806045532227 0.3461836576461792
20.067115783691406 -18.55904197692871 0.3638269901275635
19.808237075805664 -18.546716690063477 0.38472965359687805
19.6453914642334 -18.622087478637695 0.3899767994880676
19.44583511352539 -18.661102294921875 0.4013262391090393
15.4967622756958 14.448139190673828 1.5810707807540894
12.908132553100586 11.887667655944824 1.9321328401565552
12.960718154907227 11.790188789367676 1.9331482648849487
13.010375022888184 11.69051742553711 1.9344491958618164
14.428971290588379 12.806347846984863 1.757597804069519
14.446398735046387 12.664463996887207 1.763662576675415
14.54765510559082 12.596467971801758 1.75877046585083
13.125265121459961 11.224882125854492 1.9494149684906006
13.170092582702637 11.12425708770752 1.950800895690918
13.222587585449219 11.030519485473633 1.951112985610962
13.262138366699219 10.92642879486084 1.9529776573181152
13.300910949707031 10.82226848602295 1.9548399448394775
13.348217964172363 10.7255220413208 1.9555286169052124
13.368330955505371 10.60757064819336 1.9595335721969604
13.399252891540527 10.498981475830078 1.9620742797851562
13.439580917358398 10.398331642150879 1.9633418321609497
13.474433898925781 10.293952941894531 1.9651941061019897
13.515665054321289 10.194933891296387 1.9661622047424316
13.554593086242676 10.094606399536133 1.9673229455947876
13.586385726928711 9.989466667175293 1.9692670106887817
13.62545394897461 9.89016342163086 1.9702264070510864
13.654109954833984 9.783799171447754 1.9723637104034424
13.694973945617676 9.686651229858398 1.9729238748550415
13.725369453430176 9.582530975341797 1.9746640920639038
13.768115997314453 9.487438201904297 1.9748228788375854
13.806097984313965 9.389382362365723 1.9754714965820312
13.839264869689941 9.288444519042969 1.9766119718551636
13.880011558532715 9.19294548034668 1.9767593145370483
13.91261100769043 9.09239673614502 1.9777956008911133
13.957043647766113 8.999881744384766 1.9773403406143188
13.979877471923828 8.893810272216797 1.9793646335601807
14.034805297851562 8.808425903320312 1.9775090217590332
14.054524421691895 8.701225280761719 1.9797288179397583
14.097237586975098 8.608634948730469 1.97915780544281
14.1376371383667 8.514819145202637 1.9787817001342773
14.17741870880127 8.420832633972168 1.9784010648727417
14.215720176696777 8.326172828674316 1.9781156778335571
14.25339412689209 8.231359481811523 1.9778263568878174
14.291306495666504 8.13688850402832 1.9774329662322998
14.341609954833984 8.049567222595215 1.9755300283432007
14.583776473999023 8.068379402160645 1.9514179229736328
14.980438232421875 8.168351173400879 1.909549355506897
15.874014854431152 8.529836654663086 1.8107008934020996
27.465164184570312 14.54237174987793 0.4858977794647217
27.500524520874023 14.346031188964844 0.4884794056415558
27.507970809936523 14.136157989501953 0.49409231543540955
27.53607177734375 13.937965393066406 0.4971839487552643
27.46839714050293 13.692911148071289 0.5110098719596863
27.668468475341797 13.581603050231934 0.4942532181739807
27.76608657836914 13.419000625610352 0.48902207612991333
28.06577491760254 13.352300643920898 0.46081772446632385
28.4233341217041 13.309423446655273 0.4260382056236267
15.757436752319336 0.9123057126998901 1.898422122001648
15.773435592651367 0.8162042498588562 1.8951693773269653
19.290756225585938 0.7611920237541199 1.5034619569778442
19.25604820251465 0.6415646076202393 1.505234718322754
12.904064178466797 -0.5997598767280579 2.184642791748047
13.031944274902344 -0.6858381628990173 2.168104887008667
12.883462905883789 -0.7573073506355286 2.182607889175415
12.890291213989258 -0.837087094783783 2.1795783042907715
12.863913536071777 -0.9146554470062256 2.1802432537078857
12.735495567321777 -1.062722086906433 2.190012216567993
12.824553489685059 -1.1494170427322388 2.177436590194702
12.835869789123535 -1.2298556566238403 2.1736159324645996
12.787834167480469 -1.3837984800338745 2.173858642578125
12.798662185668945 -1.4644657373428345 2.1699204444885254
12.772480010986328 -1.5409170389175415 2.1701619625091553
12.738933563232422 -1.8550677299499512 2.162431478500366
29.234683990478516 -5.176959037780762 0.22010737657546997
20.010860443115234 -6.552183151245117 1.1499258279800415
19.472658157348633 -6.508584022521973 1.209201693534851
19.234668731689453 -6.560576915740967 1.231271743774414
19.144044876098633 -6.661133289337158 1.2349426746368408
19.126846313476562 -6.7870612144470215 1.2293343544006348
19.119094848632812 -6.916745662689209 1.2224286794662476
19.09090232849121 -7.0393781661987305 1.2179946899414062
19.09073829650879 -7.172752857208252 1.2099019289016724
19.125822067260742 -7.3202338218688965 1.1971931457519531
19.021032333374023 -7.4143242835998535 1.2022135257720947
18.951807022094727 -7.521691799163818 1.2026357650756836
20.37252426147461 -8.23065185546875 1.0111427307128906
18.933696746826172 -7.784936904907227 1.1877316236495972
19.092283248901367 -7.987521648406982 1.1583553552627563
19.107473373413086 -8.13207721710205 1.1473605632781982
28.431779861450195 -16.242752075195312 -0.36317625641822815
28.40752410888672 -16.461118698120117 -0.37780505418777466
28.419307708740234 -16.701929092407227 -0.39778533577919006
28.36780548095703 -16.90691566467285 -0.40903398394584656
28.217161178588867 -17.052865982055664 -0.40629512071609497
28.011632919311523 -17.16441535949707 -0.3957380950450897
27.839527130126953 -17.2950439453125 -0.3900173306465149
27.708032608032227 -17.45012855529785 -0.3902435600757599
20.529985427856445 -13.106398582458496 0.6379095315933228
20.227161407470703 -13.088645935058594 0.6676413416862488
19.930322647094727 -13.070944786071777 0.696708083152771
19.727880477905273 -13.112181663513184 0.7120071649551392
19.533924102783203 -13.156974792480469 0.7261236906051636
19.393449783325195 -13.236252784729004 0.7323066592216492
19.311513900756836 -13.354948997497559 0.7296756505966187
19.261362075805664 -13.495918273925781 0.7221387624740601
19.24742889404297 -13.663201332092285 0.7089453935623169
19.22249412536621 -13.823869705200195 0.6972200274467468
19.23480987548828 -14.012791633605957 0.6795741319656372
19.2391357421875 -14.197672843933105 0.6628990769386292
19.238727569580078 -14.380758285522461 0.6467026472091675
19.243911743164062 -14.5697603225708 0.6293813586235046
19.21756935119629 -14.73642349243164 0.6167436838150024
19.23692512512207 -14.939830780029297 0.5966742038726807
19.229541778564453 -15.124398231506348 0.5805489420890808
19.219053268432617 -15.308201789855957 0.5646600127220154
19.244876861572266 -15.522969245910645 0.5426797866821289
19.237268447875977 -15.712892532348633 0.5257696509361267
19.252513885498047 -15.923542976379395 0.5048695206642151
19.233938217163086 -16.10821533203125 0.48917514085769653
19.225923538208008 -16.303524017333984 0.4714788794517517
19.262149810791016 -16.538768768310547 0.4461686611175537
19.308183670043945 -16.78548240661621 0.41883814334869385
20.83845329284668 -18.570283889770508 0.1203949823975563
20.52921485900879 -18.52227783203125 0.1505378782749176
20.313663482666016 -18.555498123168945 0.16498371958732605
20.08609962463379 -18.5753231048584 0.18160001933574677
19.863414764404297 -18.59713363647461 0.19750967621803284
19.623945236206055 -18.600536346435547 0.21647271513938904
19.444604873657227 -18.658720016479492 0.22506701946258545
12.865342140197754 11.990497589111328 1.8246363401412964
12.915007591247559 11.889802932739258 1.8263278007507324
12.952149391174316 11.778242111206055 1.8296552896499634
12.917370796203613 11.602855682373047 1.842834711074829
14.400988578796387 12.777135848999023 1.646160364151001
14.48707389831543 12.695780754089355 1.6432477235794067
13.068609237670898 11.311795234680176 1.846144437789917
13.119382858276367 11.215914726257324 1.846997857093811
13.16643238067627 11.117269515991211 1.848258376121521
13.219642639160156 11.024200439453125 1.848585844039917
13.246871948242188 10.910027503967285 1.8523160219192505
13.297120094299316 10.815393447875977 1.852841854095459
13.3164644241333 10.696257591247559 1.8573980331420898
13.352771759033203 10.591509819030762 1.8595744371414185
13.38594913482666 10.484878540039062 1.8620599508285522
13.426190376281738 10.384324073791504 1.8635064363479614
13.470443725585938 10.287290573120117 1.8643264770507812
13.499720573425293 10.179325103759766 1.867013931274414
13.534563064575195 10.076140403747559 1.8688685894012451
13.583073616027832 9.983512878417969 1.8688462972640991
13.60520076751709 9.87197494506836 1.8721545934677124
13.645874977111816 9.774442672729492 1.8729597330093384
13.687491416931152 9.677928924560547 1.8735520839691162
13.73006820678711 9.582411766052246 1.8739314079284668
13.76134204864502 9.479399681091309 1.8756670951843262
13.791871070861816 9.376362800598145 1.877401351928711
13.830739974975586 9.279403686523438 1.8779805898666382
13.865621566772461 9.18012523651123 1.8789763450622559
13.907299995422363 9.085660934448242 1.8790236711502075
13.942490577697754 8.98725700378418 1.8798028230667114
13.968607902526855 8.883427619934082 1.8816323280334473
14.026827812194824 8.800226211547852 1.8793504238128662
14.04481315612793 8.692046165466309 1.8820186853408813
14.093402862548828 8.603148460388184 1.8807806968688965
14.126948356628418 8.50525951385498 1.8813328742980957
14.170084953308105 8.413374900817871 1.8806129693984985
14.208334922790527 8.318768501281738 1.8804173469543457
14.239930152893066 8.220526695251465 1.8809597492218018
14.281227111816406 8.12811279296875 1.8802262544631958
14.328861236572266 8.039393424987793 1.8786373138427734
14.460344314575195 7.997076988220215 1.8667242527008057
15.021366119384766 8.187602043151855 1.8023970127105713
15.88917350769043 8.534818649291992 1.7009475231170654
27.472978591918945 14.541760444641113 0.29875171184539795
27.503934860229492 14.343095779418945 0.30222055315971375
27.4600887298584 14.106884956359863 0.3145656883716583
27.54302215576172 13.936846733093262 0.31141164898872375
27.526124954223633 13.71709156036377 0.3201388418674469
27.61379051208496 13.550193786621094 0.3161154091358185
27.738935470581055 13.40132999420166 0.307462215423584
27.9288330078125 13.282612800598145 0.29093989729881287
28.25246810913086 13.224873542785645 0.25834599137306213
28.699235916137695 13.220229148864746 0.21102984249591827
44.86866760253906 8.182302474975586 -1.537179708480835
19.281856536865234 0.7582699656486511 1.388493299484253
19.253095626831055 0.638900637626648 1.3898028135299683
12.898964881896973 -0.6808291077613831 2.105423927307129
12.865601539611816 -0.7582408785820007 2.1071484088897705
12.867450714111328 -0.8375889658927917 2.1046395301818848
12.878715515136719 -0.917694091796875 2.100949287414551
12.76550006866455 -1.3041850328445435 2.101884365081787
12.715604782104492 -1.3779691457748413 2.1051952838897705
12.654966354370117 -1.5287275314331055 2.1069726943969727
12.637276649475098 -1.6053178310394287 2.1062629222869873
12.632901191711426 -1.6835848093032837 2.103886604309082
12.63099193572998 -1.7622709274291992 2.10115122795105
12.62859058380127 -1.8409980535507202 2.098414421081543
12.55109977722168 -1.9084279537200928 2.1047677993774414
20.187911987304688 -6.476174354553223 1.0079045295715332
20.17670440673828 -6.609448432922363 1.0014057159423828
20.140146255493164 -6.734649658203125 0.9981070756912231
18.993600845336914 -6.481230735778809 1.1404564380645752
19.060943603515625 -6.635115146636963 1.123732566833496
19.008337020874023 -6.747915267944336 1.1226779222488403
20.10651969909668 -7.276984214782715 0.9689883589744568
19.176706314086914 -7.073968887329102 1.0839403867721558
19.082258224487305 -7.306537628173828 1.079577922821045
19.009939193725586 -7.412986755371094 1.0806342363357544
18.9582462310791 -7.52724552154541 1.0788437128067017
20.297386169433594 -8.494873046875 0.8694010376930237
19.069608688354492 -8.397135734558105 1.008216142654419
19.054527282714844 -8.530558586120605 1.0005321502685547
28.30215835571289 -13.943281173706055 -0.3694497346878052
28.2918758392334 -14.15477466583252 -0.38408544659614563
28.23848533630371 -14.345553398132324 -0.3928035497665405
28.21026611328125 -14.549851417541504 -0.4053087830543518
28.13050079345703 -14.728120803833008 -0.41061684489250183
27.6641788482666 -14.701156616210938 -0.36026087403297424
27.514463424682617 -14.839006423950195 -0.3554997146129608
20.522836685180664 -13.105875968933105 0.49190351366996765
