# .PCD v0.7 - Point Cloud Data file format
VERSION 0.7
FIELDS x y z
SIZE 4 4 4
TYPE F F F
COUNT 1 1 1
WIDTH 850
HEIGHT 1
VIEWPOINT 0 0 0 1 0 0 0
POINTS 850
DATA ascii
29.7542724609375 -21.744556427001953 0.4360833168029785
29.67035484313965 -21.9639892578125 0.4265824258327484
29.609573364257812 -22.201736450195312 0.4143984317779541
29.56999397277832 -22.4570369720459 0.39969319105148315
29.56234359741211 -22.738805770874023 0.3812423646450043
33.9009895324707 -29.92647933959961 -0.3628169298171997
33.773441314697266 -30.184955596923828 -0.3742547035217285
33.62847900390625 -30.42896270751953 -0.3838321566581726
33.54129409790039 -30.726825714111328 -0.4005540609359741
33.509403228759766 -31.078275680541992 -0.4242686927318573
20.20137596130371 -18.968883514404297 1.1704051494598389
20.028003692626953 -19.038908004760742 1.1745390892028809
32.39579391479492 30.941429138183594 0.678015410900116
31.444379806518555 29.666412353515625 0.7775945663452148
15.532320976257324 14.47563648223877 2.2290987968444824
31.628324508666992 29.115581512451172 0.7857479453086853
31.685636520385742 28.81161880493164 0.7926333546638489
32.01359939575195 28.753400802612305 0.775130033493042
32.303218841552734 28.657808303833008 0.7610157132148743
32.47353744506836 28.455183029174805 0.7574185132980347
32.534698486328125 28.158172607421875 0.7633169889450073
32.55704116821289 27.830366134643555 0.7724184393882751
32.58573913574219 27.51106834411621 0.7807313203811646
32.56654357910156 27.15477180480957 0.7930008172988892
32.62508773803711 26.866342544555664 0.7982630729675293
32.613197326660156 26.522823333740234 0.809428870677948
32.63723373413086 26.211698532104492 0.8172584176063538
32.64695739746094 25.891984939575195 0.826108455657959
32.672061920166016 25.587284088134766 0.8334241509437561
32.65520095825195 25.252735137939453 0.8441230058670044
32.68701934814453 24.958717346191406 0.8504539728164673
32.69575500488281 24.649641036987305 0.8585511445999146
32.691532135009766 24.33365821838379 0.8675434589385986
32.740943908691406 24.06001091003418 0.8718059062957764
32.54435348510742 23.6097469329834 0.896584153175354
32.6014289855957 23.34752655029297 0.8997969627380371
32.67525863647461 23.09874153137207 0.901443362236023
32.705535888671875 22.82081413269043 0.9065669775009155
32.718849182128906 22.533199310302734 0.9129282236099243
32.78762435913086 22.285537719726562 0.9145106673240662
32.75020980834961 21.96785545349121 0.9247264266014099
32.79415512084961 21.70709228515625 0.9280341267585754
32.82278060913086 21.437881469726562 0.932445228099823
32.85186004638672 21.17076301574707 0.9366570115089417
32.81659698486328 20.864486694335938 0.9459774494171143
32.85150909423828 20.605026245117188 0.9493826627731323
32.83866500854492 20.317577362060547 0.956527590751648
32.879737854003906 20.06536102294922 0.9591174125671387
32.85399627685547 19.774309158325195 0.9669830799102783
32.88426971435547 19.518953323364258 0.9701428413391113
32.903175354003906 19.258426666259766 0.9740747213363647
32.901119232177734 18.9874324798584 0.9795477986335754
32.90739059448242 18.72311019897461 0.9841957092285156
32.82987594604492 18.413555145263672 0.995428204536438
32.85457229614258 18.163572311401367 0.9982881546020508
32.96065902709961 17.959320068359375 0.994490921497345
32.98725891113281 17.71245002746582 0.996931254863739
33.01119613647461 17.46546173095703 0.9994468092918396
33.02273178100586 17.21331214904785 1.0028135776519775
33.021766662597656 16.956212997436523 1.0070360898971558
33.04916763305664 16.715078353881836 1.008866786956787
33.06681442260742 16.470243453979492 1.0113385915756226
33.06658935546875 16.217912673950195 1.015093207359314
33.089664459228516 15.978348731994629 1.0168695449829102
33.08222579956055 15.725411415100098 1.0209277868270874
33.10816955566406 15.48964786529541 1.0222190618515015
33.10981369018555 15.243728637695312 1.0252982378005981
33.14149475097656 15.012777328491211 1.025884985923767
33.12329864501953 14.760493278503418 1.0302684307098389
33.10326385498047 14.50899600982666 1.0346673727035522
33.11437225341797 14.27251148223877 1.0364936590194702
33.135765075683594 14.041496276855469 1.0373908281326294
33.162017822265625 13.813437461853027 1.0377875566482544
33.1904182434082 13.587095260620117 1.0378981828689575
33.21358871459961 13.359435081481934 1.0382994413375854
33.0821647644043 13.071528434753418 1.0506542921066284
33.11955642700195 12.85212516784668 1.0497019290924072
33.5022087097168 12.764848709106445 1.0217176675796509
33.66268539428711 12.590206146240234 1.0109660625457764
33.71554183959961 12.374896049499512 1.0084922313690186
33.721046447753906 12.142852783203125 1.009590983390808
33.74378204345703 11.91784954071045 1.009234070777893
33.748069763183594 11.687149047851562 1.0101972818374634
33.75646209716797 11.458767890930176 1.0107264518737793
33.7642707824707 11.231034278869629 1.0111877918243408
33.77814483642578 11.006109237670898 1.011064887046814
33.779136657714844 10.777795791625977 1.011830449104309
33.78716278076172 10.552558898925781 1.0119376182556152
33.78797912597656 10.325879096984863 1.0124931335449219
33.793975830078125 10.101583480834961 1.0125362873077393
33.80902862548828 9.880680084228516 1.0117677450180054
33.83127212524414 9.662435531616211 1.0103319883346558
33.82905960083008 9.437854766845703 1.0106841325759888
33.8292121887207 9.214712142944336 1.0107438564300537
33.840431213378906 8.99525260925293 1.0098376274108887
33.85409927368164 8.777000427246094 1.0086345672607422
33.87119674682617 8.560139656066895 1.0070589780807495
33.88593673706055 8.343158721923828 1.0055594444274902
33.90608215332031 8.127945899963379 1.0035336017608643
33.89961624145508 7.906906604766846 1.0034667253494263
33.89171600341797 7.686253070831299 1.003406286239624
33.90867614746094 7.471785068511963 1.00131094455719
33.93013381958008 7.258647918701172 0.9987610578536987
33.95708465576172 7.046944618225098 0.9956791996955872
33.98271942138672 6.8351826667785645 0.9925947785377502
33.9669075012207 6.615553855895996 0.9926267862319946
33.948699951171875 6.3961896896362305 0.9927433133125305
33.976165771484375 6.185869216918945 0.9892022609710693
33.98367691040039 5.972170829772949 0.9871111512184143
33.99671936035156 5.759777545928955 0.9844846725463867
34.00253677368164 5.546483993530273 0.9823184013366699
34.014892578125 5.334569454193115 0.9795385003089905
34.00917053222656 5.120186805725098 0.9780669808387756
34.02874755859375 4.90991735458374 0.9745171666145325
34.04405975341797 4.69918966293335 0.9711968898773193
34.036319732666016 4.485590934753418 0.9695762991905212
34.05592727661133 4.2758636474609375 0.9657124876976013
34.0732536315918 4.065944194793701 0.9619230031967163
33.53947067260742 3.7937862873077393 1.0012859106063843
33.50031280517578 3.5814192295074463 1.0017677545547485
33.54512405395508 3.378263473510742 0.9955519437789917
33.62045669555664 3.177692413330078 0.9868250489234924
33.642948150634766 2.9717607498168945 0.9821497797966003
33.6572265625 2.76509952545166 0.9780181646347046
33.661285400390625 2.5576932430267334 0.9745906591415405
33.67301940917969 2.350963830947876 0.9704542756080627
33.686458587646484 2.1443750858306885 0.9660792350769043
15.747537612915039 0.9057053327560425 2.385138750076294
15.785492897033691 0.8107819557189941 2.3804824352264404
15.794990539550781 0.7141659259796143 2.37803316116333
15.787958145141602 0.6168406009674072 2.3768503665924072
15.811212539672852 0.5206438302993774 2.373206615447998
15.820923805236816 0.423837274312973 2.3705906867980957
15.828051567077637 0.3268890380859375 2.368131160736084
15.804678916931152 0.2294350266456604 2.3680646419525146
33.756343841552734 0.28252267837524414 0.9260919690132141
12.987075805664062 0.029265932738780975 2.590423822402954
12.991862297058105 -0.05041477456688881 2.5883285999298096
33.761756896972656 -0.3387243151664734 0.912318229675293
33.799556732177734 -0.5464677214622498 0.9046111702919006
12.851820945739746 -0.28641536831855774 2.5942838191986084
12.819801330566406 -0.36439046263694763 2.595027208328247
33.821571350097656 -1.1696428060531616 0.8882129788398743
33.81340789794922 -1.377076268196106 0.8837910294532776
33.739253997802734 -1.5814216136932373 0.8846426010131836
13.074213027954102 -0.6929832696914673 2.5664660930633545
12.820846557617188 -0.7584434747695923 2.585101842880249
12.844663619995117 -0.8389548063278198 2.581059455871582
33.85390090942383 -2.4204564094543457 0.8534328937530518
12.67017936706543 -0.9838034510612488 2.591106653213501
33.86265563964844 -2.83906888961792 0.841122567653656
12.964604377746582 -1.1668633222579956 2.56235408782959
33.904911041259766 -3.261991024017334 0.8255887627601624
33.910667419433594 -3.47263765335083 0.8189176917076111
33.92106246948242 -3.684124708175659 0.8117475509643555
33.93013381958008 -3.8958725929260254 0.8045695424079895
33.936885833740234 -4.107752323150635 0.797467052936554
33.93441390991211 -4.318856716156006 0.7910195589065552
33.95037841796875 -4.532725811004639 0.7829101085662842
33.967952728271484 -4.747368812561035 0.7745417356491089
33.94965362548828 -4.957359313964844 0.7690751552581787
33.97340393066406 -5.1739091873168945 0.7599411010742188
34.000694274902344 -5.39171838760376 0.7503774762153625
33.98725509643555 -5.603574752807617 0.7441450357437134
12.764835357666016 -2.184863805770874 2.54573917388916
13.408419609069824 -2.3798117637634277 2.4878737926483154
34.032108306884766 -6.256467819213867 0.7174535393714905
34.02110290527344 -6.470495223999023 0.7105266451835632
34.03416442871094 -6.689621925354004 0.7014053463935852
33.97257995605469 -6.894290447235107 0.6986011266708374
33.93219757080078 -7.103153705596924 0.6938629746437073
33.93532943725586 -7.321449279785156 0.6852351427078247
34.001258850097656 -7.554316997528076 0.6710044145584106
34.03645706176758 -7.7816081047058105 0.6592950224876404
34.07887268066406 -8.011667251586914 0.6468044519424438
34.09067916870117 -8.23552417755127 0.6368471384048462
34.09522247314453 -8.458388328552246 0.6273910403251648
34.10892868041992 -8.684324264526367 0.6169858574867249
34.118247985839844 -8.909994125366211 0.6068241596221924
34.12704086303711 -9.136362075805664 0.5965668559074402
34.113197326660156 -9.357377052307129 0.5881837010383606
34.15835189819336 -9.595544815063477 0.5743838548660278
34.16547393798828 -9.824156761169434 0.5638309121131897
34.18254470825195 -10.056591987609863 0.5522332191467285
34.137935638427734 -10.271524429321289 0.5460574626922607
34.218624114990234 -10.525245666503906 0.5283896327018738
34.18437576293945 -10.744794845581055 0.5209892988204956
34.16769027709961 -10.970412254333496 0.5118535757064819
34.172237396240234 -11.203680038452148 0.5006284713745117
34.204490661621094 -11.447219848632812 0.48669758439064026
34.19826889038086 -11.679020881652832 0.4761410355567932
34.242225646972656 -11.929204940795898 0.4607810974121094
34.183013916015625 -12.144349098205566 0.45482519268989563
34.156166076660156 -12.371431350708008 0.4457269608974457
34.249298095703125 -12.643491744995117 0.4252425730228424
34.3049430847168 -12.90383243560791 0.40805280208587646
34.31680679321289 -13.149293899536133 0.3947867751121521
34.30282211303711 -13.385972023010254 0.3837905526161194
34.319618225097656 -13.635848045349121 0.36970454454421997
34.34479522705078 -13.890542984008789 0.3546306788921356
34.32851791381836 -14.129756927490234 0.34333381056785583
34.3326416015625 -14.378530502319336 0.329905241727829
34.31942367553711 -14.62125015258789 0.3179679811000824
34.324623107910156 -14.873063087463379 0.3040696978569031
29.4962158203125 -12.996454238891602 0.7608001828193665
34.415042877197266 -15.41679859161377 0.2678695619106293
34.38465118408203 -15.657320022583008 0.2568516731262207
34.39056396484375 -15.915619850158691 0.24208387732505798
34.39009094238281 -16.172462463378906 0.22774501144886017
34.42729187011719 -16.44879150390625 0.20945791900157928
34.39608383178711 -16.69400405883789 0.1977701038122177
34.297943115234375 -16.907306671142578 0.19261790812015533
34.31158447265625 -17.176658630371094 0.1760774850845337
34.045310974121094 -17.30555534362793 0.18764621019363403
34.300045013427734 -17.70085906982422 0.1462661772966385
33.725440979003906 -17.66735076904297 0.1891445815563202
34.30099105834961 -18.238113403320312 0.11432170122861862
34.0705680847168 -18.384782791137695 0.1218143031001091
33.934852600097656 -18.581457138061523 0.1194906011223793
30.81810760498047 -17.12156867980957 0.42724844813346863
29.824726104736328 -21.18575096130371 0.23032496869564056
30.254634857177734 -21.771909713745117 0.16190646588802338
29.805465698242188 -21.727731704711914 0.19410021603107452
29.694400787353516 -21.92728614807129 0.18734988570213318
29.67289924621582 -22.19428825378418 0.16999921202659607
29.634944915771484 -22.451025009155273 0.15431098639965057
29.586261749267578 -22.701465606689453 0.1396380364894867
33.783973693847656 -26.253650665283203 -0.3797682821750641
33.654624938964844 -26.486234664916992 -0.38830313086509705
33.55016326904297 -26.739315032958984 -0.40001049637794495
33.447731018066406 -26.995241165161133 -0.41218215227127075
32.78993225097656 -26.79854965209961 -0.3569854199886322
32.60906219482422 -26.986469268798828 -0.35958895087242126
32.43246841430664 -27.17765235900879 -0.3628266751766205
32.23501205444336 -27.3509464263916 -0.3635932505130768
32.06686019897461 -27.548789978027344 -0.3681013286113739
31.874210357666016 -27.725351333618164 -0.3696650266647339
30.99196434020996 -28.324962615966797 -0.362476110458374
31.13910484313965 29.743061065673828 0.5132738947868347
31.261816024780273 29.496063232421875 0.5152996182441711
15.510613441467285 14.45578384399414 2.0935616493225098
31.302820205688477 28.817853927612305 0.5389799475669861
31.341367721557617 28.500503540039062 0.5486260056495667
31.535993576049805 28.326391220092773 0.5427175760269165
31.687131881713867 28.11322784423828 0.5409308671951294
31.945606231689453 27.994590759277344 0.5285529494285583
31.964008331298828 27.66627311706543 0.5393460392951965
32.072086334228516 27.417850494384766 0.5412343144416809
32.34672164916992 27.31133460998535 0.526938259601593
32.50865936279297 27.108583450317383 0.5233660340309143
14.568910598754883 11.998092651367188 2.245161533355713
14.645156860351562 11.911022186279297 2.243058204650879
14.661789894104004 11.776004791259766 2.2465357780456543
14.710919380187988 11.667878150939941 2.2468488216400146
14.707456588745117 11.519007682800293 2.2520265579223633
14.695625305175781 11.365129470825195 2.2578775882720947
14.733983039855957 11.251172065734863 2.2589316368103027
14.704609870910645 11.086739540100098 2.266204833984375
14.752172470092773 10.981449127197266 2.2662248611450195
14.809444427490234 10.88366985321045 2.265275001525879
14.872529029846191 10.790285110473633 2.263723134994507
14.877464294433594 10.65530776977539 2.2674498558044434
14.920391082763672 10.548309326171875 2.2676031589508057
14.972378730773926 10.448033332824707 2.2668569087982178
15.045872688293457 10.362787246704102 2.2640860080718994
15.155168533325195 10.301697731018066 2.2580089569091797
15.049798965454102 10.095773696899414 2.2713303565979004
15.08466911315918 9.985657691955566 2.271846294403076
15.114579200744629 9.872766494750977 2.272736072540283
15.152056694030762 9.765286445617676 2.272871971130371
15.163541793823242 9.641666412353516 2.2752668857574463
15.209561347961426 9.540526390075684 2.2744948863983154
15.25830078125 9.4412841796875 2.2734146118164062
15.308950424194336 9.343358993530273 2.272101640701294
15.373494148254395 9.253910064697266 2.2694931030273438
15.42551326751709 9.156892776489258 2.267937421798706
15.485525131225586 9.064623832702637 2.2656145095825195
32.90540313720703 18.992107391357422 0.7325680255889893
32.94725799560547 18.74799919128418 0.734901487827301
32.845611572265625 18.424579620361328 0.7496832609176636
32.848575592041016 18.162458419799805 0.7550970911979675
32.94587326049805 17.953474044799805 0.752098560333252
32.989139556884766 17.715673446655273 0.7536893486976624
33.005165100097656 17.464494705200195 0.7575072050094604
33.0246696472168 17.216550827026367 0.7608717083930969
33.03350830078125 16.96446990966797 0.7650129199028015
33.051177978515625 16.718326568603516 0.7682381868362427
33.05725860595703 16.467714309692383 0.772319495677948
33.06330490112305 16.218534469604492 0.7762553095817566
33.08100509643555 15.976404190063477 0.779037594795227
33.075374603271484 15.72439193725586 0.7836889624595642
33.099510192871094 15.487838745117188 0.7856327295303345
33.1192741394043 15.250327110290527 0.7878134846687317
33.14826965332031 15.01809310913086 0.7890641093254089
33.1119270324707 14.75766658782959 0.795780599117279
33.11198806762695 14.51506233215332 0.7992331981658936
33.12222671508789 14.278142929077148 0.8016775846481323
33.13264083862305 14.04241943359375 0.8039721846580505
33.160743713378906 13.815155982971191 0.8046249747276306
33.184539794921875 13.586941719055176 0.8055146932601929
33.21510696411133 13.362302780151367 0.8056979775428772
33.07080078125 13.069283485412598 0.8206319212913513
33.10816955566406 12.849956512451172 0.8199708461761475
33.49713897705078 12.765204429626465 0.789328396320343
33.66034698486328 12.591633796691895 0.7777670621871948
33.70103454589844 12.37187671661377 0.776485800743103
33.717777252197266 12.1439847946167 0.7771096229553223
33.732994079589844 11.916351318359375 0.7777377963066101
33.74481201171875 11.688336372375488 0.7785283327102661
33.7400016784668 11.455493927001953 0.7806007862091064
33.75347137451172 11.229758262634277 0.7810022234916687
33.77775955200195 11.00830078125 0.7803671956062317
33.76927185058594 10.776966094970703 0.782378613948822
33.77824783325195 10.552093505859375 0.7827932238578796
33.782875061035156 10.326641082763672 0.7834528088569641
33.79079055786133 10.102953910827637 0.7837159037590027
33.80392837524414 9.881514549255371 0.7834173440933228
33.81562042236328 9.66029167175293 0.7831223607063293
33.826839447021484 9.439563751220703 0.7827491164207458
33.83662033081055 9.219060897827148 0.7823792695999146
33.84208297729492 8.998022079467773 0.7822551131248474
33.85093307495117 8.778512954711914 0.7817292809486389
33.86126708984375 8.559964179992676 0.7809614539146423
33.8769645690918 8.343286514282227 0.7796261310577393
33.885467529296875 8.12534236907959 0.7787814140319824
33.88772201538086 7.906472682952881 0.778348445892334
33.886619567871094 7.687438488006592 0.7780822515487671
33.905521392822266 7.473433017730713 0.7760172486305237
33.92599868774414 7.260108470916748 0.773704469203949
33.944156646728516 7.046609401702881 0.7714726328849792
33.959022521972656 6.832766056060791 0.7694053053855896
33.95884323120117 6.616334438323975 0.7684937715530396
33.9553337097168 6.399791717529297 0.767751157283783
33.972015380859375 6.187467575073242 0.7651907205581665
33.97559356689453 5.973106384277344 0.7636250853538513
33.9935417175293 5.761597156524658 0.7607326507568359
33.99935531616211 5.5483245849609375 0.7587534189224243
33.99989318847656 5.334578037261963 0.7571089863777161
34.00598907470703 5.122069358825684 0.7548828721046448
34.02456283569336 4.911678791046143 0.7514877319335938
34.03788375854492 4.7007060050964355 0.7484248876571655
34.05287170410156 4.490142345428467 0.7451090216636658
34.05567169189453 4.27820348739624 0.7427156567573547
34.0729866027832 4.0682878494262695 0.7389770746231079
33.50483322143555 3.792191505432129 0.7849109768867493
33.48251724243164 3.581838607788086 0.7843624949455261
33.53125 3.3791942596435547 0.7776570320129395
33.60951232910156 3.1789937019348145 0.7683178186416626
33.63694381713867 2.9735703468322754 0.7631950378417969
33.64524459838867 2.7664577960968018 0.7595923542976379
33.6572380065918 2.5597305297851562 0.7555639147758484
33.66299057006836 2.3526108264923096 0.7519581317901611
33.67144775390625 2.145768404006958 0.7480101585388184
15.754088401794434 0.9067439436912537 2.2821221351623535
15.789032936096191 0.8116298913955688 2.2775089740753174
15.799515724182129 0.7150383591651917 2.274941921234131
15.784517288208008 0.6173737645149231 2.27451491355896
15.810738563537598 0.521298885345459 2.2704851627349854
15.82840347290039 0.4247106611728668 2.267136335372925
15.832530975341797 0.3276559114456177 2.264902114868164
15.811158180236816 0.23020212352275848 2.2648229598999023
33.73719024658203 0.28473198413848877 0.7083467841148376
33.73991775512695 0.07779498398303986 0.7037742137908936
12.186909675598145 -0.04693498834967613 2.57395601272583
12.946342468261719 -0.12924833595752716 2.506152629852295
33.76637649536133 -0.543551504611969 0.6877849102020264
33.77198791503906 -0.7508777379989624 0.682505190372467
12.818861961364746 -0.3639686405658722 2.511802911758423
33.813232421875 -1.1669647693634033 0.6689661741256714
33.81301498413086 -1.374668836593628 0.6638464331626892
13.214563369750977 -0.6187257170677185 2.471139430999756
13.165608406066895 -0.6973995566368103 2.4733569622039795
12.816873550415039 -0.7578102350234985 2.5020198822021484
12.822775840759277 -0.8371251225471497 2.4993743896484375
12.7357816696167 -0.9099432229995728 2.504917860031128
33.85540771484375 -2.6270036697387695 0.6268149018287659
12.84943675994873 -1.0766661167144775 2.490361452102661
12.945622444152832 -1.164740800857544 2.479475736618042
12.903385162353516 -1.240788459777832 2.4808788299560547
12.984564781188965 -1.3290363550186157 2.471200466156006
33.92036819458008 -3.6816232204437256 0.5899759531021118
33.92644119262695 -3.893018960952759 0.582852840423584
33.92822265625 -4.104270935058594 0.5759905576705933
33.93659591674805 -4.316699981689453 0.5684086680412292
33.949562072753906 -4.530177116394043 0.5602836012840271
33.945396423339844 -4.741774082183838 0.5535820722579956
13.070225715637207 -1.9078583717346191 2.445120334625244
13.13591194152832 -1.9998316764831543 2.4363086223602295
13.189152717590332 -2.0908119678497314 2.428556203842163
13.208353996276855 -2.177015542984009 2.4238486289978027
34.003875732421875 -5.818382263183594 0.5109065771102905
29.26907730102539 -5.193319797515869 0.9389998316764832
34.0309944152832 -6.253793716430664 0.49254491925239563
34.03463363647461 -6.470596790313721 0.48407337069511414
34.0173454284668 -6.683841228485107 0.47740697860717773
33.95870590209961 -6.889003276824951 0.47446146607398987
33.9193000793457 -7.097982406616211 0.4696148931980133
33.927276611328125 -7.31723690032959 0.4602186977863312
34.01258087158203 -7.554347038269043 0.4434248208999634
34.08945083618164 -7.791226863861084 0.42724117636680603
34.08616256713867 -8.010881423950195 0.41843661665916443
34.08145523071289 -8.230792045593262 0.4096236526966095
34.07533264160156 -8.450948715209961 0.40080463886260986
34.09963607788086 -8.679447174072266 0.38894790410995483
34.117591857910156 -8.907305717468262 0.377535879611969
34.11960220336914 -9.131850242614746 0.3674919307231903
34.10381317138672 -9.352280616760254 0.3590053915977478
34.1422004699707 -9.588478088378906 0.3451578617095947
34.1502571105957 -9.817246437072754 0.33406513929367065
34.15010070800781 -10.044508934020996 0.32360777258872986
34.134132385253906 -10.267839431762695 0.31453296542167664
34.20521926879883 -10.518570899963379 0.2968171536922455
34.18046569824219 -10.741011619567871 0.2882755696773529
34.16279220581055 -10.96628475189209 0.27889353036880493
34.189056396484375 -11.206633567810059 0.26502951979637146
34.1862678527832 -11.438556671142578 0.2538556754589081
34.17061233520508 -11.667007446289062 0.24379318952560425
34.22206497192383 -11.919605255126953 0.2268899530172348
34.14598846435547 -12.128621101379395 0.22252154350280762
34.05271530151367 -12.331393241882324 0.21975725889205933
34.16746139526367 -12.61069393157959 0.19595502316951752
34.308929443359375 -12.902729988098145 0.16919271647930145
34.31142044067383 -13.144623756408691 0.15623153746128082
34.288124084472656 -13.377626419067383 0.14571018517017365
34.262325286865234 -13.610472679138184 0.13527779281139374
33.816871643066406 -13.674452781677246 0.16769248247146606
33.74386978149414 -13.886540412902832 0.1619451344013214
33.666786193847656 -14.097097396850586 0.15648825466632843
33.585636138916016 -14.306061744689941 0.15132315456867218
33.57991409301758 -14.547804832458496 0.13817940652370453
29.494945526123047 -12.993749618530273 0.5512003898620605
33.67055130004883 -15.080699920654297 0.10060461610555649
20.603097915649414 -14.070003509521484 1.1586798429489136
20.03327751159668 -13.862041473388672 1.2142009735107422
19.895404815673828 -13.948097229003906 1.217814564704895
19.758045196533203 -14.033560752868652 1.2213534116744995
19.615541458129883 -14.114381790161133 1.225512146949768
19.57331085205078 -14.267250061035156 1.21728515625
19.553152084350586 -14.437272071838379 1.2061748504638672
19.516498565673828 -14.596261024475098 1.1969468593597412
19.540491104125977 -14.802206993103027 1.1799449920654297
19.517688751220703 -14.974472045898438 1.1686077117919922
19.504499435424805 -15.155561447143555 1.1558648347854614
20.27362060546875 -18.757274627685547 0.8221179246902466
20.228965759277344 -18.94791603088379 0.8093939423561096
20.0405216217041 -19.003862380981445 0.8166571855545044
19.676328659057617 -18.889421463012695 0.8488428592681885
32.35961151123047 31.269989013671875 0.10813754051923752
30.924238204956055 29.51862907409668 0.28049957752227783
30.994783401489258 29.225122451782227 0.288511723279953
15.501312255859375 14.437180519104004 1.9685300588607788
31.13518524169922 28.64493751525879 0.3038361668586731
31.22504997253418 28.376323699951172 0.30902671813964844
31.142913818359375 27.955183029174805 0.33222514390945435
31.272369384765625 27.727262496948242 0.33270585536956787
31.394203186035156 27.493549346923828 0.3338036835193634
13.553153991699219 11.722487449645996 2.215207099914551
13.551112174987793 11.576323509216309 2.221193313598633
13.592742919921875 11.468559265136719 2.222519874572754
13.597569465637207 11.330723762512207 2.227566719055176
13.649710655212402 11.233170509338379 2.227623701095581
13.695752143859863 11.131002426147461 2.2282309532165527
13.67575740814209 10.976277351379395 2.2355122566223145
13.725469589233398 10.878564834594727 2.235562562942505
13.754876136779785 10.76529598236084 2.237600326538086
13.807860374450684 10.670971870422363 2.237164258956909
13.849113464355469 10.567935943603516 2.237840414047241
13.895989418029785 10.46959400177002 2.2378740310668945
13.90859317779541 10.346085548400879 2.2412662506103516
13.98688793182373 10.271790504455566 2.238006830215454
14.036548614501953 10.176445007324219 2.2375450134277344
14.084755897521973 10.080294609069824 2.2371575832366943
14.102191925048828 9.962655067443848 2.239743232727051
14.117898941040039 9.844608306884766 2.2424116134643555
14.181133270263672 9.760088920593262 2.2403218746185303
14.21912670135498 9.658360481262207 2.2406468391418457
14.25143814086914 9.553201675415039 2.2414538860321045
14.286322593688965 9.450209617614746 2.2419352531433105
14.322149276733398 9.348237991333008 2.2422523498535156
14.355588912963867 9.245102882385254 2.2427287101745605
14.394190788269043 9.145649909973145 2.242633819580078
14.428735733032227 9.043953895568848 2.242861032485962
14.466814994812012 8.94479751586914 2.242677927017212
14.508474349975586 8.848109245300293 2.2420833110809326
14.559741973876953 8.757411003112793 2.2405028343200684
14.628442764282227 8.677093505859375 2.237196922302246
14.750039100646973 8.627464294433594 2.2287979125976562
14.836177825927734 8.556249618530273 2.223738670349121
14.91246509552002 8.4788818359375 2.21956729888916
15.007486343383789 8.411620140075684 2.2135720252990723
15.137129783630371 8.362789154052734 2.2042629718780518
15.1091947555542 8.226887702941895 2.2097768783569336
27.721590042114258 14.875797271728516 1.0259979963302612
27.785560607910156 14.691505432128906 1.0249766111373901
27.89780616760254 14.532771110534668 1.0193095207214355
33.01435470581055 16.43381118774414 0.556058943271637
32.959346771240234 16.155118942260742 0.5662851929664612
33.04397201538086 15.946152687072754 0.5633590221405029
33.02466583251953 15.688009262084961 0.569942057132721
33.08558654785156 15.469110488891602 0.5689307451248169
33.11247253417969 15.235057830810547 0.5709288716316223
33.128662109375 14.997146606445312 0.5737688541412354
33.10676956176758 14.743391990661621 0.5799738764762878
33.084842681884766 14.4912691116333 0.5860248804092407
33.108665466308594 14.260467529296875 0.5877129435539246
33.12080764770508 14.025644302368164 0.5903320908546448
33.14971923828125 13.798866271972656 0.5912684798240662
33.175254821777344 13.571505546569824 0.5923753380775452
33.2149658203125 13.350666046142578 0.5920456647872925
33.06971740722656 13.057390213012695 0.6085025668144226
33.100502014160156 12.835567474365234 0.6087022423744202
33.49947738647461 12.754622459411621 0.5751479268074036
33.6588249206543 12.579604148864746 0.5633813738822937
33.704097747802734 12.361590385437012 0.5618999600410461
33.718902587890625 12.133033752441406 0.5630610585212708
33.72747039794922 11.90310001373291 0.5646539926528931
33.73261260986328 11.672866821289062 0.5664231777191162
33.73525619506836 11.442694664001465 0.5682845711708069
33.74202346801758 11.214815139770508 0.5696378946304321
33.75958251953125 10.991290092468262 0.5698777437210083
33.76997375488281 10.766154289245605 0.5706373453140259
33.77412414550781 10.539819717407227 0.5718319416046143
33.78343963623047 10.315874099731445 0.5724278688430786
33.77982711791992 10.088786125183105 0.5740654468536377
33.79861068725586 9.869111061096191 0.5735448598861694
33.80830764770508 9.647397994995117 0.5737197399139404
33.829994201660156 9.429678916931152 0.5726819634437561
33.83489990234375 9.207867622375488 0.5730361342430115
33.84221267700195 8.987374305725098 0.5730461478233337
33.83749008178711 8.764386177062988 0.5740196704864502
33.85448455810547 8.547647476196289 0.5729031562805176
33.876869201660156 8.332693099975586 0.5711746215820312
33.880455017089844 8.113606452941895 0.5710220336914062
33.87583541870117 7.893205642700195 0.571487307548523
33.882423400878906 7.676025867462158 0.570816695690155
33.90415954589844 7.462701320648193 0.5686541199684143
33.923580169677734 7.24918794631958 0.5665770173072815
33.927024841308594 7.032682418823242 0.5658233165740967
33.94081497192383 6.818759441375732 0.5640116930007935
33.95325469970703 6.604930400848389 0.5622013211250305
33.94770812988281 6.388071060180664 0.5618963837623596
33.96430206298828 6.175803184509277 0.5594674944877625
33.97368240356445 5.962536811828613 0.5575711131095886
33.98467254638672 5.749883651733398 0.5554078817367554
33.988433837890625 5.5363569259643555 0.5537796020507812
33.991844177246094 5.323153018951416 0.5520638823509216
33.998836517333984 5.110853672027588 0.5499035120010376
34.016334533691406 4.9003705978393555 0.5466699600219727
34.03154373168945 4.689726829528809 0.5435233116149902
34.043479919433594 4.478818893432617 0.5405552387237549
34.046199798583984 4.266947269439697 0.5383036732673645
34.062435150146484 4.056976318359375 0.5347043871879578
33.49546432495117 3.7812511920928955 0.5840885043144226
33.46217727661133 3.569809913635254 0.5848004221916199
33.469181060791016 3.3630998134613037 0.5817268490791321
33.50465774536133 3.1592419147491455 0.5759382247924805
33.55475616455078 2.9564719200134277 0.5686911344528198
33.55698013305664 2.749380111694336 0.5656969547271729
33.56288528442383 2.542746067047119 0.5622486472129822
33.62514114379883 2.3401529788970947 0.5535200834274292
33.62654495239258 2.133104085922241 0.5502451062202454
15.749069213867188 0.9014343023300171 2.1882026195526123
15.781965255737305 0.8062413930892944 2.183595657348633
15.787425994873047 0.7094686031341553 2.1814510822296143
15.783334732055664 0.6123098134994507 2.1801302433013916
15.79556655883789 0.5157806277275085 2.1772494316101074
15.822139739990234 0.41952040791511536 2.1729862689971924
15.83020305633545 0.3225858509540558 2.1703732013702393
15.805811882019043 0.22511076927185059 2.1707072257995605
33.71531295776367 0.27478092908859253 0.5084068179130554
33.7269172668457 0.06799786537885666 0.5029935240745544
33.72330856323242 -0.138862743973732 0.49887120723724365
33.728389739990234 -0.3457806706428528 0.4938216805458069
12.932190895080566 -0.21269500255584717 2.4282028675079346
11.953986167907715 -0.2700558602809906 2.517704725265503
12.166938781738281 -0.34952685236930847 2.4960362911224365
12.83508014678955 -0.4474641680717468 2.4316177368164062
33.757591247558594 -1.382199764251709 0.46638229489326477
33.70729446411133 -1.587314486503601 0.46579957008361816
13.150317192077637 -0.7009040713310242 2.3958802223205566
12.807703971862793 -0.7614939212799072 2.426029920578003
12.796679496765137 -0.8396480083465576 2.4249162673950195
33.84524154663086 -2.4272708892822266 0.43030059337615967
12.74937629699707 -0.9937818646430969 2.4249532222747803
12.889711380004883 -1.0843009948730469 2.409332036972046
33.82334899902344 -3.0522942543029785 0.41416823863983154
12.50749397277832 -1.2069016695022583 2.441018581390381
33.87065887451172 -3.4760210514068604 0.3968736231327057
33.90468978881836 -3.689844846725464 0.387025386095047
33.89682388305664 -3.8995563983917236 0.38105523586273193
33.90149688720703 -4.110990047454834 0.3737521469593048
33.916690826416016 -4.324139595031738 0.36530041694641113
33.9315299987793 -4.5377655029296875 0.356744647026062
33.943050384521484 -4.751461505889893 0.34837082028388977
33.942386627197266 -4.963888645172119 0.34103938937187195
33.9463005065918 -5.177389144897461 0.3331286311149597
33.95378112792969 -5.39190673828125 0.3247314989566803
33.9932975769043 -5.612224578857422 0.31306469440460205
33.98036575317383 -5.824490547180176 0.30637773871421814
29.23265838623047 -5.195709705352783 0.7643527388572693
13.273969650268555 -2.444077968597412 2.3277454376220703
34.01671600341797 -6.477405071258545 0.27809926867485046
34.01008987426758 -6.69265604019165 0.2702305018901825
33.944549560546875 -6.896381378173828 0.26806405186653137
33.906044006347656 -7.1054768562316895 0.26309847831726074
33.95185470581055 -7.332849025726318 0.24960152804851532
33.941741943359375 -7.548954010009766 0.24152374267578125
34.05832290649414 -7.7945170402526855 0.2206052988767624
34.051082611083984 -8.013073921203613 0.2119152545928955
34.04437255859375 -8.232306480407715 0.2030244618654251
34.02177047729492 -8.448161125183105 0.19559164345264435
34.0749397277832 -8.683710098266602 0.18033604323863983
34.09761428833008 -8.91268253326416 0.16799430549144745
34.106258392333984 -9.138914108276367 0.15691156685352325
34.09132766723633 -9.359527587890625 0.1480747014284134
34.093177795410156 -9.58542251586914 0.13736575841903687
34.110748291015625 -9.81664752960205 0.1248747780919075
34.06852340698242 -10.031307220458984 0.11838013678789139
34.05830001831055 -10.255861282348633 0.10843328386545181
29.471973419189453 -12.99413776397705 0.3600706458091736
33.35764694213867 -19.08289909362793 -0.3514917492866516
33.369354248046875 -19.36251449584961 -0.3715829849243164
33.283714294433594 -19.586997985839844 -0.38021981716156006
33.18547821044922 -19.804536819458008 -0.3875061869621277
20.389423370361328 -13.569212913513184 1.0626881122589111
20.07046890258789 -13.53554630279541 1.0897150039672852
19.749425888061523 -13.496241569519043 1.1172341108322144
19.574359893798828 -13.553715705871582 1.1262868642807007
19.510066986083984 -13.687225341796875 1.1211133003234863
19.461078643798828 -13.831979751586914 1.1138447523117065
19.486909866333008 -14.031267166137695 1.0966989994049072
19.47920036315918 -14.578086853027344 1.0550508499145508
19.42791748046875 -15.49271297454834 0.9864873886108398
28.772598266601562 -23.824291229248047 -0.35814639925956726
28.727495193481445 -24.08591651916504 -0.376335471868515
28.699207305908203 -24.363971710205078 -0.3971959948539734
28.679136276245117 -24.65165901184082 -0.41956427693367004
28.703859329223633 -24.981136322021484 -0.44867029786109924
28.64055633544922 -25.236907958984375 -0.4656335711479187
20.955364227294922 -18.695337295532227 0.6151221990585327
20.771272659301758 -18.761533737182617 0.6221960186958313
20.312742233276367 -18.575252532958984 0.6693537831306458
20.109018325805664 -18.617084503173828 0.6796393394470215
19.848966598510742 -18.604093551635742 0.6983322501182556
19.687206268310547 -18.680999755859375 0.7025812268257141
19.546049118041992 -18.77660369873047 0.703740119934082
15.516352653503418 14.43606948852539 1.8484830856323242
13.094758987426758 11.597177505493164 2.1539089679718018
13.103224754333496 11.462182998657227 2.159294843673706
13.130132675170898 11.344461441040039 2.162489414215088
13.173523902893066 11.241718292236328 2.163738965988159
13.219196319580078 11.141439437866211 2.164646625518799
13.239631652832031 11.020621299743652 2.1682634353637695
13.282174110412598 10.918957710266113 2.1693363189697266
13.31855583190918 10.812788963317871 2.1710004806518555
13.350248336791992 10.70346736907959 2.173088312149048
13.388915061950684 10.600350379943848 2.174323797225952
13.429173469543457 10.499001502990723 2.1753010749816895
13.464752197265625 10.394514083862305 2.1767020225524902
13.498762130737305 10.289379119873047 2.1781866550445557
13.52880859375 10.181822776794434 2.180011749267578
13.568438529968262 10.082009315490723 2.180722713470459
13.615388870239258 9.98798656463623 2.180572986602783
13.630228042602539 9.870972633361816 2.1837668418884277
13.678994178771973 9.779070854187012 2.183267116546631
13.715752601623535 9.678897857666016 2.183966636657715
13.75343132019043 9.579780578613281 2.1844911575317383
13.792054176330566 9.481695175170898 2.184840202331543
13.82751750946045 9.381814956665039 2.1854448318481445
13.865588188171387 9.284075736999512 2.1857011318206787
13.895501136779785 9.18127727508545 2.1867332458496094
13.935522079467773 9.08553409576416 2.1866371631622314
13.972381591796875 8.988029479980469 2.186797618865967
14.006885528564453 8.889345169067383 2.1871285438537598
14.050838470458984 8.796918869018555 2.1864125728607178
14.084861755371094 8.698528289794922 2.186649799346924
14.132668495178223 8.608863830566406 2.185401678085327
14.182469367980957 8.520477294921875 2.183885335922241
14.239428520202637 8.436373710632324 2.181575298309326
14.31653118133545 8.36395263671875 2.1771559715270996
14.409037590026855 8.182782173156738 2.174417734146118
14.475292205810547 8.103495597839355 2.170930862426758
14.657976150512695 8.088203430175781 2.1556453704833984
15.058891296386719 8.189494132995605 2.118387460708618
15.82240104675293 8.479586601257324 2.0447885990142822
27.5512638092041 14.550333976745605 0.8721272945404053
27.6988525390625 14.411876678466797 0.862719714641571
27.715471267700195 14.205360412597656 0.866297721862793
27.81774139404297 14.043176651000977 0.8611944317817688
27.821731567382812 13.619848251342773 0.8705766201019287
32.326927185058594 15.337346076965332 0.4337584376335144
32.66636276245117 15.253833770751953 0.40530648827552795
33.0322151184082 15.178790092468262 0.37418675422668457
33.1197509765625 14.973844528198242 0.3704398274421692
33.13048553466797 14.734796524047852 0.37411370873451233
33.08934783935547 14.474222183227539 0.3827248513698578
33.107566833496094 14.24107551574707 0.38534072041511536
33.13334655761719 14.012130737304688 0.38706260919570923
33.156646728515625 13.783020973205566 0.38887709379196167
33.17838668823242 13.554150581359863 0.3906953036785126
33.22259521484375 13.33517837524414 0.3901694118976593
33.08470916748047 13.044926643371582 0.4072624444961548
33.10426330566406 12.818731307983398 0.4088360369205475
33.48904037475586 12.732246398925781 0.3747168481349945
33.65566635131836 12.560028076171875 0.36173534393310547
33.69051742553711 12.338287353515625 0.3614371716976166
33.70704650878906 12.110527992248535 0.3627752959728241
33.725807189941406 11.88435173034668 0.3637520372867584
33.72611999511719 11.652545928955078 0.3663731813430786
33.72392654418945 11.42086124420166 0.36909306049346924
33.73622131347656 11.194973945617676 0.37026622891426086
33.75270462036133 10.971210479736328 0.3708941638469696
33.77150344848633 10.748871803283691 0.37115806341171265
33.768890380859375 10.520492553710938 0.37335219979286194
33.780941009521484 10.297484397888184 0.3739902079105377
33.77530288696289 10.06988525390625 0.37619608640670776
33.79874038696289 9.851659774780273 0.37546128034591675
33.8064079284668 9.629430770874023 0.376109778881073
33.82221603393555 9.410144805908203 0.37583911418914795
33.830841064453125 9.189458847045898 0.3761247396469116
33.8303337097168 8.96697998046875 0.37715452909469604
33.831268310546875 8.745595932006836 0.3779129087924957
33.854896545410156 8.530621528625488 0.3763522207736969
33.85685729980469 8.310697555541992 0.37674522399902344
33.8670768737793 8.093382835388184 0.3762100338935852
33.87299728393555 7.875577449798584 0.37595751881599426
33.87461471557617 7.657341957092285 0.37598878145217896
33.900108337402344 7.444935321807861 0.37359124422073364
33.9125862121582 7.230010032653809 0.37231528759002686
33.912986755371094 7.012990951538086 0.3720723092556
33.9285888671875 6.799563407897949 0.37023720145225525
33.94285583496094 6.586205959320068 0.36840128898620605
33.93523025512695 6.369069576263428 0.368541955947876
33.95561599731445 6.157602787017822 0.3658604025840759
33.96388626098633 5.944234371185303 0.3642151653766632
33.97474670410156 5.731657028198242 0.3621923327445984
33.985267639160156 5.519327640533447 0.36007577180862427
33.983642578125 5.305391788482666 0.35900139808654785
33.98558807373047 5.092419624328613 0.3574550449848175
33.99605941772461 4.881035804748535 0.35496097803115845
34.009159088134766 4.670255184173584 0.3520854413509369
34.01996994018555 4.459365367889404 0.3493041694164276
34.01564025878906 4.24678897857666 0.34785762429237366
34.02184295654297 4.0358381271362305 0.34526798129081726
32.59244155883789 3.6636505126953125 0.48141947388648987
32.70793533325195 3.4736623764038086 0.4680924117565155
32.37859344482422 3.237990379333496 0.4977186322212219
32.8245735168457 3.0794272422790527 0.45211315155029297
32.643131256103516 2.86055588722229 0.46719008684158325
32.615013122558594 2.6566402912139893 0.4672873020172119
33.02729797363281 2.4864535331726074 0.4244707524776459
32.69795227050781 2.260058879852295 0.45359861850738525
32.86476135253906 2.0691611766815186 0.4343593716621399
15.75308609008789 0.8937746286392212 2.0988664627075195
15.780939102172852 0.7982926964759827 2.094588041305542
15.788326263427734 0.7016152143478394 2.0922436714172363
15.776224136352539 0.6041498184204102 2.091745138168335
15.786401748657227 0.5075967907905579 2.0890095233917236
15.8208589553833 0.41159072518348694 2.083833932876587
15.824878692626953 0.31458258628845215 2.081577777862549
15.812382698059082 0.21731846034526825 2.0808842182159424
32.751983642578125 0.25143247842788696 0.412845253944397
32.751495361328125 0.05053616315126419 0.40867191553115845
32.83138656616211 -0.15071679651737213 0.3964499831199646
12.500458717346191 -0.13534709811210632 2.399667501449585
12.499237060546875 -0.2120184749364853 2.3980355262756348
12.526396751403809 -0.2893425524234772 2.3935458660125732
12.83159065246582 -0.375105619430542 2.361424446105957
12.841815948486328 -0.4542587697505951 2.3584630489349365
12.846580505371094 -0.5333467721939087 2.3559927940368652
32.88316345214844 -1.5640815496444702 0.35732486844062805
13.08517074584961 -0.7041173577308655 2.3280365467071533
12.853971481323242 -0.7708202004432678 2.348966121673584
12.82004451751709 -0.8477483987808228 2.3501667976379395
12.561365127563477 -0.9081125259399414 2.37387752532959
12.783555030822754 -1.0030068159103394 2.349301338195801
12.211857795715332 -1.033658742904663 2.404527425765991
13.560722351074219 -1.2314345836639404 2.2661843299865723
33.17048645019531 -3.2144603729248047 0.2817765772342682
33.18039321899414 -3.4210174083709717 0.27431803941726685
33.19890213012695 -3.6289002895355225 0.26584872603416443
33.1607551574707 -3.8307504653930664 0.2629968822002411
33.444339752197266 -4.071569919586182 0.22725214064121246
33.02058792114258 -4.225757598876953 0.26345452666282654
33.87416458129883 -4.546342372894287 0.16904011368751526
33.92302703857422 -4.764956474304199 0.15660761296749115
33.9242057800293 -4.977558612823486 0.14890903234481812
33.90340042114258 -5.187198162078857 0.14333181083202362
33.77027893066406 -5.379095554351807 0.1492103785276413
33.7401237487793 -5.586778163909912 0.144356831908226
33.852813720703125 -5.819062232971191 0.12456413358449936
29.22074317932129 -5.207921028137207 0.5976194143295288
33.738834381103516 -6.226675510406494 0.11972207576036453
33.67609786987305 -6.429023742675781 0.11772133409976959
33.758544921875 -6.6597113609313965 0.10040677338838577
29.434839248657227 -12.994647979736328 0.18158242106437683
20.469627380371094 -13.637259483337402 0.9125918745994568
19.537134170532227 -13.365482330322266 1.0095407962799072
19.49283218383789 -13.51166820526123 1.0017054080963135
19.4612979888916 -13.667524337768555 0.9919919967651367
19.9034481048584 -14.3462495803833 0.9027368426322937
19.396507263183594 -14.16274356842041 0.9577335119247437
19.682086944580078 -14.557403564453125 0.9033218026161194
19.4822940826416 -14.595623970031738 0.9159573912620544
19.391250610351562 -14.714241027832031 0.9134153723716736
19.367252349853516 -14.884366035461426 0.9013222455978394
19.249603271484375 -15.173712730407715 0.8864726424217224
19.28473663330078 -15.39439868927002 0.8653350472450256
19.302419662475586 -15.603589057922363 0.8464058041572571
19.300565719604492 -15.799099922180176 0.8300269246101379
27.581741333007812 -22.86124610900879 -0.39721617102622986
27.333890914916992 -22.940553665161133 -0.385318785905838
27.196674346923828 -23.11162757873535 -0.3897319734096527
26.97251319885254 -23.208003997802734 -0.3813455402851105
26.813379287719727 -23.35929298400879 -0.38268423080444336
26.6414852142334 -23.498985290527344 -0.38220348954200745
20.555133819580078 -18.585113525390625 0.49535924196243286
20.311330795288086 -18.592761993408203 0.5123618841171265
20.05363655090332 -18.584617614746094 0.5316697359085083
19.834503173828125 -18.6093692779541 0.5451622009277344
19.66914176940918 -18.682771682739258 0.5503392219543457
19.441314697265625 -18.69493865966797 0.5653794407844543
15.502653121948242 14.453242301940918 1.718289852142334
12.955353736877441 11.78515625 2.0478594303131104
12.999053001403809 11.68017864227295 2.0496902465820312
13.031525611877441 11.565855979919434 2.052783489227295
13.075818061828613 11.462732315063477 2.054338216781616
13.115572929382324 11.356242179870605 2.056342601776123
13.156027793884277 11.250988006591797 2.0581634044647217
13.177428245544434 11.130244255065918 2.062159776687622
13.233023643493652 11.039005279541016 2.061979055404663
13.25494384765625 10.920273780822754 2.0657029151916504
13.293676376342773 10.816142082214355 2.0673344135284424
13.326196670532227 10.7075834274292 2.069601535797119
13.368029594421387 10.607075691223145 2.0706818103790283
13.408348083496094 10.505845069885254 2.071849822998047
13.443202018737793 10.400859832763672 2.073563575744629
13.476484298706055 10.29524040222168 2.075366973876953
13.514543533325195 10.193799018859863 2.0765278339385986
13.555061340332031 10.094657897949219 2.0773189067840576
13.590057373046875 9.991862297058105 2.078657627105713
13.62430477142334 9.889017105102539 2.0799944400787354
13.661040306091309 9.788447380065918 2.080961227416992
13.703561782836914 9.692398071289062 2.081188201904297
13.729904174804688 9.58536434173584 2.0831634998321533
13.765292167663574 9.485153198242188 2.0840303897857666
13.807378768920898 9.389906883239746 2.0840632915496826
13.841375350952148 9.289504051208496 2.0849244594573975
13.879639625549316 9.192337036132812 2.0852274894714355
13.90639877319336 9.087968826293945 2.086732864379883
