# .PCD v0.7 - Point Cloud Data file format
VERSION 0.7
FIELDS x y z
SIZE 4 4 4
TYPE F F F
COUNT 1 1 1
WIDTH 852
HEIGHT 1
VIEWPOINT 0 0 0 1 0 0 0
POINTS 852
DATA ascii
33.5660514831543 3.3279693126678467 2.0273375511169434
33.61944580078125 3.125154495239258 2.021362543106079
33.64673614501953 2.9196481704711914 2.0165693759918213
33.659828186035156 2.7128798961639404 2.0123937129974365
33.65968704223633 2.505168914794922 2.008791923522949
33.66524887084961 2.298037052154541 2.0048534870147705
11.94892692565918 0.7407220602035522 3.0539798736572266
33.63564682006836 1.8817896842956543 1.9987660646438599
12.143522262573242 0.6033779382705688 3.041785478591919
12.293607711791992 0.535288393497467 3.033043622970581
12.19577693939209 0.4560811519622803 3.0363779067993164
12.812231063842773 0.40055522322654724 3.004666805267334
33.712432861328125 0.8503607511520386 1.975100040435791
33.745765686035156 0.6441041827201843 1.9692800045013428
12.3707857131958 0.15891708433628082 3.0217275619506836
33.75369644165039 0.23008649051189423 1.9603334665298462
33.75825500488281 0.023037079721689224 1.955733060836792
33.75754928588867 -0.18403932452201843 1.951328992843628
12.810083389282227 -0.1496986746788025 2.9933199882507324
12.738943099975586 -0.2270396202802658 2.9951491355895996
33.81070327758789 -0.8066847920417786 1.9349483251571655
33.783935546875 -1.0134395360946655 1.9315868616104126
11.980819702148438 -0.4342992603778839 3.02811861038208
12.295166969299316 -0.5211799144744873 3.010478973388672
12.950043678283691 -0.628434956073761 2.9754252433776855
12.701544761657715 -0.6945396661758423 2.986178398132324
12.844501495361328 -0.7813906669616699 2.9769773483276367
12.871273040771484 -0.8622964024543762 2.973661422729492
11.771014213562012 -0.8613262176513672 3.0282413959503174
33.87000274658203 -2.6835007667541504 1.8870667219161987
12.613171577453613 -1.0785311460494995 2.9810056686401367
12.243242263793945 -1.1226568222045898 2.9981818199157715
12.329475402832031 -1.2068665027618408 2.9917144775390625
12.739944458007812 -1.325928807258606 2.9682679176330566
13.16726016998291 -1.4520386457443237 2.9437763690948486
13.338556289672852 -1.55378258228302 2.932563304901123
13.373290061950684 -1.6410397291183472 2.9284603595733643
33.94438171386719 -4.373677730560303 1.8384345769882202
12.279207229614258 -1.6601229906082153 2.9818577766418457
13.751903533935547 -1.9449604749679565 2.9012961387634277
33.976009368896484 -5.015042781829834 1.8187237977981567
33.97990798950195 -5.228825092315674 1.8123482465744019
33.98639678955078 -5.443475723266602 1.805754542350769
33.98857879638672 -5.657912254333496 1.7993123531341553
33.989402770996094 -5.872581958770752 1.7928637266159058
34.001651763916016 -6.089763164520264 1.7857141494750977
34.01938247680664 -6.308590888977051 1.7781795263290405
34.030799865722656 -6.526926517486572 1.7709020376205444
33.991844177246094 -6.735937595367432 1.7663047313690186
33.92811965942383 -6.939918041229248 1.7630051374435425
33.877830505371094 -7.146461009979248 1.7589038610458374
33.89751434326172 -7.368128776550293 1.750853180885315
33.934261322021484 -7.594449520111084 1.7417575120925903
33.95296096801758 -7.817692756652832 1.7335705757141113
33.925498962402344 -8.030872344970703 1.7278804779052734
33.97819519042969 -8.263829231262207 1.7175946235656738
34.02156066894531 -8.495798110961914 1.7077256441116333
34.03916549682617 -8.722416877746582 1.6992101669311523
34.08326721191406 -8.956929206848145 1.689083456993103
34.09684753417969 -9.18452262878418 1.6805930137634277
34.09062957763672 -9.407573699951172 1.673141360282898
34.09736251831055 -9.634968757629395 1.6648503541946411
34.093955993652344 -9.860304832458496 1.6570483446121216
34.10055160522461 -10.089360237121582 1.6485689878463745
34.09796905517578 -10.31655502319336 1.6405240297317505
34.145389556884766 -10.560027122497559 1.6294472217559814
34.13683319091797 -10.787322998046875 1.6215453147888184
34.14672088623047 -11.021352767944336 1.6124547719955444
34.11519241333008 -11.24278736114502 1.6057183742523193
34.128597259521484 -11.479844093322754 1.5962103605270386
34.150760650634766 -11.721054077148438 1.5860668420791626
34.15899658203125 -11.958680152893066 1.576642394065857
34.10541534423828 -12.175370216369629 1.5708439350128174
34.124576568603516 -12.418822288513184 1.5605454444885254
34.25436019897461 -12.704623222351074 1.5433777570724487
34.28758239746094 -12.956843376159668 1.5319429636001587
34.291969299316406 -13.199549674987793 1.5221513509750366
34.3188362121582 -13.452269554138184 1.5108507871627808
34.31513595581055 -13.69434642791748 1.5013164281845093
34.33195495605469 -13.945899963378906 1.4903849363327026
34.34420394897461 -14.19703197479248 1.479608416557312
34.34269714355469 -14.443807601928711 1.4695701599121094
34.340362548828125 -14.69149112701416 1.4594593048095703
29.60259246826172 -12.880369186401367 1.7504167556762695
29.528261184692383 -13.064132690429688 1.7461062669754028
34.40750503540039 -15.475666046142578 1.4236117601394653
34.40696716308594 -15.730005264282227 1.4128527641296387
34.431766510009766 -15.997539520263672 1.4003183841705322
34.40761947631836 -16.243810653686523 1.3908205032348633
34.43305206298828 -16.514991760253906 1.3779540061950684
34.441192626953125 -16.7796630859375 1.3660693168640137
34.455421447753906 -17.049039840698242 1.3536336421966553
34.44979476928711 -17.310260772705078 1.3423652648925781
34.36489486694336 -17.5325870513916 1.3362531661987305
34.31489944458008 -17.773347854614258 1.3277051448822021
34.340118408203125 -18.0545654296875 1.3139629364013672
34.375492095947266 -18.343338012695312 1.2993593215942383
34.40773391723633 -18.632747650146484 1.2847890853881836
30.82196044921875 -16.936656951904297 1.5182993412017822
30.79480743408203 -17.168651580810547 1.5087956190109253
34.567264556884766 -19.550655364990234 1.2356209754943848
34.51997375488281 -19.80453872680664 1.2258294820785522
34.53901672363281 -20.09823226928711 1.2112526893615723
34.527374267578125 -20.37616539001465 1.1986525058746338
34.54274368286133 -20.672138214111328 1.183971643447876
34.57283401489258 -20.97941780090332 1.1680512428283691
34.52733612060547 -21.24286651611328 1.1573450565338135
34.50953674316406 -21.525033950805664 1.1444942951202393
34.5131950378418 -21.822715759277344 1.1299145221710205
34.548946380615234 -22.14333152770996 1.1128004789352417
34.60213851928711 -22.478252410888672 1.094182014465332
34.550804138183594 -22.74770164489746 1.0830347537994385
34.526519775390625 -23.036754608154297 1.0697228908538818
34.662052154541016 -23.435924530029297 1.0442919731140137
34.72067642211914 -23.787424087524414 1.0243096351623535
34.7254524230957 -24.10523223876953 1.0081313848495483
34.687618255615234 -24.39586067199707 0.994971752166748
34.79545974731445 -24.79233169555664 0.9704798460006714
34.787235260009766 -25.10984992980957 0.9545968770980835
34.78850555419922 -25.43703269958496 0.937755823135376
34.82715606689453 -25.79487419128418 0.9177649021148682
34.80363464355469 -26.10982322692871 0.902374804019928
34.837955474853516 -26.471342086791992 0.8821982741355896
34.84144592285156 -26.812957763671875 0.8641869425773621
34.851497650146484 -27.16297149658203 0.8453949689865112
34.87656784057617 -27.52833366394043 0.8251245021820068
34.88130569458008 -27.88131332397461 0.8062113523483276
34.759674072265625 -28.135557174682617 0.7973341941833496
34.759727478027344 -28.490571975708008 0.778320848941803
34.8964958190918 -28.96263885498047 0.7477236986160278
34.869075775146484 -29.30326271057129 0.7303562164306641
34.87526321411133 -29.67568016052246 0.7099105715751648
34.9250602722168 -30.089656829833984 0.685478925704956
34.889102935791016 -30.433853149414062 0.6679739356040955
34.87191390991211 -30.797893524169922 0.6485925316810608
34.967620849609375 -31.266630172729492 0.6191846132278442
34.990806579589844 -31.67608070373535 0.5956298112869263
34.94919967651367 -32.03102493286133 0.577379047870636
34.96161651611328 -32.43959045410156 0.5540845394134521
35.032867431640625 -32.90825653076172 0.525205671787262
34.978179931640625 -33.263492584228516 0.5071349143981934
32.35464096069336 30.869556427001953 1.770706295967102
32.39628601074219 30.532089233398438 1.7751448154449463
32.33628845214844 30.10337257385254 1.785236120223999
32.4642219543457 29.853059768676758 1.7844295501708984
32.50820541381836 29.527740478515625 1.7882717847824097
32.48472595214844 29.14496612548828 1.7957818508148193
32.41291809082031 28.723834991455078 1.805847406387329
32.5679817199707 28.5067081451416 1.802978754043579
32.56741714477539 28.155460357666016 1.808728814125061
32.593406677246094 27.830598831176758 1.8128427267074585
32.59907913208008 27.491666793823242 1.817947268486023
32.604896545410156 27.15627670288086 1.8228981494903564
32.61400604248047 26.826927185058594 1.8275240659713745
32.640472412109375 26.51487159729004 1.8310521841049194
32.64875411987305 26.190998077392578 1.8354504108428955
32.668399810791016 25.87919044494629 1.8390902280807495
32.6728630065918 25.55828285217285 1.8434313535690308
32.69518280029297 25.254175186157227 1.8466657400131226
32.70626449584961 24.944093704223633 1.8503875732421875
32.7139892578125 24.634227752685547 1.8541673421859741
32.745601654052734 24.344879150390625 1.8565253019332886
32.57516860961914 23.909473419189453 1.8697068691253662
32.54625701904297 23.582590103149414 1.875079870223999
32.55194854736328 23.283700942993164 1.8784605264663696
32.6702766418457 23.066879272460938 1.8756643533706665
32.6338996887207 22.74266815185547 1.8810842037200928
32.65734100341797 22.462799072265625 1.8831756114959717
32.47441482543945 22.044912338256836 1.8961974382400513
32.5573616027832 21.81082534790039 1.8948763608932495
32.64781951904297 21.582611083984375 1.893060326576233
32.70240020751953 21.33172607421875 1.8930624723434448
32.636688232421875 21.004756927490234 1.8993581533432007
32.512542724609375 20.644058227539062 1.908637285232544
32.527442932128906 20.37476921081543 1.9104270935058594
32.68304443359375 20.19428825378418 1.9046757221221924
32.750640869140625 19.959636688232422 1.9034943580627441
32.583702087402344 19.584936141967773 1.9145945310592651
32.55348205566406 19.29606819152832 1.9183697700500488
32.687408447265625 19.1055965423584 1.9134076833724976
32.7977180480957 18.901241302490234 1.9096070528030396
32.832923889160156 18.654300689697266 1.9096673727035522
32.800968170166016 18.37103271484375 1.9131591320037842
32.88921356201172 18.156450271606445 1.9102569818496704
32.986595153808594 17.947200775146484 1.906793236732483
33.020137786865234 17.703929901123047 1.9065852165222168
33.03162384033203 17.450191497802734 1.907442569732666
33.0385856628418 17.19559097290039 1.9084479808807373
33.04634094238281 16.942934036254883 1.9093235731124878
33.06472396850586 16.69713020324707 1.9095574617385864
33.07865905761719 16.450407028198242 1.9099373817443848
33.10157775878906 16.209409713745117 1.9097644090652466
33.110191345214844 15.96268081665039 1.9102519750595093
33.09717559814453 15.70703125 1.9117807149887085
33.122093200683594 15.470744132995605 1.911252737045288
33.1353759765625 15.230154037475586 1.9112476110458374
33.16243362426758 14.996978759765625 1.9104454517364502
33.10939025878906 14.729129791259766 1.9137229919433594
33.125694274902344 14.493725776672363 1.9133164882659912
33.148616790771484 14.26223087310791 1.9124871492385864
33.15890884399414 14.026329040527344 1.9122341871261597
33.181392669677734 13.796588897705078 1.911270260810852
33.19491195678711 13.564079284667969 1.9106926918029785
33.235565185546875 13.343459129333496 1.9086298942565918
33.108436584472656 13.057256698608398 1.915197491645813
33.1234245300293 12.82903003692627 1.914312481880188
33.567256927490234 12.764772415161133 1.8910926580429077
33.67371368408203 12.569457054138184 1.885304570198059
33.70963668823242 12.347891807556152 1.8831011056900024
33.74222946166992 12.12568187713623 1.8809939622879028
33.74699020385742 11.894240379333496 1.8802560567855835
33.748294830322266 11.662544250488281 1.8796237707138062
33.749916076660156 11.431920051574707 1.8788995742797852
33.758522033691406 11.204545974731445 1.87773859500885
33.77985382080078 10.98212718963623 1.8758405447006226
33.793067932128906 10.757747650146484 1.874292016029358
33.802894592285156 10.533023834228516 1.8728454113006592
33.809326171875 10.307999610900879 1.8715031147003174
33.80183029174805 10.079584121704102 1.8708133697509766
33.8244514465332 9.860871315002441 1.8684812784194946
33.842777252197266 9.641438484191895 1.8663002252578735
33.842369079589844 9.41733169555664 1.865025281906128
33.85783386230469 9.198304176330566 1.8628491163253784
33.86512756347656 8.977649688720703 1.8610279560089111
33.866153717041016 8.756001472473145 1.8594638109207153
33.86477279663086 8.534433364868164 1.857954740524292
33.88813400268555 8.3196382522583 1.855077862739563
33.908199310302734 8.104413986206055 1.8523011207580566
33.91035461425781 7.885408878326416 1.850394368171692
33.915000915527344 7.667562961578369 1.8482863903045654
33.93386459350586 7.453383445739746 1.8453588485717773
33.95039367675781 7.239051818847656 1.8424826860427856
33.968505859375 7.025403022766113 1.8394513130187988
33.96275329589844 6.807290077209473 1.8376096487045288
33.96933364868164 6.592174053192139 1.8350471258163452
33.960811614990234 6.3746538162231445 1.8332152366638184
33.97841262817383 6.162473678588867 1.8299278020858765
33.991737365722656 5.94980001449585 1.826796531677246
34.00668716430664 5.737692356109619 1.82350754737854
34.022281646728516 5.525943756103516 1.8201123476028442
34.02571105957031 5.312524318695068 1.8172961473464966
34.024837493896484 5.098825454711914 1.8146390914916992
34.03547668457031 4.887180805206299 1.8112975358963013
34.046775817871094 4.675868511199951 1.807848572731018
34.05775451660156 4.464728832244873 1.8043467998504639
34.064453125 4.25325870513916 1.8010035753250122
34.07082748413086 4.041990756988525 1.797606110572815
33.536075592041016 3.77012300491333 1.8233460187911987
33.51862335205078 3.56012225151062 1.821146845817566
33.588279724121094 3.3593192100524902 1.814164161682129
33.644813537597656 3.156675100326538 1.8078112602233887
33.663307189941406 2.9502363204956055 1.80344557762146
33.67456817626953 2.7432022094726562 1.7994015216827393
33.680572509765625 2.5358400344848633 1.7955718040466309
13.057243347167969 0.9028295874595642 2.91955304145813
33.65386962890625 2.119011878967285 1.789821982383728
33.664005279541016 1.9124243259429932 1.7855561971664429
33.67287063598633 1.7057909965515137 1.781288743019104
13.161893844604492 0.5860773921012878 2.907975196838379
12.384913444519043 0.47540542483329773 2.94935941696167
19.308332443237305 0.6223635077476501 2.5646536350250244
12.890705108642578 0.33649787306785583 2.9183380603790283
12.482152938842773 0.24923977255821228 2.939469575881958
33.74036407470703 0.4660252034664154 1.753354549407959
12.470122337341309 0.09598495066165924 2.9369962215423584
12.553261756896973 0.0196177177131176 2.9307310581207275
12.631933212280273 -0.057747986167669296 2.9246675968170166
12.729093551635742 -0.136282280087471 2.9175162315368652
12.738910675048828 -0.2145458310842514 2.9152352809906006
33.79509353637695 -0.7772061824798584 1.7234418392181396
33.814395904541016 -0.9852187633514404 1.7176129817962646
33.80946731567383 -1.192689061164856 1.713080883026123
12.473091125488281 -0.5163910388946533 2.9231772422790527
12.572317123413086 -0.597778856754303 2.915681838989258
13.163494110107422 -0.7068642377853394 2.879969358444214
12.839912414550781 -0.7684993743896484 2.8965489864349365
12.91854476928711 -0.8527717590332031 2.890052556991577
12.231882095336914 -0.882819414138794 2.9276604652404785
12.637202262878418 -0.9900500178337097 2.9022748470306396
12.403990745544434 -1.048371434211731 2.9137778282165527
12.374369621276855 -1.1223634481430054 2.9134819507598877
12.722892761230469 -1.2327247858047485 2.8911030292510986
33.90657043457031 -3.4959633350372314 1.6494088172912598
13.32190990447998 -1.455977201461792 2.8516571521759033
33.94293212890625 -3.9211668968200684 1.6356648206710815
12.463500022888184 -1.5171024799346924 2.897707939147949
33.949188232421875 -4.344625473022461 1.6233490705490112
33.963191986083984 -4.558365821838379 1.6164188385009766
33.97782897949219 -4.7727203369140625 1.6093617677688599
33.987159729003906 -4.986847877502441 1.6025317907333374
33.993167877197266 -5.2009687423706055 1.5958116054534912
33.992889404296875 -5.414566516876221 1.5893807411193848
34.00604248046875 -5.630805492401123 1.5820529460906982
34.00306701660156 -5.844873428344727 1.575608253479004
29.2619686126709 -5.2148942947387695 1.8567607402801514
34.02446746826172 -6.279327869415283 1.5607898235321045
34.0644645690918 -6.503078460693359 1.551449179649353
34.029537200927734 -6.713066577911377 1.5465948581695557
33.96299743652344 -6.916696548461914 1.5436081886291504
33.91672897338867 -7.124279499053955 1.5393059253692627
33.92577362060547 -7.34380578994751 1.5315015316009521
33.944114685058594 -7.56610107421875 1.5230220556259155
34.00965118408203 -7.800055503845215 1.5114941596984863
34.010433197021484 -8.020208358764648 1.5038950443267822
34.06993865966797 -8.25523853302002 1.492508053779602
34.04550552368164 -8.47081470489502 1.486290454864502
34.0883674621582 -8.703937530517578 1.4757232666015625
34.11033248901367 -8.932847023010254 1.4663636684417725
34.13269805908203 -9.162873268127441 1.4568662643432617
34.138118743896484 -9.389275550842285 1.4483387470245361
34.11610794067383 -9.608782768249512 1.4414677619934082
34.103233337402344 -9.831416130065918 1.4339131116867065
34.12910842895508 -10.06611442565918 1.4237483739852905
34.1237678527832 -10.29256534576416 1.4154925346374512
34.133140563964844 -10.52432918548584 1.4061698913574219
34.127620697021484 -10.752397537231445 1.397707462310791
34.16143798828125 -10.993943214416504 1.3865491151809692
34.15469741821289 -11.22353458404541 1.3779385089874268
34.12086868286133 -11.444887161254883 1.3710130453109741
34.19136428833008 -11.702445983886719 1.357043743133545
34.16763687133789 -11.929060935974121 1.3492176532745361
34.16309356689453 -12.163189888000488 1.3399986028671265
34.14476776123047 -12.39328670501709 1.3315916061401367
34.275596618652344 -12.679364204406738 1.3129745721817017
34.30519485473633 -12.93020248413086 1.301040530204773
34.31903076171875 -13.176513671875 1.2900409698486328
34.32368850708008 -13.420574188232422 1.2795355319976807
34.33220291137695 -13.667404174804688 1.2686325311660767
34.36672592163086 -13.926085472106934 1.2557945251464844
34.35137939453125 -14.165923118591309 1.246267318725586
34.36014938354492 -14.41690731048584 1.234932541847229
34.377220153808594 -14.672842025756836 1.222874402999878
34.3576545715332 -14.914426803588867 1.2132480144500732
29.544475555419922 -13.041064262390137 1.5427213907241821
34.430023193359375 -15.450824737548828 1.1856834888458252
34.423255920410156 -15.702311515808105 1.1747193336486816
34.44456481933594 -15.968146324157715 1.161597490310669
34.4404296875 -16.223777770996094 1.1501471996307373
34.460548400878906 -16.49245262145996 1.1367919445037842
34.466094970703125 -16.755874633789062 1.1243302822113037
34.48223114013672 -17.026172637939453 1.1109347343444824
34.47671127319336 -17.287458419799805 1.0989621877670288
34.4088134765625 -17.518529891967773 1.0914421081542969
34.35799026489258 -17.7590389251709 1.0825411081314087
34.44157791137695 -18.070985794067383 1.0634841918945312
34.41340637207031 -18.32646369934082 1.0525788068771362
34.4299201965332 -18.607421875 1.0381556749343872
34.398780822753906 -18.86431884765625 1.027158498764038
30.815383911132812 -17.14599609375 1.286553978919983
34.57246398925781 -19.51541519165039 0.9866430759429932
34.563453674316406 -19.79106903076172 0.9733873009681702
34.56184387207031 -20.072860717773438 0.9593808054924011
34.5615119934082 -20.357402801513672 0.9450898170471191
34.57097244262695 -20.649856567382812 0.929840624332428
34.58155059814453 -20.94525909423828 0.9143025279045105
34.54643249511719 -21.214937210083008 0.9021695256233215
34.52539825439453 -21.4949951171875 0.8887471556663513
34.58574676513672 -21.828311920166016 0.8686333298683167
34.58446502685547 -22.125534057617188 0.8532124161720276
34.5992431640625 -22.435504913330078 0.8362814784049988
34.62234878540039 -22.75361442565918 0.8184449672698975
34.592193603515625 -23.039108276367188 0.8047232031822205
34.74424362182617 -23.449554443359375 0.7758217453956604
34.74348068237305 -23.76078987121582 0.7591872811317444
34.74430465698242 -24.075735092163086 0.7421905398368835
34.765419006347656 -24.407636642456055 0.7232572436332703
34.82847595214844 -24.772502899169922 0.7005293965339661
34.8082160949707 -25.08131980895996 0.6845508217811584
34.81045150756836 -25.40904998779297 0.6664257049560547
34.82600784301758 -25.749610900878906 0.6468995809555054
34.851463317871094 -26.100887298583984 0.6262437701225281
34.86039733886719 -26.443191528320312 0.6067296862602234
34.85772705078125 -26.77989959716797 0.5879488587379456
34.861671447753906 -27.124919891357422 0.5683133006095886
34.8681755065918 -27.475313186645508 0.5481667518615723
34.875579833984375 -27.829917907714844 0.5276453495025635
34.81630325317383 -28.134225845336914 0.5127990245819092
34.77235794067383 -28.453384399414062 0.4963405430316925
34.88172912597656 -28.90226936340332 0.46570637822151184
34.9028205871582 -29.28302764892578 0.4427006244659424
34.90077590942383 -29.648334503173828 0.4214812219142914
34.928070068359375 -30.04269027709961 0.39722245931625366
34.90518569946289 -30.397871017456055 0.37727832794189453
34.85306167602539 -30.73080825805664 0.35977208614349365
34.92019271850586 -31.173194885253906 0.33070892095565796
34.75007629394531 -31.4068660736084 0.3238014876842499
34.964027404785156 -31.992475509643555 0.27992409467697144
34.95108413696289 -32.377159118652344 0.2573051154613495
35.05331802368164 -32.87411117553711 0.22312182188034058
34.97063064575195 -33.202510833740234 0.20653073489665985
32.377906799316406 30.893566131591797 1.4876573085784912
32.4095344543457 30.546398162841797 1.4940333366394043
32.32992935180664 30.099279403686523 1.5075364112854004
32.46443557739258 29.8551025390625 1.5067741870880127
32.51731491088867 29.53787612915039 1.5112104415893555
32.46121597290039 29.125736236572266 1.522566795349121
32.41849136352539 28.730640411376953 1.5328428745269775
32.55552673339844 28.497695922851562 1.5313071012496948
32.563995361328125 28.15439796447754 1.537925362586975
32.57328414916992 27.815319061279297 1.5443164110183716
32.595680236816406 27.490713119506836 1.5496987104415894
32.61301803588867 27.164960861206055 1.555241346359253
32.6121711730957 26.827342987060547 1.5617775917053223
32.63632583618164 26.513437271118164 1.5665645599365234
32.65007400512695 26.193994522094727 1.5718551874160767
32.652523040771484 25.868562698364258 1.5777018070220947
32.686832427978516 25.5711669921875 1.5813931226730347
32.689483642578125 25.251731872558594 1.5869234800338745
32.698184967041016 24.939891815185547 1.5919243097305298
32.72184753417969 24.642122268676758 1.5958473682403564
32.73027801513672 24.33546257019043 1.6005771160125732
32.74262237548828 24.034358978271484 1.604923129081726
32.53981018066406 23.57988929748535 1.622426152229309
32.58774185180664 23.311279296875 1.6242704391479492
32.65889358520508 23.060827255249023 1.6245628595352173
32.61103439331055 22.72871971130371 1.632043719291687
32.724910736083984 22.511274337768555 1.6294736862182617
32.70348358154297 22.202407836914062 1.6350704431533813
32.714359283447266 21.918004989624023 1.6385622024536133
32.70048522949219 21.61943244934082 1.6434345245361328
32.72935485839844 21.351320266723633 1.645581841468811
32.77128982543945 21.093400955200195 1.646820306777954
32.76660919189453 20.807395935058594 1.6507658958435059
32.79436111450195 20.543983459472656 1.6526299715042114
32.73006057739258 20.225360870361328 1.6599318981170654
32.659690856933594 19.906227111816406 1.667468786239624
32.62858581542969 19.613933563232422 1.6725163459777832
32.810752868652344 19.45059585571289 1.6646450757980347
32.83522415161133 19.194034576416016 1.6661436557769775
32.86125564575195 18.939897537231445 1.6674410104751587
32.86195755004883 18.6728458404541 1.6701462268829346
32.825782775878906 18.386978149414062 1.6749422550201416
32.88525390625 18.15631675720215 1.6739251613616943
32.9755859375 17.94327735900879 1.6709742546081543
33.01790237426758 17.704803466796875 1.670784592628479
33.0258674621582 17.449220657348633 1.6725355386734009
33.05408477783203 17.205734252929688 1.6729834079742432
33.03879928588867 16.941143035888672 1.675909161567688
33.0651969909668 16.69944953918457 1.676265835762024
33.07109451293945 16.448728561401367 1.6777368783950806
33.11283493041992 16.217010498046875 1.6769919395446777
33.100807189941406 15.96024227142334 1.6793270111083984
33.09590530395508 15.708517074584961 1.6811434030532837
33.1190185546875 15.471399307250977 1.6812115907669067
33.127769470214844 15.22874927520752 1.6820322275161743
33.15935516357422 14.997685432434082 1.68141508102417
33.09721374511719 14.725807189941406 1.6862210035324097
33.123558044433594 14.494889259338379 1.685726523399353
33.145565032958984 14.263018608093262 1.6853975057601929
33.146663665771484 14.023250579833984 1.6862057447433472
33.174652099609375 13.795891761779785 1.6853445768356323
33.19093704223633 13.564563751220703 1.6850826740264893
33.2362060546875 13.345830917358398 1.6830313205718994
33.0831298828125 13.04937744140625 1.6925290822982788
33.123207092285156 12.831050872802734 1.6906068325042725
33.55475616455078 12.762164115905762 1.6656383275985718
33.67799758911133 12.573212623596191 1.6586703062057495
33.71205139160156 12.350937843322754 1.6568461656570435
33.739952087402344 12.127028465270996 1.6552964448928833
33.7437744140625 11.895272254943848 1.6550722122192383
33.751686096191406 11.665884017944336 1.6545228958129883
33.760894775390625 11.437806129455566 1.6538127660751343
33.759098052978516 11.206908226013184 1.6536630392074585
33.75669479370117 10.97676944732666 1.653465747833252
33.78413772583008 10.757078170776367 1.6514333486557007
33.81110763549805 10.537760734558105 1.6493446826934814
33.810874938964844 10.310650825500488 1.6487702131271362
33.80052185058594 10.081372261047363 1.6487072706222534
33.816429138183594 9.860713005065918 1.647020697593689
33.83858108520508 9.642426490783691 1.644884467124939
33.836246490478516 9.41781234741211 1.6441060304641724
33.84880828857422 9.198040008544922 1.6423696279525757
33.867671966552734 8.980513572692871 1.640182614326477
33.86581039428711 8.758101463317871 1.6391336917877197
33.887664794921875 8.542393684387207 1.6366078853607178
33.900390625 8.324841499328613 1.634537935256958
33.90298843383789 8.105364799499512 1.6329857110977173
33.9051399230957 7.8863935470581055 1.6313807964324951
33.916595458984375 7.6701226234436035 1.629146695137024
33.92180252075195 7.452935218811035 1.6272021532058716
33.94417190551758 7.23992919921875 1.6241627931594849
33.95347213745117 7.024499416351318 1.6218165159225464
33.953575134277344 6.807657241821289 1.6199361085891724
33.96406555175781 6.593359470367432 1.6173617839813232
33.95553207397461 6.3758721351623535 1.6158374547958374
33.97410583496094 6.163904190063477 1.6126244068145752
33.991355895996094 5.951947212219238 1.6094096899032593
34.00531005859375 5.739676475524902 1.606311321258545
34.01203155517578 5.526496887207031 1.6035653352737427
34.02432632446289 5.3145270347595215 1.6004077196121216
34.01456069946289 5.09950590133667 1.5984896421432495
34.024192810058594 4.887783050537109 1.5953338146209717
34.04437255859375 4.677763938903809 1.5914655923843384
34.058311462402344 4.467030048370361 1.5878921747207642
34.06896209716797 4.256052494049072 1.5844354629516602
34.07929992675781 4.045228004455566 1.580918550491333
33.53680419921875 3.7723910808563232 1.61066734790802
33.51141357421875 3.5615408420562744 1.6091985702514648
33.57706832885742 3.3603885173797607 1.6021491289138794
33.632568359375 3.1577234268188477 1.5956271886825562
33.65303039550781 2.9515366554260254 1.5911418199539185
33.6652717590332 2.744647979736328 1.5870764255523682
33.67523956298828 2.5376436710357666 1.5830683708190918
33.67597198486328 2.3300676345825195 1.579545497894287
33.66844940185547 2.1221370697021484 1.5764468908309937
33.66163635253906 1.9144980907440186 1.5732297897338867
33.663509368896484 1.707526683807373 1.5694024562835693
13.047425270080566 0.5813375115394592 2.832041025161743
13.026708602905273 0.5003734230995178 2.8318164348602295
13.005492210388184 0.4196847677230835 2.831597089767456
33.723148345947266 0.8818912506103516 1.5500822067260742
33.729652404785156 0.6750575304031372 1.5455659627914429
33.74286651611328 0.468286395072937 1.5405510663986206
12.7589693069458 0.098531074821949 2.8405117988586426
33.77048873901367 0.05434483662247658 1.530197262763977
12.660213470458984 -0.057553865015506744 2.843350410461426
12.667508125305176 -0.13529545068740845 2.8411989212036133
33.78392028808594 -0.567388653755188 1.5157883167266846
12.786425590515137 -0.2934763729572296 2.8302433490753174
33.812782287597656 -0.9829264283180237 1.5045135021209717
33.820804595947266 -1.1908411979675293 1.4991501569747925
33.8265495300293 -1.3988518714904785 1.4938455820083618
12.574604034423828 -0.5975667834281921 2.836264133453369
13.014071464538574 -0.698474645614624 2.8064346313476562
12.844069480895996 -0.7684018015861511 2.8152668476104736
12.896769523620605 -0.8509817719459534 2.80989670753479
33.85295867919922 -2.441720724105835 1.4661799669265747
12.518030166625977 -0.9803913235664368 2.8300819396972656
33.89646911621094 -2.86329984664917 1.4523825645446777
33.889915466308594 -3.072246789932251 1.4471688270568848
12.7617826461792 -1.2361516952514648 2.808070659637451
33.90668487548828 -3.4936962127685547 1.4345461130142212
13.345620155334473 -1.45817232131958 2.7656941413879395
13.787368774414062 -1.5920771360397339 2.7345309257507324
33.94773864746094 -4.130633354187012 1.413880467414856
33.93830490112305 -4.340940952301025 1.4083164930343628
33.96118927001953 -4.555801868438721 1.400538444519043
33.96690368652344 -4.768887519836426 1.3937928676605225
33.9643669128418 -4.981202602386475 1.3874963521957397
33.99108123779297 -5.1983442306518555 1.379167914390564
33.977970123291016 -5.409883499145508 1.3733824491500854
33.99406051635742 -5.626509666442871 1.3655588626861572
34.00385284423828 -5.84269380569458 1.3580527305603027
29.254701614379883 -5.211721897125244 1.6698802709579468
34.03303909301758 -6.278587341308594 1.3420910835266113
34.05729675292969 -6.499382972717285 1.3333007097244263
34.02725601196289 -6.710289001464844 1.3280779123306274
33.96560287475586 -6.914902687072754 1.3249166011810303
33.93103790283203 -7.124960899353027 1.3198333978652954
33.92930221557617 -7.342242240905762 1.312416672706604
33.949546813964844 -7.5649800300598145 1.3033881187438965
33.999454498291016 -7.7953782081604 1.2922048568725586
34.03421401977539 -8.023468971252441 1.281938910484314
34.0742301940918 -8.253925323486328 1.2711848020553589
34.05847930908203 -8.471689224243164 1.2641839981079102
34.103206634521484 -8.705364227294922 1.2528597116470337
34.104835510253906 -8.929041862487793 1.2444231510162354
34.110782623291016 -9.154621124267578 1.235569953918457
34.12485885620117 -9.383255004882812 1.2260271310806274
34.11436462402344 -9.605916023254395 1.2181034088134766
34.12063217163086 -9.834053993225098 1.2088795900344849
34.13590621948242 -10.06573486328125 1.1988930702209473
34.11905288696289 -10.288756370544434 1.1910805702209473
34.15127182006836 -10.527527809143066 1.179631233215332
34.173274993896484 -10.764384269714355 1.1687816381454468
34.15566635131836 -10.989686012268066 1.1606658697128296
34.148895263671875 -11.219225883483887 1.1516485214233398
34.15288543701172 -11.453221321105957 1.1417251825332642
34.1836051940918 -11.697376251220703 1.129714846611023
34.17775344848633 -11.930176734924316 1.1202490329742432
34.158111572265625 -12.158997535705566 1.1116740703582764
34.13694763183594 -12.38802719116211 1.103093147277832
34.27424621582031 -12.676427841186523 1.082598090171814
34.30472183227539 -12.927580833435059 1.0698676109313965
34.314781188964844 -13.17243480682373 1.0585144758224487
34.31290054321289 -13.413904190063477 1.0479166507720947
34.3371467590332 -13.666912078857422 1.0352015495300293
34.3521728515625 -13.91772747039795 1.0230300426483154
34.349735260009766 -14.1627779006958 1.0120373964309692
34.36305618286133 -14.415653228759766 0.9996927380561829
34.36171340942383 -14.663745880126953 0.9883191585540771
34.37234115600586 -14.918320655822754 0.9758708477020264
29.532657623291016 -13.033838272094727 1.3399529457092285
34.42903137207031 -15.447881698608398 0.9477300643920898
34.423118591308594 -15.699748992919922 0.9360799193382263
34.43440628051758 -15.96093463897705 0.9229201674461365
34.43205642700195 -16.21732521057129 0.9106704592704773
34.44763946533203 -16.483760833740234 0.8968333005905151
34.46482849121094 -16.75273895263672 0.8826909065246582
34.477325439453125 -17.021224975585938 0.868743360042572
34.4664192199707 -17.27976417541504 0.8564997315406799
34.40385437011719 -17.51347541809082 0.8482733368873596
34.36629867553711 -17.760807037353516 0.8378844857215881
34.39588928222656 -18.044475555419922 0.8218581676483154
34.41448211669922 -18.324491500854492 0.8065308332443237
34.42214584350586 -18.600669860839844 0.7919045090675354
30.83515167236328 -16.907777786254883 1.0753153562545776
30.82203483581543 -17.147506713867188 1.063533067703247
34.57234191894531 -19.512765884399414 0.7361920475959778
34.58577346801758 -19.801265716552734 0.7202327251434326
34.56418228149414 -20.071630477905273 0.7070252299308777
34.565494537353516 -20.35715675354004 0.6916843056678772
34.6151123046875 -20.673622131347656 0.6720020174980164
34.5981559753418 -20.952713012695312 0.6577901840209961
34.56462097167969 -21.22350311279297 0.6448124051094055
34.57478332519531 -21.52313232421875 0.6278498768806458
34.585933685302734 -21.8258113861084 0.6105694770812988
34.56273651123047 -22.1090145111084 0.596071720123291
34.61015701293945 -22.43995475769043 0.5751255750656128
34.59563446044922 -22.73341941833496 0.5594046711921692
34.55888366699219 -23.0142879486084 0.5454467535018921
34.69853210449219 -23.41604995727539 0.5154320597648621
34.74398422241211 -23.758468627929688 0.49354100227355957
34.758663177490234 -24.08301544189453 0.4741497039794922
34.753517150878906 -24.396602630615234 0.45629826188087463
34.82301712036133 -24.765933990478516 0.4313267469406128
34.801090240478516 -25.073497772216797 0.414471298456192
34.79844665527344 -25.39759063720703 0.39557456970214844
34.81156539916992 -25.736228942871094 0.3749282658100128
34.83699035644531 -26.087339401245117 0.35282668471336365
34.85543441772461 -26.43671226501465 0.33107033371925354
34.86061096191406 -26.779396057128906 0.3102646768093109
34.856590270996094 -27.118236541748047 0.29003605246543884
34.85362243652344 -27.461116790771484 0.26940539479255676
34.83216857910156 -27.792543411254883 0.2502644956111908
34.74977111816406 -28.07773780822754 0.236790269613266
34.73078536987305 -28.416637420654297 0.21685871481895447
34.86326599121094 -28.88421630859375 0.18162478506565094
34.90497589111328 -29.282073974609375 0.15493087470531464
34.91118621826172 -29.65441131591797 0.1313999444246292
34.90656661987305 -30.02142333984375 0.1086040660738945
32.32186508178711 30.841588973999023 1.2256070375442505
32.388797760009766 30.52836799621582 1.230628490447998
32.312068939208984 30.084163665771484 1.246074914932251
32.45380783081055 29.84686851501465 1.2451714277267456
32.493343353271484 29.517654418945312 1.2516216039657593
32.45054626464844 29.11772346496582 1.2638888359069824
32.402587890625 28.718109130859375 1.276294469833374
32.5447883605957 28.48987579345703 1.2746816873550415
32.556251525878906 28.1492977142334 1.2823811769485474
32.555660247802734 27.80187225341797 1.290751338005066
32.586387634277344 27.484487533569336 1.2966779470443726
32.61675262451172 27.169692993164062 1.3024511337280273
32.59591293334961 26.815593719482422 1.3116949796676636
32.62466049194336 26.50559425354004 1.3172204494476318
32.64227294921875 26.189380645751953 1.3233627080917358
32.64862823486328 25.867128372192383 1.3301256895065308
32.6837272644043 25.570396423339844 1.3346918821334839
32.68086242675781 25.246740341186523 1.341760516166687
32.67764663696289 24.925901412963867 1.3486796617507935
32.717193603515625 24.64029312133789 1.3524471521377563
32.71280288696289 24.32415771484375 1.3591173887252808
32.745216369628906 24.037960052490234 1.3630716800689697
32.536861419677734 23.579437255859375 1.3835265636444092
32.59453582763672 23.317832946777344 1.3853976726531982
32.6649055480957 23.06678009033203 1.3862605094909668
32.68101119995117 22.779199600219727 1.3907190561294556
32.7038688659668 22.49851417541504 1.3945690393447876
32.664222717285156 22.17746925354004 1.4025471210479736
32.676612854003906 21.894437789916992 1.4068204164505005
32.71591567993164 21.631362915039062 1.409122347831726
32.73065185546875 21.35390281677246 1.4129611253738403
32.76084899902344 21.088424682617188 1.4156169891357422
32.797454833984375 20.828731536865234 1.4177097082138062
32.80588150024414 20.55295181274414 1.4215761423110962
18.40448570251465 11.373369216918945 2.3950557708740234
18.434541702270508 11.236358642578125 2.3953750133514404
18.383180618286133 11.051053047180176 2.4010868072509766
18.367172241210938 10.88869571685791 2.4043476581573486
32.83500671386719 19.195674896240234 1.4398225545883179
32.90083312988281 18.964488983154297 1.4390885829925537
32.892154693603516 18.691783905029297 1.44320547580719
32.835208892822266 18.3940372467041 1.4504070281982422
32.882484436035156 18.156572341918945 1.450556993484497
32.973670959472656 17.94403076171875 1.447684407234192
33.009830474853516 17.702274322509766 1.4483530521392822
33.0116081237793 17.44348907470703 1.4511831998825073
33.0291633605957 17.194570541381836 1.452855110168457
33.036922454833984 16.941991806030273 1.4550617933273315
33.05708312988281 16.697166442871094 1.45633864402771
33.066551208496094 16.448284149169922 1.458209753036499
33.08496856689453 16.20518684387207 1.4593825340270996
33.081878662109375 15.952938079833984 1.4618589878082275
33.1039924621582 15.71418285369873 1.4625732898712158
33.10091018676758 15.464768409729004 1.4648330211639404
33.11234664916992 15.223490715026855 1.4660351276397705
33.15571594238281 14.99787712097168 1.4650429487228394
33.09634017944336 14.727252960205078 1.4706660509109497
33.10622787475586 14.489142417907715 1.4716551303863525
33.12544631958008 14.256200790405273 1.4719343185424805
33.12926483154297 14.017730712890625 1.473116397857666
33.16550827026367 13.793936729431152 1.4720841646194458
33.17530822753906 13.560025215148926 1.4726771116256714
33.22239303588867 13.342137336730957 1.4707437753677368
33.08513641357422 13.052014350891113 1.4807103872299194
33.117767333984375 12.830793380737305 1.479519248008728
33.518375396728516 12.75020980834961 1.4543087482452393
33.684513092041016 12.577542304992676 1.4442591667175293
33.716705322265625 12.354544639587402 1.442821979522705
33.73240661621094 12.126220703125 1.4423619508743286
33.74939727783203 11.899164199829102 1.4417208433151245
33.746952056884766 11.666157722473145 1.4422481060028076
33.749542236328125 11.435870170593262 1.4423532485961914
33.76952362060547 11.212281227111816 1.4412342309951782
33.76620101928711 10.98177433013916 1.4415353536605835
33.77939224243164 10.757484436035156 1.4406718015670776
33.81207275390625 10.539981842041016 1.438449501991272
33.80325698852539 10.310250282287598 1.4388288259506226
33.795772552490234 10.081876754760742 1.4390311241149902
33.80879592895508 9.860411643981934 1.437809944152832
33.82805252075195 9.64135456085205 1.4360934495925903
33.82282257080078 9.416004180908203 1.435876727104187
33.83633041381836 9.196578025817871 1.4343522787094116
33.85420608520508 8.978875160217285 1.4324536323547363
33.86005401611328 8.75854778289795 1.4312479496002197
33.86931610107422 8.539705276489258 1.4297304153442383
33.886863708496094 8.323458671569824 1.4275844097137451
33.8972053527832 8.105924606323242 1.4258191585540771
33.91004943847656 7.8894782066345215 1.423802137374878
33.90690612792969 7.669875621795654 1.4227385520935059
33.925743103027344 7.45574951171875 1.4201538562774658
33.94029998779297 7.241054058074951 1.4177592992782593
33.94275665283203 7.024234294891357 1.4160680770874023
33.951656341552734 6.809225559234619 1.4138678312301636
33.95625686645508 6.593799591064453 1.4118624925613403
33.94968795776367 6.376729965209961 1.410500407218933
33.96333312988281 6.163908004760742 1.4077285528182983
33.984493255615234 5.952707767486572 1.4043760299682617
33.99745178222656 5.740314483642578 1.4014732837677002
34.002193450927734 5.5268635749816895 1.399023175239563
34.013484954833984 5.314801216125488 1.3960566520690918
33.998775482177734 5.099106311798096 1.3947131633758545
34.01925277709961 4.889043807983398 1.390967845916748
34.038429260253906 4.678920269012451 1.3872190713882446
34.05927658081055 4.469133377075195 1.38327157497406
34.05704879760742 4.256541728973389 1.380760669708252
34.07232666015625 4.046380519866943 1.3770060539245605
33.54787826538086 3.7755744457244873 1.4089540243148804
33.50265121459961 3.5625455379486084 1.409085988998413
33.572242736816406 3.3618483543395996 1.401507019996643
33.62571716308594 3.159029483795166 1.3949038982391357
33.64517593383789 2.952799081802368 1.3904746770858765
33.65341567993164 2.745635509490967 1.3867050409317017
33.66237258911133 2.538630247116089 1.3828009366989136
33.669063568115234 2.331547498703003 1.3789618015289307
33.6605339050293 2.1235969066619873 1.3760560750961304
33.65371322631836 1.9160070419311523 1.3729524612426758
33.65856170654297 1.7092373371124268 1.3689781427383423
33.66214370727539 1.5024787187576294 1.3650028705596924
33.67641830444336 1.2961993217468262 1.3602190017700195
19.273895263671875 0.6229454278945923 2.3302552700042725
13.0067138671875 0.3401307761669159 2.752518653869629
33.7306022644043 0.677051842212677 1.3445552587509155
12.419109344482422 0.17229127883911133 2.789280652999878
33.75373458862305 0.26334893703460693 1.3345394134521484
33.757415771484375 0.05630599707365036 1.3299328088760376
12.742104530334473 -0.05768616124987602 2.7623887062072754
33.766944885253906 -0.3579462170600891 1.3203035593032837
33.778778076171875 -0.5653133392333984 1.314868688583374
12.819347381591797 -0.2939854562282562 2.7518415451049805
33.806602478027344 -0.9807520508766174 1.3034324645996094
33.80363464355469 -1.1882407665252686 1.298738956451416
33.80537796020508 -1.395978331565857 1.2936301231384277
33.74007797241211 -1.6006664037704468 1.2930800914764404
12.848578453063965 -0.6893473267555237 2.7403488159179688
12.8848237991333 -0.7705845236778259 2.7358224391937256
12.87376880645752 -0.8492111563682556 2.7345526218414307
12.827410697937012 -0.9252236485481262 2.735722064971924
12.517057418823242 -0.9800904393196106 2.7553935050964355
33.89209747314453 -2.8609120845794678 1.2500271797180176
12.80191421508789 -1.1605603694915771 2.7311010360717773
12.727917671203613 -1.2326287031173706 2.7341232299804688
12.783510208129883 -1.3172149658203125 2.727954149246216
13.956103324890137 -1.5245074033737183 2.64239501953125
12.290512084960938 -1.4190683364868164 2.758467435836792
33.93431854248047 -4.1269659996032715 1.2110809087753296
12.670703887939453 -1.6206996440887451 2.726699113845825
12.63272762298584 -1.6946792602539062 2.727020263671875
12.613089561462402 -1.7708882093429565 2.725998878479004
12.607796669006348 -1.849090337753296 2.723912477493286
12.609907150268555 -1.9285004138946533 2.721254825592041
12.51301097869873 -1.9923324584960938 2.725741147994995
12.4906005859375 -2.067420721054077 2.724809408187866
34.00209045410156 -5.840334415435791 1.1525899171829224
29.245952606201172 -5.208508491516113 1.4934606552124023
34.032196044921875 -6.276366710662842 1.1359291076660156
34.030941009521484 -6.492286205291748 1.1286293268203735
34.00874328613281 -6.704570770263672 1.122766375541687
33.94906234741211 -6.909470558166504 1.1195818185806274
33.90864181518555 -7.118194580078125 1.1148821115493774
33.9302978515625 -7.340389728546143 1.1054648160934448
33.95537185668945 -7.564204692840576 1.0956701040267944
34.00035858154297 -7.793505668640137 1.0842580795288086
34.0418586730957 -8.023186683654785 1.072972059249878
34.064369201660156 -8.249446868896484 1.0629836320877075
34.06989669799805 -8.472434997558594 1.0541527271270752
34.095218658447266 -8.701229095458984 1.0436978340148926
34.11322784423828 -8.929139137268066 1.033667802810669
34.11141586303711 -9.152688026428223 1.0250247716903687
34.10910415649414 -9.376816749572754 1.0162981748580933
34.10340118408203 -9.60072135925293 1.0077111721038818
34.116355895996094 -9.830709457397461 0.9975616931915283
34.13829040527344 -10.064319610595703 0.9865825176239014
34.12712478637695 -10.289072036743164 0.9780400991439819
34.17738342285156 -10.533451080322266 0.9645786285400391
34.159339904785156 -10.757867813110352 0.9563121199607849
34.14362335205078 -10.983681678771973 0.9477405548095703
34.1605224609375 -11.220911979675293 0.9364702105522156
34.16444396972656 -11.454959869384766 0.9260837435722351
34.17243194580078 -11.691414833068848 0.9152342081069946
34.18351364135742 -11.930044174194336 0.9039953351020813
34.14785385131836 -12.153202056884766 0.8963572978973389
34.13136291503906 -12.383853912353516 0.8870577812194824
34.24705505371094 -12.664215087890625 0.8669463992118835
34.27754211425781 -12.915173530578613 0.8535265922546387
34.24665069580078 -13.144116401672363 0.8449384570121765
34.308963775634766 -13.410191535949707 0.8286018371582031
34.318336486816406 -13.657249450683594 0.8164180517196655
34.33335876464844 -13.90792179107666 0.8036093711853027
34.3346061706543 -14.154353141784668 0.7917757630348206
34.34238815307617 -14.40479564666748 0.7792407274246216
34.35480880737305 -14.658604621887207 0.7661535739898682
34.35167694091797 -14.907155990600586 0.7541992664337158
29.518522262573242 -13.025835990905762 1.1486834287643433
34.42381286621094 -15.443330764770508 0.7231768369674683
34.406978607177734 -15.690176010131836 0.7118656039237976
34.42549133300781 -15.954584121704102 0.697380781173706
34.435733795166016 -16.21683692932129 0.6834172010421753
34.450340270996094 -16.48282814025879 0.6688944697380066
34.44593811035156 -16.741329193115234 0.6558247804641724
34.45485305786133 -17.007898330688477 0.6414205431938171
34.462677001953125 -17.275653839111328 0.626920223236084
34.38854217529297 -17.503446578979492 0.6194105744361877
34.354530334472656 -17.75248908996582 0.6082393527030945
34.46177673339844 -18.076793670654297 0.5844050645828247
34.38328170776367 -18.30563735961914 0.5767979621887207
34.413787841796875 -18.593904495239258 0.5593226552009583
34.431556701660156 -18.877485275268555 0.5427634119987488
30.802888870239258 -17.134933471679688 0.8549226522445679
34.57770919799805 -19.513521194458008 0.4989527463912964
34.574607849121094 -19.7925968170166 0.4835733473300934
34.591796875 -20.085384368896484 0.4661220908164978
34.56802749633789 -20.35636329650879 0.452206552028656
34.624393463134766 -20.67687225341797 0.43067845702171326
34.600521087646484 -20.95184898376465 0.41633015871047974
34.617042541503906 -21.253389358520508 0.3979983925819397
34.59646224975586 -21.534324645996094 0.38290315866470337
34.5636100769043 -21.80942153930664 0.3687489628791809
34.59502029418945 -22.127355575561523 0.34828341007232666
34.64054870605469 -22.457340240478516 0.32619205117225647
34.555023193359375 -22.70442008972168 0.3163835108280182
30.40391731262207 -20.245439529418945 0.6988415122032166
