# .PCD v0.7 - Point Cloud Data file format
VERSION 0.7
FIELDS x y z
SIZE 4 4 4
TYPE F F F
COUNT 1 1 1
WIDTH 852
HEIGHT 1
VIEWPOINT 0 0 0 1 0 0 0
POINTS 852
DATA ascii
16.059219360351562 -3.21570086479187 0.24466991424560547
16.056974411010742 -3.317892551422119 0.23869536817073822
16.046415328979492 -3.4185478687286377 0.23434233665466309
16.04191780090332 -3.520670175552368 0.2285660058259964
16.061601638793945 -3.62847900390625 0.2175026386976242
16.024295806884766 -3.7235875129699707 0.2184303104877472
12.668412208557129 12.588329315185547 0.17426113784313202
12.655275344848633 12.422381401062012 0.19707177579402924
12.673009872436523 12.288504600524902 0.21113243699073792
12.980055809020996 11.838013648986816 0.21945706009864807
13.030113220214844 11.738483428955078 0.2235831320285797
13.070639610290527 11.630950927734375 0.22999773919582367
13.090435028076172 11.505866050720215 0.2415715754032135
13.10103988647461 11.373896598815918 0.2552519738674164
13.150758743286133 11.276728630065918 0.2586044371128082
13.18554973602295 11.167325973510742 0.2655895948410034
13.193147659301758 11.03587818145752 0.2792772054672241
13.238980293273926 10.937261581420898 0.2830054759979248
13.27269458770752 10.829190254211426 0.28960567712783813
13.307112693786621 10.722346305847168 0.29582110047340393
13.339954376220703 10.614873886108398 0.30222684144973755
13.375068664550781 10.509825706481934 0.30786365270614624
13.410947799682617 10.4059476852417 0.3131142556667328
13.445280075073242 10.301426887512207 0.31855541467666626
13.477272987365723 10.195690155029297 0.3243790864944458
13.513978958129883 10.094056129455566 0.3288552165031433
13.550737380981445 9.992938041687012 0.3331361413002014
13.588353157043457 9.892901420593262 0.3370295763015747
13.620473861694336 9.789339065551758 0.34207603335380554
13.667840957641602 9.697110176086426 0.3432655334472656
13.70173168182373 9.595662117004395 0.3475358486175537
13.740543365478516 9.498064041137695 0.3504530191421509
13.801477432250977 9.292658805847168 0.3597550392150879
13.83328628540039 9.191556930541992 0.36382386088371277
13.874221801757812 9.096867561340332 0.3655702471733093
13.901337623596191 8.993492126464844 0.3704085946083069
13.953344345092773 8.906488418579102 0.3692440986633301
13.974091529846191 8.799839973449707 0.37523990869522095
14.085723876953125 8.750215530395508 0.3599167764186859
14.037503242492676 8.601648330688477 0.3816097676753998
14.085390090942383 8.512864112854004 0.38081392645835876
14.124287605285645 8.418789863586426 0.3819531500339508
14.169327735900879 8.328532218933105 0.38153403997421265
14.199365615844727 8.22967529296875 0.38441312313079834
14.235536575317383 8.134654998779297 0.38573434948921204
14.311135292053223 7.947065353393555 0.38719800114631653
14.564833641052246 7.971705913543701 0.338841050863266
15.748366355895996 0.5545328855514526 0.3539857566356659
12.897612571716309 -0.6541123986244202 0.92169588804245
12.866630554199219 -0.7316988110542297 0.9255651831626892
12.862527847290039 -0.8106542825698853 0.9236750602722168
16.16016960144043 -1.6172469854354858 0.20477057993412018
16.03080940246582 -1.7037115097045898 0.2278839349746704
15.850449562072754 -1.7829681634902954 0.2617914080619812
15.75425910949707 -1.8701106309890747 0.27772653102874756
15.866313934326172 -1.9822118282318115 0.2491329163312912
15.826260566711426 -2.075916290283203 0.2528535723686218
15.995959281921387 -2.1981000900268555 0.2115602344274521
15.935256958007812 -2.2894809246063232 0.21942128241062164
15.848883628845215 -2.3764326572418213 0.23269721865653992
15.763020515441895 -2.4625649452209473 0.24578449130058289
15.919999122619629 -2.5872693061828613 0.20648008584976196
16.03841209411621 -2.707644462585449 0.17524798214435577
16.038393020629883 -2.8089888095855713 0.169386625289917
16.154178619384766 -2.931565523147583 0.13831022381782532
16.027782440185547 -3.010361909866333 0.15953151881694794
15.99128532409668 -3.105243444442749 0.16117249429225922
15.992582321166992 -3.2074849605560303 0.15447008609771729
15.98843765258789 -3.308870792388916 0.14880821108818054
15.96356201171875 -3.4060444831848145 0.14753319323062897
12.671369552612305 12.28681755065918 0.10606958717107773
13.747746467590332 9.628043174743652 0.23604056239128113
13.810142517089844 9.546341896057129 0.23332737386226654
13.783905029296875 9.280999183654785 0.26445919275283813
13.829534530639648 9.18924331665039 0.2653179168701172
13.896685600280762 9.111784934997559 0.26079705357551575
13.895113945007324 8.98965835571289 0.2727943956851959
13.947915077209473 8.903223991394043 0.2714485228061676
14.065485000610352 8.619016647338867 0.2763475179672241
14.123531341552734 8.53614616394043 0.2731802761554718
14.161730766296387 8.44134521484375 0.27459925413131714
14.207747459411621 8.351359367370605 0.2740151882171631
14.259125709533691 8.264565467834473 0.27202510833740234
14.303168296813965 8.173562049865723 0.2716284990310669
16.207542419433594 0.7703590989112854 0.16344644129276276
15.738987922668457 0.5547036528587341 0.26126986742019653
12.854766845703125 -0.730756402015686 0.8506230711936951
12.858463287353516 -0.8101292252540588 0.8470360040664673
15.840962409973145 -1.978515386581421 0.15845887362957
15.761231422424316 -2.0668652057647705 0.17107266187667847
15.82814884185791 -2.1745150089263916 0.15131308138370514
15.798590660095215 -2.2693216800689697 0.1526428461074829
15.8167724609375 -2.3710885047912598 0.1433103084564209
15.869047164916992 -2.478590250015259 0.12628474831581116
15.770071983337402 -2.661822557449341 0.13685539364814758
13.781478881835938 9.272456169128418 0.17212794721126556
13.849071502685547 9.195350646972656 0.16754114627838135
13.863018035888672 9.082883834838867 0.17622603476047516
13.897479057312012 8.984410285949707 0.17959782481193542
13.94446086883545 8.894278526306152 0.1796940565109253
13.96020793914795 8.784612655639648 0.18735678493976593
14.063865661621094 8.260308265686035 0.2166740596294403
15.729422569274902 0.5492625832557678 0.17413932085037231
12.843141555786133 -0.7344152331352234 0.7801159024238586
12.851667404174805 -0.8140255212783813 0.7753986120223999
15.655367851257324 -1.8630019426345825 0.11429174989461899
15.666431427001953 -1.9618827104568481 0.106999471783638
15.62945556640625 -2.0547451972961426 0.11039755493402481
12.851256370544434 -0.720032811164856 0.698662519454956
12.856922149658203 -0.7994966506958008 0.6945316195487976
12.84443473815918 -0.7260050177574158 0.6172971725463867
12.854896545410156 -0.8057342171669006 0.6119585633277893
12.846881866455078 -0.7235618829727173 0.536225438117981
12.853446006774902 -0.803057849407196 0.5317316651344299
12.844887733459473 -0.7255567908287048 0.46533218026161194
12.845601081848145 -0.8046770095825195 0.46221402287483215
12.841609001159668 -0.7150589227676392 0.3879093825817108
12.8452730178833 -0.7943339943885803 0.3840233087539673
12.826726913452148 -0.7160211801528931 0.3057042360305786
12.834222793579102 -0.7954434156417847 0.30076080560684204
12.819113731384277 -0.713053822517395 0.22882211208343506
12.876761436462402 -0.795518159866333 0.21045945584774017
12.808182716369629 -0.7168222665786743 0.16202755272388458
12.885944366455078 -0.8004843592643738 0.13785479962825775
12.65837574005127 12.733790397644043 1.2919598817825317
12.68325424194336 12.670259475708008 1.2944365739822388
12.790067672729492 12.777275085449219 0.3703441917896271
12.703893661499023 12.607179641723633 1.2972620725631714
12.784918785095215 12.687969207763672 0.3810204267501831
12.724668502807617 12.540139198303223 1.3003484010696411
12.709569931030273 12.525720596313477 0.40915900468826294
12.739808082580566 12.467899322509766 1.304352045059204
12.730083465576172 12.458909034729004 0.41382285952568054
12.75993824005127 12.400896072387695 1.3074383735656738
12.78154182434082 12.335626602172852 1.3102184534072876
12.808563232421875 12.271553993225098 1.3123409748077393
31.027454376220703 29.526315689086914 0.33492347598075867
12.82237720489502 12.19942855834961 1.31634521484375
31.06696128845215 29.36849021911621 0.3387598991394043
12.844558715820312 12.139819145202637 1.3185566663742065
31.056318283081055 29.154117584228516 0.3480232357978821
12.861347198486328 12.071160316467285 1.3219484090805054
12.893342018127441 12.102090835571289 0.43068015575408936
32.349151611328125 30.154800415039062 2.3992977142333984
12.886892318725586 12.010990142822266 1.3238072395324707
12.926253318786621 12.048641204833984 0.4319164752960205
32.41375732421875 30.004383087158203 2.3984017372131348
31.128660202026367 28.81642723083496 0.3567814230918884
12.904887199401855 11.944046020507812 1.3268921375274658
12.944487571716309 11.981721878051758 0.43657514452934265
32.47770309448242 29.853878021240234 2.3975017070770264
31.208608627319336 28.689071655273438 0.35663238167762756
12.928053855895996 11.882159233093262 1.3290562629699707
12.96604061126709 11.918155670166016 0.44037747383117676
32.529911041259766 29.69318389892578 2.39697527885437
31.288042068481445 28.561511993408203 0.3564784526824951
12.950950622558594 11.820257186889648 1.3312195539474487
12.990944862365723 11.857902526855469 0.4433227777481079
32.5532112121582 29.496599197387695 2.3974618911743164
13.037137031555176 11.814971923828125 2.193575382232666
12.975610733032227 11.75607681274414 1.3333370685577393
13.008509635925293 11.787086486816406 0.4483637809753418
32.533241271972656 29.272489547729492 2.399322032928467
13.050385475158691 11.744394302368164 2.195439338684082
12.994255065917969 11.69081974029541 1.336113691329956
13.036515235900879 11.730100631713867 0.4504503607749939
32.48228454589844 29.02224349975586 2.4021990299224854
13.070738792419434 11.680512428283691 2.1965622901916504
13.021855354309082 11.633840560913086 1.337352991104126
13.055097579956055 11.664856910705566 0.4546792209148407
32.459896087646484 28.79924774169922 2.4040799140930176
13.077751159667969 11.605050086975098 2.198983669281006
13.038081169128418 11.566934585571289 1.3404362201690674
13.077070236206055 11.602895736694336 0.45805051922798157
32.517608642578125 28.658432006835938 2.403176784515381
13.112314224243164 11.558337211608887 2.198481798171997
13.06130599975586 11.510531425476074 1.3420273065567017
13.096765518188477 11.543205261230469 0.4614667296409607
32.591007232666016 28.521739959716797 2.4017767906188965
13.128076553344727 11.491168022155762 2.1999752521514893
13.08069133758545 11.446919441223145 1.3444948196411133
13.120057106018066 11.482848167419434 0.464407354593277
32.57212829589844 28.315162658691406 2.4034066200256348
13.147188186645508 11.431229591369629 2.2009570598602295
13.097814559936523 11.385598182678223 1.347008228302002
13.135527610778809 11.419910430908203 0.46868130564689636
32.5722770690918 28.116403579711914 2.40442156791687
13.164252281188965 11.365736961364746 2.2022647857666016
13.122275352478027 11.326860427856445 1.3485510349273682
13.154561042785645 11.35631275177002 0.47247982025146484
32.613189697265625 27.95377540588379 2.404040575027466
13.184805870056152 11.303508758544922 2.203199863433838
13.137068748474121 11.260022163391113 1.351633906364441
13.169570922851562 11.289514541625977 0.4771365225315094
32.61632537841797 27.7498779296875 2.40494966506958
13.216536521911621 11.247048377990723 2.2031564712524414
13.166728973388672 11.202173233032227 1.352512240409851
13.195603370666504 11.228428840637207 0.47959965467453003
32.62887954711914 27.564922332763672 2.405468225479126
13.232749938964844 11.181553840637207 2.204463005065918
13.182832717895508 11.136955261230469 1.3552864789962769
13.215665817260742 11.16643238067627 0.482967346906662
32.63861846923828 27.378620147705078 2.406055212020874
13.258219718933105 11.12409782409668 2.20483660697937
13.204343795776367 11.076543807983398 1.3571348190307617
13.24111270904541 11.109177589416504 0.4850452244281769
32.651302337646484 27.195777893066406 2.406517744064331
13.271955490112305 11.057024955749512 2.206329107284546
13.231314659118652 11.020878791809082 1.3580563068389893
13.262540817260742 11.04872989654541 0.4879820644855499
32.6746711730957 27.022741317749023 2.40659761428833
13.294989585876465 10.99793529510498 2.206888198852539
13.250411033630371 10.958836555480957 1.3602120876312256
13.287504196166992 10.991405487060547 0.49005743861198425
32.6701774597168 26.827669143676758 2.4075839519500732
13.321625709533691 10.941983222961426 2.2070720195770264
13.274989128112793 10.901518821716309 1.3614400625228882
13.312230110168457 10.934041976928711 0.4921317398548126
32.68022537231445 26.64558982849121 2.40805983543396
13.336442947387695 10.876527786254883 2.2083775997161865
13.287790298461914 10.834756851196289 1.364522099494934
13.330989837646484 10.871969223022461 0.4954961836338043
32.691341400146484 26.465341567993164 2.4084739685058594
13.362590789794922 10.820512771606445 2.208559513092041
13.315713882446289 10.780525207519531 1.3651304244995117
13.357135772705078 10.816097259521484 0.4971381723880768
32.70423889160156 26.2780704498291 2.4088430404663086
13.380668640136719 10.754303932189941 2.209630012512207
13.327880859375 10.709917068481445 1.3684747219085693
13.369564056396484 10.745497703552246 0.5021770000457764
32.70773696899414 26.09364891052246 2.409461498260498
13.408269882202148 10.699774742126465 2.209622383117676
13.351433753967285 10.652521133422852 1.3696998357772827
13.395203590393066 10.689573287963867 0.5038174390792847
32.714271545410156 25.912628173828125 2.409954786300659
13.425885200500488 10.637443542480469 2.2105515003204346
13.37669563293457 10.596631050109863 1.3706142902374268
13.414826393127441 10.629014015197754 0.5067492127418518
32.719940185546875 25.73187828063965 2.410452365875244
13.44518756866455 10.576659202575684 2.2112927436828613
13.39198112487793 10.533025741577148 1.3730764389038086
13.430315971374512 10.565401077270508 0.510542631149292
32.73014831542969 25.564807891845703 2.410743474960327
13.458473205566406 10.51515007019043 2.2124569416046143
13.412985801696777 10.477889060974121 1.3743466138839722
13.447587013244629 10.507184982299805 0.5135213732719421
32.734153747558594 25.384584426879883 2.411250114440918
13.481194496154785 10.457430839538574 2.2128212451934814
13.431660652160645 10.417343139648438 1.3761885166168213
13.462540626525879 10.443602561950684 0.5173147320747375
32.74324417114258 25.209218978881836 2.4115641117095947
13.503678321838379 10.399679183959961 2.2131845951080322
13.457941055297852 10.3628511428833 1.3767889738082886
13.485021591186523 10.386054992675781 0.5193824768066406
32.743560791015625 25.028026580810547 2.412147045135498
13.525924682617188 10.341899871826172 2.2135472297668457
13.476122856140137 10.302273750305176 1.3786296844482422
13.509218215942383 10.329974174499512 0.5210171341896057
32.75098419189453 24.85318374633789 2.4124703407287598
13.553887367248535 10.288610458374023 2.213343381881714
13.49799633026123 10.244694709777832 1.3798487186431885
13.517499923706055 10.26193618774414 0.5261050462722778
32.76956558227539 24.687612533569336 2.412400960922241
13.565715789794922 10.223252296447754 2.214646816253662
13.513689041137695 10.182610511779785 1.3819990158081055
13.543168067932129 10.207304000854492 0.5273070931434631
32.75336456298828 24.496774673461914 2.413461446762085
13.587237358093262 10.16540241241455 2.2150068283081055
13.537059783935547 10.126483917236328 1.3829056024551392
13.578481674194336 10.159993171691895 0.5263471603393555
32.728431701660156 24.29170036315918 2.414813280105591
13.606270790100098 10.102178573608398 2.215695858001709
13.553984642028809 10.062037467956543 1.3850077390670776
13.597587585449219 10.09697437286377 0.5292258858680725
32.55940246582031 23.99056053161621 2.4208884239196777
13.627294540405273 10.044286727905273 2.2160544395446777
13.574872970581055 10.00438404083252 1.3862239122390747
13.640442848205566 10.055316925048828 0.5265319347381592
32.424991607666016 23.71745491027832 2.425790309906006
13.650091171264648 9.987844467163086 2.2162227630615234
13.603535652160645 9.952566146850586 1.3861943483352661
13.633493423461914 9.977132797241211 0.534646213054657
32.45489501953125 23.565982818603516 2.4252285957336426
13.668623924255371 9.928433418273926 2.216768980026245
13.621963500976562 9.893381118774414 1.3877198696136475
13.66401481628418 9.926613807678223 0.5345439314842224
32.471946716308594 23.414409637451172 2.4250521659851074
13.687217712402344 9.872862815856934 2.2171738147735596
13.640449523925781 9.838019371032715 1.388981819152832
13.66468334197998 9.858223915100098 0.5405461192131042
32.51680374145508 23.274770736694336 2.4239556789398193
13.711352348327637 9.817788124084473 2.2171499729156494
13.66445255279541 9.783148765563965 1.3895710706710815
13.684764862060547 9.800457000732422 0.5426059365272522
32.57125473022461 23.1423397064209 2.422520399093628
13.733235359191895 9.761219024658203 2.2173147201538086
13.682170867919922 9.723918914794922 1.3910948038101196
13.666475296020508 9.71556568145752 0.5528927445411682
32.549617767333984 22.956518173217773 2.4235804080963135
13.750818252563477 9.701743125915527 2.21785831451416
13.705721855163574 9.668971061706543 1.3916822671890259
13.690013885498047 9.660728454589844 0.5540875196456909
32.58633041381836 22.804147720336914 2.422706365585327
13.767790794372559 9.638432502746582 2.2185425758361816
13.722599983215332 9.605894088745117 1.3934677839279175
13.712984085083008 9.602043151855469 0.5556654930114746
32.61636734008789 22.65607261657715 2.422015905380249
13.791004180908203 9.583221435546875 2.2185146808624268
13.74569034576416 9.550880432128906 1.3940529823303223
13.738097190856934 9.548521041870117 0.556424081325531
32.58590316772461 22.45841407775879 2.423316717147827
13.81360912322998 9.524140357971191 2.2186267375946045
13.768171310424805 9.492011070251465 1.3949004411697388
13.772757530212402 9.49813175201416 0.5553979277610779
32.550785064697266 22.275461196899414 2.42472243309021
13.832670211791992 9.469849586486816 2.2188360691070557
13.78508186340332 9.436515808105469 1.3961576223373413
13.97461223602295 9.569265365600586 0.5180311799049377
32.53520965576172 22.098552703857422 2.425475597381592
13.849035263061523 9.410318374633789 2.219376802444458
13.80750846862793 9.381393432617188 1.3967394828796387
14.182823181152344 9.639455795288086 0.4797210693359375
32.56645965576172 21.95414924621582 2.4246633052825928
13.87342357635498 9.356362342834473 2.219154119491577
13.829717636108398 9.326227188110352 1.3973203897476196
14.205939292907715 9.58303165435791 0.4808816909790039
32.595359802246094 21.816875457763672 2.423898696899414
13.891840934753418 9.302000045776367 2.2193610668182373
13.845979690551758 9.270676612854004 1.3985751867294312
32.537986755371094 21.614500045776367 2.4259705543518066
13.915811538696289 9.24795150756836 2.2191357612609863
13.869820594787598 9.216819763183594 1.398841142654419
13.870537757873535 9.220431327819824 0.5636001825332642
32.48838806152344 21.426713943481445 2.4277586936950684
13.935893058776855 9.194907188415527 2.2191498279571533
13.88565444946289 9.161234855651855 1.4000948667526245
13.931640625 9.194746017456055 0.5561442375183105
32.42229461669922 21.213125228881836 2.430084228515625
13.958959579467773 9.136961936950684 2.2190635204315186
13.904433250427246 9.100794792175293 1.4012490510940552
13.958824157714844 9.139603614807129 0.5564053058624268
32.418479919433594 21.049501419067383 2.4303295612335205
13.976024627685547 9.078695297241211 2.2194089889526367
13.929703712463379 9.048172950744629 1.401198148727417
13.97182846069336 9.078777313232422 0.5593226552009583
32.4433479309082 20.905113220214844 2.429610252380371
13.99914264678955 9.024470329284668 2.2191789150238037
13.94852352142334 8.99145221710205 1.402086615562439
13.99699592590332 9.02597427368164 0.5596305727958679
32.49917221069336 20.780996322631836 2.427849769592285
14.019947052001953 8.968851089477539 2.2191390991210938
13.977567672729492 8.941394805908203 1.401404857635498
14.011594772338867 8.966471672058105 0.5621121525764465
32.583457946777344 20.667129516601562 2.425136089324951
14.046298027038574 8.91341781616211 2.2186644077301025
13.995407104492188 8.880826950073242 1.4025553464889526
14.039962768554688 8.912444114685059 0.5619326233863831
32.6024169921875 20.520021438598633 2.4245522022247314
14.058233261108398 8.852400779724121 2.219390869140625
14.015654563903809 8.825333595275879 1.403126835823059
32.648311614990234 20.390235900878906 2.4230616092681885
14.08893871307373 8.803290367126465 2.2183868885040283
14.039896965026855 8.772435188293457 1.4030685424804688
32.551368713378906 20.172195434570312 2.4262611865997314
14.110998153686523 8.748822212219238 2.2181499004364014
14.057615280151367 8.715553283691406 1.4039522409439087
14.39334487915039 8.927178382873535 0.5044595003128052
32.50090408325195 19.992162704467773 2.427910327911377
14.129215240478516 8.695465087890625 2.2181549072265625
14.082054138183594 8.666311264038086 1.4036270380020142
14.368139266967773 8.845873832702637 0.5148129463195801
32.470130920410156 19.81743621826172 2.428891658782959
14.152989387512207 8.6422119140625 2.2177231311798096
14.103583335876465 8.611954689025879 1.4038790464401245
32.53046417236328 19.698827743530273 2.426851511001587
14.165905952453613 8.582444190979004 2.218254327774048
14.129146575927734 8.5601224899292 1.4035003185272217
32.508949279785156 19.531137466430664 2.427490711212158
14.193531036376953 8.53167724609375 2.2174341678619385
14.143891334533691 8.5018310546875 1.40469491481781
14.178685188293457 8.526313781738281 0.569746732711792
32.44801712036133 19.340808868408203 2.4294111728668213
14.216694831848145 8.47826862335205 2.2169981002807617
14.169051170349121 8.4498872756958 1.4043136835098267
14.176416397094727 8.457879066467285 0.5752783417701721
32.44113540649414 19.176006317138672 2.4295268058776855
14.24112319946289 8.422317504882812 2.2165098190307617
14.191208839416504 8.392873764038086 1.4045099020004272
14.19648551940918 8.399622917175293 0.576396107673645
32.43448257446289 19.01970672607422 2.4296207427978516
14.266027450561523 8.370052337646484 2.2158772945404053
14.218113899230957 8.342053413391113 1.4038093090057373
14.210626602172852 8.341320991516113 0.5784364938735962
32.44111633300781 18.87939453125 2.4292662143707275
14.284984588623047 8.317699432373047 2.215681314468384
14.23267650604248 8.287391662597656 1.4047361612319946
14.229484558105469 8.289220809936523 0.5792171359062195
32.47642135620117 18.748579025268555 2.4279420375823975
14.29439640045166 8.256583213806152 2.216402530670166
14.254908561706543 8.233962059020996 1.404664158821106
14.247444152832031 8.233366966247559 0.5803830027580261
32.608795166015625 18.673625946044922 2.4233970642089844
14.335999488830566 8.214089393615723 2.214214324951172
14.266178131103516 8.174311637878418 1.4061702489852905
14.271597862243652 8.181161880493164 0.5802360773086548
32.70192337036133 18.575761795043945 2.4201271533966064
14.355807304382324 8.159089088439941 2.213963508605957
14.296611785888672 8.125710487365723 1.4048315286636353
14.31481647491455 8.139835357666016 0.5761520266532898
32.72509765625 18.43822479248047 2.4191482067108154
14.381918907165527 8.107721328735352 2.2131285667419434
14.318238258361816 8.072125434875488 1.4047553539276123
14.29574203491211 8.06324577331543 0.5847501754760742
32.78043746948242 18.31903648376465 2.4170892238616943
14.42742919921875 8.067217826843262 2.210541248321533
14.337501525878906 8.017276763916016 1.404994249343872
14.3407564163208 8.022932052612305 0.5802242159843445
32.80375289916992 18.18966293334961 2.4160819053649902
14.389871597290039 7.984144687652588 1.4002180099487305
14.3670654296875 7.975356578826904 0.5792469382286072
32.887611389160156 18.07897186279297 2.4130313396453857
14.413209915161133 7.932164192199707 0.5746606588363647
32.9460334777832 17.961702346801758 2.4108152389526367
14.950606346130371 8.155614852905273 2.168250560760498
33.019412994384766 17.852563858032227 2.4080870151519775
14.935956954956055 8.080677032470703 1.3298475742340088
33.00874710083008 17.698259353637695 2.4081180095672607
33.05918884277344 17.577098846435547 2.406111478805542
33.058345794677734 17.42899513244629 2.40578293800354
27.844432830810547 14.687475204467773 1.0301408767700195
33.092308044433594 17.29963493347168 2.4042859077453613
27.798154830932617 14.539405822753906 1.0367507934570312
33.09103012084961 17.144926071166992 2.4039180278778076
27.80900001525879 14.415667533874512 1.0383737087249756
33.10612487792969 17.006511688232422 2.4030098915100098
27.819049835205078 14.2980375289917 1.0399024486541748
33.10728454589844 16.861392974853516 2.4025461673736572
27.830839157104492 14.181642532348633 1.0412367582321167
33.11831283569336 16.729013442993164 2.401761293411255
33.131710052490234 16.59096336364746 2.4008588790893555
33.12888717651367 16.44524574279785 2.4004781246185303
33.1456298828125 16.309677124023438 2.3994317054748535
33.15060043334961 16.168718338012695 2.39875864982605
33.1572380065918 16.029008865356445 2.3980140686035156
33.15879440307617 15.887290000915527 2.397421360015869
32.628543853759766 15.642020225524902 0.635373592376709
33.16202926635742 15.746832847595215 2.396756887435913
32.64669418334961 15.510958671569824 0.6361811757087708
33.160621643066406 15.597562789916992 2.3962011337280273
32.75269317626953 15.414587020874023 0.6293608546257019
33.17399215698242 15.462745666503906 2.3951661586761475
33.00257873535156 15.391839027404785 0.6097894906997681
33.184566497802734 15.326977729797363 2.3942084312438965
33.11468505859375 15.303764343261719 0.6022606492042542
33.178306579589844 15.190876007080078 2.3938257694244385
33.137840270996094 15.181450843811035 0.6023675799369812
33.19234848022461 15.057456016540527 2.392720937728882
33.18132019042969 15.061607360839844 0.6007692217826843
33.19673538208008 14.920023918151855 2.391920328140259
33.19936752319336 14.930401802062988 0.6013505458831787
33.19601058959961 14.780710220336914 2.391275405883789
33.21006774902344 14.796207427978516 0.6025276184082031
33.210716247558594 14.648642539978027 2.390098810195923
33.188323974609375 14.648037910461426 0.6064890623092651
33.21117401123047 14.510650634765625 2.3893826007843018
33.17736053466797 14.505188941955566 0.6094627976417542
33.21794891357422 14.375810623168945 2.3884387016296387
33.174964904785156 14.366554260253906 0.6116437911987305
33.224369049072266 14.234319686889648 2.3874549865722656
33.17218017578125 14.221344947814941 0.6139088869094849
33.23448944091797 14.108474731445312 2.386404037475586
33.173065185546875 14.091817855834961 0.6156184673309326
33.23748779296875 13.966276168823242 2.3855016231536865
33.21965026855469 13.968247413635254 0.6134980916976929
33.23287582397461 13.828126907348633 2.384875774383545
33.21736145019531 13.831171989440918 0.615490198135376
33.25080871582031 13.69969654083252 2.383478879928589
33.23065185546875 13.700933456420898 0.6160848736763
33.268192291259766 13.578058242797852 2.382124423980713
33.26414489746094 13.58598804473877 0.6148003935813904
33.26663589477539 13.442224502563477 2.381350517272949
33.26030731201172 13.4492826461792 0.6167981624603271
33.2598876953125 13.304708480834961 2.3807358741760254
33.265174865722656 13.316473007202148 0.6179969906806946
33.20844650268555 13.14992618560791 2.3816096782684326
33.213924407958984 13.161763191223145 0.6240130066871643
33.17029571533203 13.001136779785156 2.3820252418518066
33.15503692626953 13.004842758178711 0.6306412220001221
33.17344284057617 12.869040489196777 2.3810343742370605
33.14889144897461 12.869231224060059 0.6326588988304138
33.20406723022461 12.747822761535645 2.379101514816284
33.20269012451172 12.75705623626709 0.629451334476471
33.30268859863281 12.662373542785645 0.622212827205658
33.507240295410156 12.599902153015137 0.6059771776199341
33.752159118652344 12.547794342041016 2.357725143432617
33.74696731567383 12.555885314941406 0.586609959602356
33.758121490478516 12.41613483428955 2.3565452098846436
33.77165222167969 12.431164741516113 0.5857748985290527
33.77788543701172 12.296459197998047 2.354933500289917
33.78203582763672 12.30805778503418 0.5860719084739685
33.77112579345703 12.160736083984375 2.3541555404663086
33.76360321044922 12.16813850402832 0.588874876499176
33.78973388671875 12.034429550170898 2.3525021076202393
33.7774772644043 12.04020881652832 0.588850200176239
33.79843521118164 11.90481948852539 2.351168155670166
33.779109954833984 11.90818977355957 0.5898385643959045
33.79721450805664 11.77200984954834 2.3501570224761963
33.80141830444336 11.783684730529785 0.5890055298805237
33.81673049926758 11.646672248840332 2.348423957824707
33.79500198364258 11.649428367614746 0.5906059741973877
33.83816146850586 11.522150039672852 2.3466110229492188
33.80220031738281 11.52017879486084 0.5909907221794128
33.825965881347656 11.386460304260254 2.3459270000457764
33.82544708251953 11.396590232849121 0.58995521068573
33.815616607666016 11.251786231994629 2.345165729522705
33.82223892211914 11.26431941986084 0.591154932975769
33.81616973876953 11.114542961120605 2.343961477279663
33.84648132324219 11.134871482849121 0.5899964570999146
33.81187438964844 10.982573509216309 2.342963695526123
33.83515167236328 11.00052261352539 0.5918110013008118
33.82135772705078 10.855352401733398 2.3414807319641113
33.858882904052734 10.877819061279297 0.5905714631080627
33.84465026855469 10.732730865478516 2.339508295059204
33.85129165649414 10.745282173156738 0.5919837951660156
33.84657669067383 10.610006332397461 2.3383126258850098
33.8603630065918 10.624802589416504 0.5918879508972168
33.86898422241211 10.487396240234375 2.336339235305786
33.8517951965332 10.492569923400879 0.5933050513267517
33.873634338378906 10.35300064086914 2.334897994995117
33.85165786743164 10.356807708740234 0.5939892530441284
33.86640548706055 10.221734046936035 2.3339123725891113
33.83728790283203 10.223491668701172 0.5958207845687866
33.87543869018555 10.095641136169434 2.3323512077331543
33.85820770263672 10.101080894470215 0.5945851802825928
33.87681198120117 9.967493057250977 2.3310391902923584
33.83805847167969 9.966686248779297 0.5968338251113892
33.86159133911133 9.841185569763184 2.3303489685058594
33.863529205322266 9.852370262145996 0.5951055288314819
33.8740234375 9.71675968170166 2.3286263942718506
33.880714416503906 9.72933292388916 0.5940731763839722
33.888404846191406 9.593049049377441 2.3268213272094727
33.8902702331543 9.604257583618164 0.5936577916145325
33.89992141723633 9.468681335449219 2.325098752975464
33.90415954589844 9.480573654174805 0.5928316116333008
33.910980224609375 9.344350814819336 2.3233766555786133
33.91279983520508 9.355584144592285 0.5924164056777954
33.91435623168945 9.21809196472168 2.321906089782715
33.91617202758789 9.229340553283691 0.5924144983291626
33.919681549072266 9.092571258544922 2.3203518390655518
33.9118537902832 9.101252555847168 0.5930318236351013
33.921260833740234 8.959928512573242 2.3188445568084717
33.91584014892578 8.96929931640625 0.5929094552993774
33.90629196166992 8.82953929901123 2.3179666996002197
33.9129524230957 8.842097282409668 0.5933255553245544
33.92802810668945 8.71522045135498 2.3158674240112305
33.891204833984375 8.716599464416504 0.5953139662742615
33.943607330322266 8.593090057373047 2.3138949871063232
33.91636657714844 8.597061157226562 0.5932518839836121
33.93935012817383 8.4661226272583 2.312600612640381
33.907264709472656 8.469001770019531 0.5940869450569153
33.95161437988281 8.343459129333496 2.310713768005371
33.93155288696289 8.349442481994629 0.5920228362083435
33.956146240234375 8.2190523147583 2.3090827465057373
33.93120574951172 8.22394847869873 0.5920323729515076
33.957794189453125 8.094134330749512 2.307537078857422
33.9449348449707 8.102027893066406 0.5907959342002869
33.9700927734375 7.965662002563477 2.3055262565612793
33.947479248046875 7.971339225769043 0.5904750823974609
33.9659423828125 7.839765548706055 2.304154872894287
33.97001647949219 7.851710319519043 0.588407576084137
33.971073150634766 7.7162065505981445 2.302440643310547
33.96540451049805 7.725945472717285 0.5886273980140686
33.976863861083984 7.59918212890625 2.3007664680480957
33.97846984863281 7.610586643218994 0.5873073935508728
33.97136306762695 7.47359037399292 2.299398899078369
33.97783660888672 7.48607873916626 0.5871137380599976
33.967838287353516 7.348658084869385 2.2979471683502197
33.988922119140625 7.364305019378662 0.5858784914016724
33.96628952026367 7.22435998916626 2.29641056060791
33.98981857299805 7.240468978881836 0.5854776501655579
34.01076889038086 7.109872817993164 2.2932281494140625
33.99759292602539 7.118246555328369 0.5844504833221436
34.01325607299805 6.9866204261779785 2.291517496109009
34.00492477416992 6.996057033538818 0.58342444896698
34.03362274169922 6.860955715179443 2.2890732288360596
34.00811767578125 6.866981506347656 0.5826926827430725
34.0204963684082 6.7348713874816895 2.2878870964050293
34.00477600097656 6.7429423332214355 0.5825055241584778
34.038795471191406 6.615157127380371 2.28556752204895
34.013206481933594 6.621388912200928 0.5812699794769287
34.01872634887695 6.4943132400512695 2.284684419631958
34.01518249511719 6.504857540130615 0.5805801153182983
34.038631439208984 6.375099182128906 2.282276153564453
34.01296615600586 6.38153076171875 0.5801863074302673
34.01633834838867 6.248154640197754 2.281362295150757
34.032352447509766 6.262353897094727 0.5779005289077759
34.037837982177734 6.129410266876221 2.2788655757904053
34.021907806396484 6.137814044952393 0.57813960313797
34.0318603515625 6.005817413330078 2.2773377895355225
34.03308868408203 6.017326354980469 0.576485276222229
34.03876876831055 5.878528118133545 2.275244951248169
34.04240036010742 5.890467643737793 0.5749154090881348
34.039268493652344 5.75637674331665 2.2734549045562744
34.04533386230469 5.768731117248535 0.5738925337791443
34.05314254760742 5.64268159866333 2.271256685256958
34.04685592651367 5.652984619140625 0.5729959011077881
34.05279541015625 5.520615577697754 2.2694671154022217
34.05632019042969 5.532548904418945 0.5713398456573486
34.07175827026367 5.4017486572265625 2.2669641971588135
34.05796813964844 5.4109416007995605 0.5703182220458984
34.06561279296875 5.278991222381592 2.2653536796569824
34.05426788330078 5.288626670837402 0.5697210431098938
34.07138442993164 5.158212184906006 2.2632970809936523
34.06490707397461 5.168643951416016 0.5678530931472778
34.06683349609375 5.035996437072754 2.261599063873291
34.06526184082031 5.047189712524414 0.5668329000473022
34.07173156738281 4.915300369262695 2.25954270362854
34.08490753173828 4.928646564483643 0.5641145706176758
34.07209396362305 4.787989616394043 2.2575414180755615
34.07783889770508 4.800256729125977 0.5636067986488342
34.08107376098633 4.668043613433838 2.255305290222168
34.09909439086914 4.6819915771484375 0.5606734752655029
34.088836669921875 4.554040431976318 2.2531938552856445
34.104339599609375 4.567606449127197 0.559140682220459
34.092037200927734 4.433443546295166 2.2511379718780518
34.10749816894531 4.446964263916016 0.5576951503753662
34.107200622558594 4.314445972442627 2.248627185821533
34.12752151489258 4.32854700088501 0.5547569990158081
34.07732009887695 4.18991231918335 2.2477543354034424
34.10016632080078 4.204256057739258 0.5558717250823975
34.1020393371582 4.083759784698486 0.554427981376648
34.09853744506836 3.9627256393432617 0.5534119009971619
33.558353424072266 3.6514530181884766 2.2589080333709717
33.55400466918945 3.5266382694244385 2.2569541931152344
33.375160217285156 3.5192043781280518 0.6117671728134155
33.556068420410156 3.4085147380828857 2.254848003387451
33.35975646972656 3.3999462127685547 0.6116660833358765
33.619876861572266 3.296510696411133 2.2504334449768066
33.36624526977539 3.2830307483673096 0.6096349358558655
33.69270706176758 3.1909215450286865 2.245763063430786
33.30482482910156 3.165574789047241 0.6135284304618835
33.69855880737305 3.0728719234466553 2.243462324142456
33.26087951660156 3.0443484783172607 0.6158026456832886
33.69404220581055 2.9539480209350586 2.241532802581787
33.04777526855469 2.908627986907959 0.6327219605445862
33.70902633666992 2.8367679119110107 2.238858222961426
32.638065338134766 2.75787615776062 0.6666938662528992
33.723602294921875 2.7195186614990234 2.236182928085327
32.863258361816406 2.6614489555358887 0.6455237865447998
33.703338623046875 2.5936331748962402 2.234689235687256
33.344383239746094 2.577465772628784 0.6019670367240906
33.72205352783203 2.4767351150512695 2.2318246364593506
32.80152130126953 2.420440435409546 0.6474593281745911
33.72041702270508 2.358344793319702 2.229708433151245
32.88160705566406 2.3110268115997314 0.6387651562690735
33.71549987792969 2.245713233947754 2.227810859680176
33.127445220947266 2.217970609664917 0.615685760974884
33.730506896972656 2.128514528274536 2.2250359058380127
33.06268310546875 2.0977916717529297 0.6195166707038879
33.68027114868164 2.007378578186035 2.224712371826172
32.98255920410156 1.9771978855133057 0.6246583461761475
33.684471130371094 1.8896936178207397 2.2223167419433594
15.821328163146973 0.8940951824188232 2.1198627948760986
33.69824981689453 1.7725275754928589 2.219540596008301
15.811809539794922 0.8382248282432556 2.1197776794433594
33.71160888671875 1.6552881002426147 2.2167627811431885
15.824477195739746 0.7835370898246765 2.117738962173462
12.546780586242676 0.5734529495239258 3.021082878112793
15.836956977844238 0.7287706732749939 2.1156980991363525
12.551248550415039 0.5275806784629822 3.020012617111206
15.839406967163086 0.6707409620285034 2.114466905593872
12.493059158325195 0.481478750705719 3.0213751792907715
15.839052200317383 0.6153700351715088 2.1135125160217285
19.301132202148438 0.7529203295707703 0.8516538143157959
12.444686889648438 0.4361375868320465 3.0223636627197266
15.838506698608398 0.5600095391273499 2.1125576496124268
19.343040466308594 0.6869729161262512 0.8447860479354858
12.441097259521484 0.39255064725875854 3.0216336250305176
15.850208282470703 0.5050548911094666 2.1105120182037354
12.554662704467773 0.3544587790966034 3.0164365768432617
15.856671333312988 0.4526509642601013 2.108959674835205
19.3072566986084 0.5542168617248535 0.8474363088607788
12.605729103088379 0.31187304854393005 3.0135819911956787
15.86053466796875 0.39737972617149353 2.1075661182403564
19.343530654907227 0.48771706223487854 0.8412399291992188
12.62417984008789 0.2682502865791321 3.0119729042053223
15.869180679321289 0.3421933054924011 2.1057350635528564
33.793495178222656 0.5967111587524414 2.1924452781677246
15.870169639587402 0.2868169844150543 2.1045584678649902
33.80526351928711 0.47892045974731445 2.1895527839660645
15.875944137573242 0.23150958120822906 2.1029436588287354
33.774208068847656 0.3547106385231018 2.1881814002990723
15.874080657958984 0.1733134686946869 2.101926803588867
33.802616119384766 0.23703880608081818 2.1846072673797607
32.908058166503906 0.24228793382644653 0.5992735028266907
32.838748931884766 0.12719020247459412 0.6029835939407349
32.88858413696289 0.018355119973421097 0.5962715744972229
12.676624298095703 -0.040340591222047806 3.0034639835357666
32.85585403442383 -0.09631063789129257 0.5966914296150208
12.726322174072266 -0.0849185436964035 3.00056529045105
32.94972610473633 -0.21157172322273254 0.5858835577964783
12.795846939086914 -0.13005027174949646 2.9968743324279785
33.09547805786133 -0.32801130414009094 0.5704321265220642
12.775288581848145 -0.1744263768196106 2.9967100620269775
32.857357025146484 -0.44030922651290894 0.5889325141906738
12.644676208496094 -0.21675918996334076 3.000880241394043
32.82302474975586 -0.5544112920761108 0.589362382888794
12.623819351196289 -0.2604677975177765 3.00072979927063
33.7269172668457 -0.6874682903289795 0.5064854621887207
33.842533111572266 -0.8198466300964355 2.160170793533325
33.734046936035156 -0.8053901791572571 0.5030947327613831
33.841854095458984 -0.938010036945343 2.1575560569763184
33.559043884277344 -0.918387234210968 0.5158611536026001
33.840572357177734 -1.0620836019515991 2.1548149585723877
32.99270248413086 -1.0238473415374756 0.5633121728897095
33.85153579711914 -1.1806925535202026 2.151702404022217
33.237571716308594 -1.147574543952942 0.5386856198310852
33.3052978515625 -1.2662957906723022 0.5297777056694031
12.926411628723145 -0.535416305065155 2.346104145050049
12.550994873046875 -0.5659017562866211 2.996659517288208
12.949352264404297 -0.5793803930282593 2.3429677486419678
12.691115379333496 -0.6166294813156128 2.9900190830230713
33.34454345703125 -1.6117075681686401 0.5175743699073792
13.008150100708008 -0.6775957942008972 2.976236343383789
13.146232604980469 -0.6801893711090088 2.3230059146881104
13.033097267150879 -0.7245147824287415 2.9741625785827637
13.128767967224121 -0.725231409072876 2.3233642578125
12.801030158996582 -0.7563990354537964 2.9824533462524414
12.981889724731445 -0.762547492980957 2.3353219032287598
12.941630363464355 -0.7577695846557617 1.6954175233840942
12.938648223876953 -0.7527366876602173 1.0437012910842896
12.907156944274902 -0.7525694370269775 0.3867022693157196
12.795772552490234 -0.8009088039398193 2.9816012382507324
12.879647254943848 -0.8016390800476074 2.343283176422119
12.914053916931152 -0.8013831973075867 1.6979039907455444
12.90878677368164 -0.7962067723274231 1.0478637218475342
12.875102996826172 -0.7957903742790222 0.3927716612815857
11.967695236206055 -0.7929831147193909 3.0140483379364014
12.88646411895752 -0.8494797348976135 2.3413820266723633
12.928177833557129 -0.8498296141624451 1.6944776773452759
12.922741889953613 -0.8446151614189148 1.0435909032821655
12.900954246520996 -0.8448584079742432 0.3847317397594452
11.99471664428711 -0.8368324041366577 3.011941432952881
12.908167839050293 -0.8961690664291382 2.338186264038086
12.176187515258789 -0.8900995254516602 3.0035879611968994
12.922419548034668 -0.9402214288711548 2.3357059955596924
12.202851295471191 -0.9348793029785156 3.0014610290527344
12.899107933044434 -0.9837894439697266 2.336534261703491
12.505730628967285 -1.0020467042922974 2.9880318641662598
12.90046501159668 -1.0291904211044312 2.3351242542266846
12.512070655822754 -1.0465154647827148 2.9866912364959717
12.906625747680664 -1.0750272274017334 2.3332650661468506
12.456039428710938 -1.0856083631515503 2.987903356552124
12.417301177978516 -1.125905156135559 2.9884068965911865
33.675411224365234 -3.1635429859161377 0.44528716802597046
12.761845588684082 -1.249320149421692 2.971920967102051
33.61378860473633 -3.2820627689361572 0.4471495747566223
12.79960823059082 -1.298137903213501 2.9692187309265137
33.629146575927734 -3.4020934104919434 0.44216272234916687
12.829732894897461 -1.3464512825012207 2.9668197631835938
33.69112014770508 -3.52720046043396 0.43288880586624146
13.274633407592773 -1.4377269744873047 2.9472177028656006
33.78050994873047 -3.6498372554779053 0.42124858498573303
13.361332893371582 -1.4943280220031738 2.9423983097076416
33.90094757080078 -3.782606363296509 0.4065321087837219
13.36095142364502 -1.5415184497833252 2.941192865371704
33.865047454833984 -3.8983142375946045 0.40603378415107727
15.932830810546875 -1.8240127563476562 0.44048765301704407
13.2363862991333 -1.5739582777023315 2.9451780319213867
33.729854583740234 -4.002078056335449 0.4145844280719757
15.865168571472168 -1.8723872900009155 0.45101991295814514
12.613423347473145 -1.544448733329773 2.970087766647339
33.777225494384766 -4.127305030822754 0.4064050316810608
15.904618263244629 -1.9333642721176147 0.4409211575984955
12.550911903381348 -1.5812649726867676 2.971541166305542
33.62405014038086 -4.22774076461792 0.41656553745269775
16.082717895507812 -2.0120325088500977 0.4040665030479431
33.974525451660156 -4.404383659362793 2.0675911903381348
33.61872863769531 -4.346321105957031 0.4131445288658142
15.900012016296387 -2.045550584793091 0.4366655647754669
33.98527145385742 -4.532474994659424 2.0637738704681396
33.75286865234375 -4.489499568939209 0.39666295051574707
15.87512493133545 -2.1015264987945557 0.4387046694755554
34.003780364990234 -4.655790328979492 2.0597641468048096
33.85516357421875 -4.623427391052246 0.38323721289634705
15.799331665039062 -2.1476316452026367 0.45067334175109863
33.9748420715332 -4.7726850509643555 2.0577452182769775
33.942134857177734 -4.756049633026123 0.371158242225647
15.8401460647583 -2.209531784057617 0.4400903880596161
34.005699157714844 -4.892051696777344 2.0533320903778076
33.96785354614258 -4.874554634094238 0.36487868428230286
16.034257888793945 -2.2908716201782227 0.3999375104904175
33.99819564819336 -5.012147903442383 2.0503647327423096
15.919034004211426 -2.331132650375366 0.41943415999412537
34.01496124267578 -5.135981559753418 2.0463430881500244
15.862001419067383 -2.379368305206299 0.42765384912490845
34.0189323425293 -5.25808572769165 2.042844533920288
33.990509033203125 -5.2416300773620605 0.35018473863601685
15.836379051208496 -2.43208384513855 0.4297613501548767
34.02985382080078 -5.381450653076172 2.0390260219573975
33.99390411376953 -5.363698482513428 0.3455853760242462
15.829987525939941 -2.4877026081085205 0.4281041622161865
34.0354118347168 -5.504159450531006 2.0354163646698
33.99931335449219 -5.486250877380371 0.3407544791698456
15.816125869750977 -2.5421371459960938 0.4278603792190552
34.04298782348633 -5.627379894256592 2.0316970348358154
33.98954772949219 -5.606476783752441 0.33729287981987
15.819034576416016 -2.599294662475586 0.42431923747062683
34.04172134399414 -5.755412578582764 2.0281670093536377
34.005340576171875 -5.73718786239624 0.33118706941604614
15.707468032836914 -2.640123128890991 0.44287675619125366
34.04838562011719 -5.878847122192383 2.024441719055176
34.00695037841797 -5.859616756439209 0.32657694816589355
15.746318817138672 -2.70322322845459 0.4322657585144043
34.05459976196289 -6.0023980140686035 2.02071475982666
15.755900382995605 -2.761537551879883 0.42731067538261414
34.076194763183594 -6.122774124145508 2.0164694786071777
34.06924057006836 -6.244353294372559 2.013270378112793
34.09867858886719 -6.372843265533447 2.008460521697998
34.0321159362793 -6.34831428527832 0.30617597699165344
34.07611846923828 -6.491796016693115 2.0059010982513428
34.00217056274414 -6.465631484985352 0.3043121099472046
16.13026237487793 -3.0570766925811768 0.3413657248020172
34.06539535522461 -6.613050937652588 2.002805233001709
33.98892593383789 -6.58613395690918 0.30083951354026794
16.015613555908203 -3.09330415725708 0.3604828715324402
34.06159210205078 -6.735764026641846 1.9993849992752075
34.01921844482422 -6.715304374694824 0.2932235300540924
16.074329376220703 -3.1629157066345215 0.34556594491004944
34.0230712890625 -6.851626873016357 1.9974749088287354
34.04903030395508 -6.8447675704956055 0.28559964895248413
16.08461570739746 -3.2233221530914307 0.3401007056236267
33.9682502746582 -6.970219135284424 1.9960911273956299
33.964927673339844 -6.957479953765869 0.28844887018203735
16.166242599487305 -3.301391124725342 0.3203737437725067
33.928932189941406 -7.085649013519287 1.994189977645874
33.896331787109375 -7.066807270050049 0.2900514006614685
16.149572372436523 -3.356773853302002 0.32010671496391296
33.90632247924805 -7.204524993896484 1.9915316104888916
33.91018295288086 -7.193309783935547 0.2838090658187866
16.11109733581543 -3.4075069427490234 0.324103444814682
33.89305877685547 -7.325440883636475 1.9884389638900757
33.88462829589844 -7.311591625213623 0.2812601923942566
16.209251403808594 -3.487460136413574 0.3010962903499603
33.919700622558594 -7.449014186859131 1.9837297201156616
33.8575325012207 -7.423343658447266 0.27907243371009827
16.13022804260254 -3.5264782905578613 0.3132108747959137
33.90312957763672 -7.569514274597168 1.9807429313659668
33.86761474609375 -7.549566745758057 0.273053914308548
16.107994079589844 -3.5806024074554443 0.313895046710968
33.944583892822266 -7.703258037567139 1.975130558013916
33.92335891723633 -7.686405658721924 0.2626296281814575
