# .PCD v0.7 - Point Cloud Data file format
VERSION 0.7
FIELDS x y z
SIZE 4 4 4
TYPE F F F
COUNT 1 1 1
WIDTH 854
HEIGHT 1
VIEWPOINT 0 0 0 1 0 0 0
POINTS 854
DATA ascii
33.702049255371094 -7.133550643920898 2.6048810482025146
33.744441986083984 -7.359102725982666 2.5977635383605957
33.777530670166016 -7.58369255065918 2.5908679962158203
33.77407455444336 -7.800869941711426 2.5850436687469482
33.87910842895508 -8.044377326965332 2.5757837295532227
33.90764236450195 -8.27122974395752 2.568833351135254
33.88813018798828 -8.487083435058594 2.5633370876312256
33.702667236328125 -8.660727500915527 2.563060998916626
33.889434814453125 -8.93071174621582 2.5509142875671387
34.04520034790039 -9.195494651794434 2.5396387577056885
34.04292297363281 -9.419352531433105 2.533353090286255
34.02090835571289 -9.63835334777832 2.5276529788970947
34.0281982421875 -9.866345405578613 2.520944595336914
34.01097106933594 -10.087967872619629 2.514981508255005
33.89570236206055 -10.280455589294434 2.512206792831421
33.978878021240234 -10.533756256103516 2.5028159618377686
34.05735778808594 -10.787556648254395 2.4934895038604736
34.05221176147461 -11.016263008117676 2.4868831634521484
34.04933166503906 -11.246564865112305 2.480140209197998
34.00986099243164 -11.465435028076172 2.474579334259033
34.086181640625 -11.724549293518066 2.46500301361084
34.06156921386719 -11.950292587280273 2.458808660507202
34.048641204833984 -12.180888175964355 2.4521524906158447
34.072662353515625 -12.425812721252441 2.444145441055298
34.17083740234375 -12.699687957763672 2.4334557056427
34.318336486816406 -12.994697570800781 2.420912265777588
34.32081604003906 -13.23697280883789 2.413386821746826
34.33277130126953 -13.484150886535645 2.405449628829956
34.3355598449707 -13.729005813598633 2.3977622985839844
34.33848190307617 -13.975154876708984 2.3899948596954346
34.3369026184082 -14.220708847045898 2.382314682006836
34.34004211425781 -14.46948528289795 2.3743844032287598
34.35152053833008 -14.723164558410645 2.3660671710968018
34.3868293762207 -14.988709449768066 2.3567821979522705
34.409202575683594 -15.250381469726562 2.3478822708129883
34.428741455078125 -15.512480735778809 2.338996171951294
34.40364456176758 -15.75583553314209 2.3317055702209473
34.414005279541016 -16.016756057739258 2.3229925632476807
34.422454833984375 -16.278390884399414 2.314262628555298
34.39564514160156 -16.524723052978516 2.3067991733551025
34.3536376953125 -16.7647647857666 2.2998507022857666
34.33594512939453 -17.017780303955078 2.291883707046509
34.31910705566406 -17.272558212280273 2.283799886703491
34.1989860534668 -17.475933074951172 2.2797188758850098
34.09185028076172 -17.68584632873535 2.2750890254974365
34.19831085205078 -18.008243560791016 2.2618560791015625
34.28710174560547 -18.324602127075195 2.24918270111084
34.364501953125 -18.63796043395996 2.236825704574585
34.23883819580078 -18.84262466430664 2.2326292991638184
30.67137336730957 -17.12562370300293 2.3701012134552
30.228185653686523 -17.122358322143555 2.379953384399414
34.24016189575195 -19.673084259033203 2.204049825668335
34.385459899902344 -20.03821563720703 2.188222885131836
34.465606689453125 -20.3692569732666 2.1749587059020996
34.349246978759766 -20.585939407348633 2.169905662536621
34.46382141113281 -20.943111419677734 2.154902935028076
34.456180572509766 -21.22907829284668 2.144993305206299
34.43699264526367 -21.509912490844727 2.1354711055755615
34.35063934326172 -21.750152587890625 2.1287806034088135
34.52839660644531 -22.16069221496582 2.110375165939331
34.51726150512695 -22.45380401611328 2.1001224517822266
34.4454231262207 -22.709117889404297 2.0924630165100098
34.44569778442383 -23.0137939453125 2.0814709663391113
34.63633346557617 -23.449853897094727 2.0617117881774902
34.7108268737793 -23.81223487854004 2.046999454498291
34.67959213256836 -24.105121612548828 2.0369653701782227
30.037111282348633 -21.153100967407227 2.240553855895996
34.77212905883789 -24.807891845703125 2.0092966556549072
34.81265640258789 -25.160608291625977 1.9954668283462524
34.78483963012695 -25.466943740844727 1.984696865081787
34.826812744140625 -25.82744789123535 1.9704625606536865
34.836090087890625 -26.167217254638672 1.9576144218444824
34.82501220703125 -26.4947566986084 1.9455877542495728
34.849205017089844 -26.8524169921875 1.9316843748092651
34.8655891418457 -27.20767593383789 1.917982816696167
34.882835388183594 -27.567243576049805 1.9040565490722656
34.84001922607422 -27.882465362548828 1.8929452896118164
34.68439865112305 -28.108863830566406 1.8873664140701294
34.69570541381836 -28.47258186340332 1.8732647895812988
34.82067108154297 -28.93455696105957 1.8531619310379028
34.82732391357422 -29.303281784057617 1.8388673067092896
34.852054595947266 -29.691312789916992 1.823438048362732
34.81581497192383 -30.031143188476562 1.8109828233718872
34.88433837890625 -30.465633392333984 1.7928332090377808
34.94508361816406 -30.898775100708008 1.7748361825942993
34.863338470458984 -31.20984649658203 1.7642158269882202
34.897544860839844 -31.628433227539062 1.7471868991851807
34.97724914550781 -32.093868255615234 1.7274328470230103
34.92588424682617 -32.443817138671875 1.714582920074463
34.962528228759766 -32.879905700683594 1.6966787576675415
32.34340286254883 30.088333129882812 2.865328073501587
32.50813674926758 29.871774673461914 2.8617918491363525
32.82468032836914 29.793424606323242 2.8545994758605957
32.349365234375 29.002172470092773 2.8661282062530518
32.42402648925781 28.712379455566406 2.864558696746826
32.710838317871094 28.61035919189453 2.8579084873199463
36.44020462036133 28.84404754638672 2.76871919631958
36.99137496948242 28.549362182617188 2.7548716068267822
37.320777893066406 28.440074920654297 2.746580123901367
32.715946197509766 24.615392684936523 2.85549259185791
32.353370666503906 24.033273696899414 2.8636081218719482
32.21467971801758 23.625051498413086 2.8663625717163086
32.20503234863281 23.315595626831055 2.86600399017334
32.338417053222656 23.1112060546875 2.8621931076049805
32.285858154296875 22.775808334350586 2.862769365310669
32.39369583129883 22.555622100830078 2.8594751358032227
32.3492546081543 22.231342315673828 2.859773635864258
32.309505462646484 21.913509368896484 2.859919786453247
32.349342346191406 21.652061462402344 2.8581204414367676
32.41305160522461 21.408031463623047 2.855705499649048
32.27647018432617 21.034666061401367 2.8580551147460938
32.402278900146484 20.834653854370117 2.854065418243408
32.51249694824219 20.624788284301758 2.850402593612671
32.51118087768555 20.345401763916016 2.849382162094116
32.577430725097656 20.109874725341797 2.846691846847534
32.414005279541016 19.735485076904297 2.8495099544525146
32.254940032958984 19.36849021911621 2.8521952629089355
32.23283004760742 19.087230682373047 2.851534128189087
32.385475158691406 18.91031837463379 2.8465936183929443
32.40806579589844 18.657926559448242 2.8447678089141846
32.48355484008789 18.437061309814453 2.841613292694092
32.38567352294922 18.119808197021484 2.8426477909088135
32.511878967285156 17.929494857788086 2.838174819946289
32.779273986816406 17.815650939941406 2.83019757270813
32.98655700683594 17.667102813720703 2.823633909225464
33.0800666809082 17.45695686340332 2.8198132514953613
44.45281219482422 23.110925674438477 2.5381357669830322
44.37470626831055 22.725698471069336 2.5379152297973633
44.18822479248047 22.289175033569336 2.5403332710266113
44.072391510009766 21.89271354675293 2.540971517562866
43.85187911987305 21.448881149291992 2.5441746711730957
43.826663970947266 21.10443878173828 2.542494535446167
43.55767059326172 20.64678382873535 2.546848773956299
43.54384994506836 20.31411361694336 2.5448100566864014
43.324974060058594 19.889375686645508 2.547863721847534
43.242855072021484 19.531465530395508 2.5474627017974854
43.08489227294922 19.142841339111328 2.548936128616333
42.98884582519531 18.785316467285156 2.5488204956054688
42.84319305419922 18.409563064575195 2.549926280975342
33.168487548828125 14.012136459350586 2.7924861907958984
33.22509002685547 13.796524047851562 2.7889928817749023
33.241424560546875 13.564878463745117 2.7864837646484375
33.24410629272461 13.328717231750488 2.784287452697754
33.119571685791016 13.043580055236816 2.785313129425049
33.11960220336914 12.809518814086914 2.7831249237060547
41.950927734375 15.929947853088379 2.553687572479248
41.880043029785156 15.60981273651123 2.5526607036590576
41.77396011352539 15.279128074645996 2.5525126457214355
41.6136474609375 14.931766510009766 2.553743839263916
41.48931884765625 14.600555419921875 2.5540194511413574
41.39274215698242 14.281866073608398 2.5535480976104736
41.27394104003906 13.958189010620117 2.553630828857422
41.18309783935547 13.646568298339844 2.5529565811157227
41.06717300415039 13.329183578491211 2.5529139041900635
40.984161376953125 13.024940490722656 2.55198073387146
40.797786712646484 12.690741539001465 2.553752899169922
40.732234954833984 12.396869659423828 2.552307605743408
40.63874816894531 12.09658145904541 2.55157470703125
40.50279998779297 11.786175727844238 2.551949977874756
33.86545944213867 9.629904747009277 2.726365089416504
33.87947463989258 9.409677505493164 2.723210573196411
33.867942810058594 9.183101654052734 2.720707416534424
33.880035400390625 8.963667869567871 2.717533588409424
33.88587188720703 8.743183135986328 2.7144930362701416
33.90482711791992 8.526620864868164 2.7110612392425537
33.90782928466797 8.306587219238281 2.7080273628234863
33.91524887084961 8.088227272033691 2.7048375606536865
33.911529541015625 7.867831230163574 2.701918363571167
33.92490768432617 7.6519622802734375 2.6984944343566895
33.93691635131836 7.436225414276123 2.695071220397949
33.942665100097656 7.2195892333984375 2.691784143447876
33.948020935058594 7.003363609313965 2.6884732246398926
33.951011657714844 6.7871479988098145 2.685192108154297
33.957542419433594 6.572107791900635 2.681777000427246
33.96467590332031 6.357610702514648 2.6783077716827393
33.97439193725586 6.143984317779541 2.674729108810425
33.98473358154297 5.930820941925049 2.6710963249206543
33.981910705566406 5.7157721519470215 2.6677989959716797
33.99055862426758 5.503057956695557 2.6641407012939453
33.99293899536133 5.289682388305664 2.660623788833618
34.00682830810547 5.078403949737549 2.6567399501800537
34.026336669921875 4.868144989013672 2.652655839920044
34.03662109375 4.656752586364746 2.6487972736358643
34.043609619140625 4.445157527923584 2.6449966430664062
34.051265716552734 4.233898162841797 2.6411373615264893
34.061580657958984 4.023181438446045 2.637162685394287
33.58979797363281 3.7587010860443115 2.64729642868042
33.5325813293457 3.544178009033203 2.645284652709961
33.58937072753906 3.3419759273529053 2.6398777961730957
33.6558952331543 3.140231132507324 2.6341323852539062
33.66444396972656 2.9328513145446777 2.6300625801086426
33.67470169067383 2.7257251739501953 2.625901460647583
33.680694580078125 2.518359661102295 2.6218271255493164
12.56860065460205 0.8625369668006897 3.254216194152832
33.705810546875 2.1047799587249756 2.613164186477661
33.71696090698242 1.8979246616363525 2.608813762664795
33.720848083496094 1.690710425376892 2.604642152786255
33.7314567565918 1.4838706254959106 2.6002249717712402
33.71282958984375 1.2759051322937012 2.5966644287109375
19.279016494750977 0.6114076972007751 3.037991523742676
33.75565719604492 0.8629783391952515 2.5869555473327637
33.7681770324707 0.6560520529747009 2.582308769226074
33.75644302368164 0.4486984312534332 2.5783770084381104
12.814273834228516 0.09196469187736511 3.2310314178466797
12.53768539428711 0.013077016919851303 3.238081932067871
33.78757095336914 -0.17270275950431824 2.5642521381378174
33.78873825073242 -0.3799941837787628 2.5597476959228516
33.79263687133789 -0.5873767733573914 2.555112838745117
12.297232627868652 -0.2889612317085266 3.239121913909912
33.80259323120117 -1.0025006532669067 2.545642375946045
12.416522979736328 -0.4442402422428131 3.2319068908691406
13.023660659790039 -0.5459958910942078 3.2104876041412354
33.72209930419922 -1.621666669845581 2.5342087745666504
12.804304122924805 -0.69425368309021 3.2140047550201416
12.794766426086426 -0.7724841237068176 3.2124929428100586
12.56136703491211 -0.8357542157173157 3.2183568477630615
12.883909225463867 -0.936644971370697 3.2058372497558594
33.886966705322266 -2.6732726097106934 2.5044500827789307
13.179061889648438 -1.1208162307739258 3.1921675205230713
12.362704277038574 -1.1277943849563599 3.2176296710968018
12.18441104888916 -1.186936378479004 3.221782922744751
33.91199493408203 -3.5143747329711914 2.483250856399536
12.750997543334961 -1.4002777338027954 3.198758125305176
12.764948844909668 -1.4811190366744995 3.196302652359009
33.95721435546875 -4.152009010314941 2.465911865234375
13.4257173538208 -1.725001335144043 3.1694700717926025
12.727450370788574 -1.714697241783142 3.191549301147461
33.966644287109375 -4.789151191711426 2.449324607849121
13.345062255859375 -1.9649213552474976 3.1658053398132324
13.42061710357666 -2.0602450370788574 3.160956621170044
33.99467849731445 -5.4329400062561035 2.431603193283081
12.428059577941895 -2.0642311573028564 3.191732168197632
12.359957695007324 -2.1309187412261963 3.1920626163482666
12.466621398925781 -2.2281525135040283 3.186131238937378
29.359683990478516 -5.434082508087158 2.57547926902771
34.03804397583008 -6.5162787437438965 2.401043176651001
33.96002197265625 -6.717583179473877 2.3979074954986572
13.07968521118164 -2.670506477355957 3.1550159454345703
33.58429718017578 -7.072536468505859 2.3996143341064453
33.84775924682617 -7.345178604125977 2.3838253021240234
33.81360626220703 -7.555283546447754 2.3789191246032715
33.92911148071289 -7.799953937530518 2.368387222290039
33.91450119018555 -8.01598072052002 2.362626075744629
33.96940994262695 -8.249338150024414 2.3541922569274902
33.95775604248047 -8.4674711227417 2.3481929302215576
34.02409362792969 -8.706087112426758 2.339170217514038
34.037540435791016 -8.932389259338379 2.332077980041504
34.079402923583984 -9.16723346710205 2.3238251209259033
34.09943389892578 -9.397350311279297 2.316333055496216
34.095794677734375 -9.621816635131836 2.3096842765808105
34.09068298339844 -9.84659194946289 2.303027868270874
34.09080123901367 -10.073649406433105 2.29610013961792
34.07315444946289 -10.296163558959961 2.2898027896881104
34.05691909790039 -10.51972770690918 2.2833874225616455
34.05732727050781 -10.749195098876953 2.2762441635131836
34.15605926513672 -11.011258125305176 2.2650911808013916
34.146541595458984 -11.239940643310547 2.2581822872161865
34.14402770996094 -11.471785545349121 2.2509186267852783
34.1456184387207 -11.705967903137207 2.2434141635894775
34.149391174316406 -11.94192123413086 2.2357442378997803
34.12237548828125 -12.167957305908203 2.229261875152588
34.10795211791992 -12.399231910705566 2.2221922874450684
34.19223403930664 -12.667933464050293 2.2109451293945312
34.33058166503906 -12.959307670593262 2.1973166465759277
34.322998046875 -13.197626113891602 2.1896798610687256
34.341697692871094 -13.447270393371582 2.1808524131774902
34.33819580078125 -13.689497947692871 2.1728742122650146
34.36079025268555 -13.943460464477539 2.1636974811553955
34.36030960083008 -14.189443588256836 2.155414581298828
34.37099838256836 -14.441362380981445 2.1465609073638916
34.36701965332031 -14.68844985961914 2.138249635696411
34.387874603271484 -14.947580337524414 2.128763198852539
34.37667465209961 -15.194191932678223 2.120584726333618
34.43483352661133 -15.47317123413086 2.1092488765716553
34.424503326416016 -15.723130226135254 2.100835084915161
34.43867874145508 -15.985743522644043 2.091233253479004
34.44279098510742 -16.24528694152832 2.081979513168335
34.391849517822266 -16.480005264282227 2.0751163959503174
34.3474006652832 -16.718647003173828 2.0678842067718506
34.407901763916016 -17.01005744934082 2.0557620525360107
34.340213775634766 -17.239625930786133 2.0494141578674316
34.23094177246094 -17.448585510253906 2.044926166534424
34.13192367553711 -17.662826538085938 2.0399129390716553
34.2668571472168 -18.000104904174805 2.0238609313964844
34.14500427246094 -18.204322814941406 2.0197529792785645
34.270626068115234 -18.542280197143555 2.003838062286377
34.24272918701172 -18.799755096435547 1.9950777292251587
34.29500198364258 -19.103286743164062 1.9823594093322754
34.35179138183594 -19.412099838256836 1.9692710638046265
34.39914321899414 -19.718345642089844 1.956487774848938
34.307552337646484 -19.946561813354492 1.950366497039795
34.38485336303711 -20.274871826171875 1.9358413219451904
34.34279251098633 -20.535146713256836 1.927069067955017
34.17921447753906 -20.723148345947266 1.9242678880691528
34.48104476928711 -21.196645736694336 1.898023009300232
34.44425582885742 -21.466411590576172 1.8885962963104248
34.344642639160156 -21.698102951049805 1.8822599649429321
34.53710174560547 -22.117422103881836 1.8608630895614624
34.41228103637695 -22.336475372314453 1.8555828332901
34.52477264404297 -22.711862564086914 1.8379031419754028
34.466861724853516 -22.978078842163086 1.828918695449829
34.6263542175293 -23.392642974853516 1.808367371559143
34.716094970703125 -23.764877319335938 1.7912505865097046
34.754940032958984 -24.106063842773438 1.7766304016113281
30.04680824279785 -21.11471176147461 2.017119884490967
34.794654846191406 -24.77165412902832 1.7488782405853271
34.81519317626953 -25.109682083129883 1.7346954345703125
34.83692169189453 -25.45183563232422 1.7202622890472412
34.85253143310547 -25.792821884155273 1.7059766054153442
34.85167694091797 -26.124767303466797 1.6924201250076294
34.873512268066406 -26.477001190185547 1.6774111986160278
34.87886047363281 -26.820127487182617 1.663132905960083
34.90495300292969 -27.182729721069336 1.6474827527999878
34.90671920776367 -27.529953002929688 1.6330137252807617
34.87274169921875 -27.85202980041504 1.62041175365448
34.735923767089844 -28.093687057495117 1.6136170625686646
34.6716423034668 -28.395477294921875 1.6024895906448364
34.904083251953125 -28.945598602294922 1.5737041234970093
34.869422912597656 -29.27992820739746 1.560380220413208
34.89969253540039 -29.672508239746094 1.5429826974868774
34.874210357666016 -30.021583557128906 1.5287020206451416
34.91202163696289 -30.429224014282227 1.5103695392608643
34.896690368652344 -30.794828414916992 1.4950288534164429
34.95566177368164 -31.23059844970703 1.4748793840408325
34.97649383544922 -31.63742446899414 1.4568055868148804
34.99217224121094 -32.0443229675293 1.4387891292572021
34.97632598876953 -32.42679214477539 1.4224978685379028
34.99423599243164 -32.845130920410156 1.4038149118423462
32.3410758972168 30.088136672973633 2.580078125
32.48442459106445 29.851978302001953 2.5774035453796387
32.5120964050293 29.511716842651367 2.578411340713501
32.46165084838867 29.104839324951172 2.581866979598999
32.4209098815918 28.71162986755371 2.584918975830078
32.56996536254883 28.48917579650879 2.5817582607269287
32.58285903930664 28.149639129638672 2.582918882369995
32.58749008178711 27.806482315063477 2.5842673778533936
32.5937385559082 27.468191146850586 2.5854856967926025
32.620113372802734 27.15006446838379 2.5859804153442383
32.62760543823242 26.819318771362305 2.587007761001587
32.637699127197266 26.49391746520996 2.587876796722412
32.67546463012695 26.19379425048828 2.5877881050109863
32.67864227294922 25.868762969970703 2.5887346267700195
32.69166564941406 25.554536819458008 2.589294910430908
32.70365524291992 25.242347717285156 2.5898191928863525
32.70430374145508 24.924312591552734 2.590636730194092
32.70627975463867 24.610225677490234 2.5913426876068115
32.2755241394043 23.977516174316406 2.6057565212249756
32.164730072021484 23.59048080444336 2.60990834236145
32.24555587768555 23.347000122070312 2.6078996658325195
32.32704544067383 23.105165481567383 2.605808973312378
32.28099060058594 22.774457931518555 2.6077089309692383
32.3420295715332 22.521739959716797 2.6061453819274902
32.39459991455078 22.26460075378418 2.6047911643981934
32.42372131347656 21.99307632446289 2.604120969772339
32.373477935791016 21.670318603515625 2.605909824371338
32.2979850769043 21.334131240844727 2.608440399169922
32.28072738647461 21.039539337158203 2.609065055847168
32.41914749145508 20.847614288330078 2.6046934127807617
32.51759719848633 20.630146026611328 2.6015329360961914
32.57816696166992 20.389453887939453 2.599518060684204
32.37417221069336 19.986526489257812 2.6058411598205566
32.35943603515625 19.704374313354492 2.6061055660247803
32.369022369384766 19.43911361694336 2.6055428981781006
32.46517562866211 19.226945877075195 2.602177619934082
32.34931564331055 18.891324996948242 2.6054928302764893
32.45060729980469 18.684551239013672 2.6018564701080322
32.48276901245117 18.438753128051758 2.600362777709961
32.674522399902344 18.2835693359375 2.5937399864196777
32.70803451538086 18.039825439453125 2.5920956134796143
32.8284912109375 17.844575881958008 2.587630271911621
32.98479080200195 17.668350219726562 2.581967353820801
33.026123046875 17.430686950683594 2.5799126625061035
33.03651809692383 17.17796516418457 2.5787932872772217
33.05751037597656 16.93214988708496 2.5772852897644043
33.05978012084961 16.678173065185547 2.576324701309204
33.0655517578125 16.427474975585938 2.5752029418945312
33.07937240600586 16.182165145874023 2.573774814605713
33.093231201171875 15.938172340393066 2.5722954273223877
33.11347198486328 15.698472023010254 2.5705628395080566
33.12930679321289 15.457857131958008 2.568922996520996
33.13071823120117 15.211800575256348 2.5676980018615723
33.14220428466797 14.971658706665039 2.566101551055908
33.16387176513672 14.737224578857422 2.564128875732422
33.156429290771484 14.491079330444336 2.5630476474761963
33.18028259277344 14.259790420532227 2.5609097480773926
33.19426345825195 14.025253295898438 2.5590431690216064
33.2038459777832 13.78993034362793 2.557271718978882
33.2117919921875 13.55501651763916 2.555506944656372
33.23944854736328 13.329083442687988 2.55305552482605
33.11772155761719 13.045073509216309 2.5554182529449463
33.130794525146484 12.816072463989258 2.5533535480499268
33.60204315185547 12.76201057434082 2.536288261413574
33.670196533203125 12.552156448364258 2.5323073863983154
33.72013854980469 12.33576488494873 2.5288712978363037
33.75458526611328 12.114167213439941 2.525892972946167
33.758358001708984 11.882322311401367 2.5238735675811768
33.75205612182617 11.647953033447266 2.5221407413482666
33.75267028808594 11.416991233825684 2.5201363563537598
33.77069854736328 11.192749977111816 2.5175118446350098
33.77964401245117 10.966245651245117 2.515141725540161
33.79184341430664 10.741568565368652 2.5126192569732666
33.81019973754883 10.519529342651367 2.50984525680542
33.80510711669922 10.290973663330078 2.507805824279785
33.817649841308594 10.068581581115723 2.5051355361938477
33.83161163330078 9.847257614135742 2.502371311187744
33.841251373291016 9.625323295593262 2.499706983566284
33.859073638916016 9.406316757202148 2.49672269821167
33.8639030456543 9.184311866760254 2.494128465652466
33.87211990356445 8.963881492614746 2.4913763999938965
33.862457275390625 8.739448547363281 2.489183187484741
33.88523864746094 8.524005889892578 2.485849142074585
33.90470886230469 8.308135986328125 2.4825799465179443
33.908233642578125 8.088868141174316 2.4798073768615723
33.91228485107422 7.870320796966553 2.47697114944458
33.91980743408203 7.6531291007995605 2.473972797393799
33.931800842285156 7.437423229217529 2.470775842666626
33.94145202636719 7.22165060043335 2.4676146507263184
33.953643798828125 7.006845951080322 2.4643194675445557
33.9605598449707 6.791379451751709 2.46116042137146
33.96022415161133 6.574951648712158 2.458207130432129
33.96146011352539 6.3593339920043945 2.455155849456787
33.98197937011719 6.1476850509643555 2.4513888359069824
33.987403869628906 5.933616638183594 2.4481005668640137
34.003299713134766 5.721701622009277 2.444399833679199
34.014915466308594 5.509335517883301 2.440802812576294
34.011390686035156 5.294888973236084 2.4376912117004395
34.02034378051758 5.082759380340576 2.434095859527588
34.03391647338867 4.871568202972412 2.4302895069122314
34.04320526123047 4.659994602203369 2.426588296890259
34.05316162109375 4.448748588562012 2.4228169918060303
34.063785552978516 4.237801551818848 2.418972969055176
34.07906723022461 4.027594566345215 2.4149160385131836
33.568660736083984 3.7586374282836914 2.429656505584717
33.52732849121094 3.545922040939331 2.427591562271118
33.58509063720703 3.343855857849121 2.421917676925659
33.64362335205078 3.1413991451263428 2.4161577224731445
33.665096282958984 2.9352238178253174 2.4116835594177246
33.6733512878418 2.727933883666992 2.4076404571533203
33.68132400512695 2.5207271575927734 2.4035589694976807
33.68901824951172 2.3135921955108643 2.3994390964508057
33.69045639038086 2.1061453819274902 2.395501136779785
12.606375694274902 0.7102210521697998 3.1685588359832764
33.71144485473633 1.6925678253173828 2.386812925338745
33.71405029296875 1.4854356050491333 2.3826868534088135
33.728363037109375 1.2788265943527222 2.3780767917633057
19.317733764648438 0.6136212348937988 2.911940574645996
33.742191314697266 0.8649724125862122 2.369255304336548
33.764686584472656 0.6583260893821716 2.3641834259033203
33.76193618774414 0.4511145055294037 2.3600099086761475
12.897385597229004 0.09294688701629639 3.1451327800750732
12.896656036376953 0.013828892260789871 3.1434884071350098
33.782020568847656 -0.1703239381313324 2.3461146354675293
33.786170959472656 -0.37761273980140686 2.3414764404296875
33.7890510559082 -0.5849598050117493 2.3368353843688965
33.79964828491211 -0.7925681471824646 2.331845998764038
12.443245887756348 -0.36843350529670715 3.1523597240448
33.82699203491211 -1.208592414855957 2.3214640617370605
12.565464973449707 -0.5264104604721069 3.1441338062286377
11.684619903564453 -0.5613622069358826 3.1767566204071045
13.379111289978027 -0.7249975800514221 3.108656406402588
12.824769973754883 -0.7739079594612122 3.1285288333892822
12.818724632263184 -0.8524966239929199 3.126889228820801
33.87620162963867 -2.4610307216644287 2.2902631759643555
33.88917922973633 -2.6710634231567383 2.284675121307373
13.132224082946777 -1.1164112091064453 3.1086103916168213
12.277257919311523 -1.119657039642334 3.140881061553955
12.216395378112793 -1.1897187232971191 3.141432046890259
12.127310752868652 -1.2561949491500854 3.1431221961975098
12.740082740783691 -1.3986936807632446 3.1163501739501953
33.951515197753906 -3.93766450881958 2.2505199909210205
33.948360443115234 -4.148520469665527 2.2451679706573486
13.477076530456543 -1.731144666671753 3.0799286365509033
13.409692764282227 -1.8061822652816772 3.0804831981658936
33.97358703613281 -4.787714004516602 2.2273287773132324
11.794892311096191 -1.7363296747207642 3.143080711364746
34.000816345214844 -5.2177815437316895 2.2146854400634766
34.01139831542969 -5.433183670043945 2.2083911895751953
34.00484085083008 -5.646294593811035 2.202751636505127
34.025508880615234 -5.864451885223389 2.195901393890381
13.544553756713867 -2.4203779697418213 3.0586066246032715
13.522503852844238 -2.5021443367004395 3.0571141242980957
34.04375457763672 -6.514926910400391 2.1767923831939697
33.910831451416016 -6.705416202545166 2.1762592792510986
33.880619049072266 -6.915701866149902 2.1712772846221924
33.85594940185547 -7.127310276031494 2.165998935699463
33.846553802490234 -7.342477798461914 2.1599972248077393
33.8182373046875 -7.553879261016846 2.1547584533691406
33.86454772949219 -7.7826642990112305 2.1461846828460693
33.90154266357422 -8.01046371459961 2.137932777404785
33.977787017822266 -8.248909950256348 2.1278579235076904
34.0203857421875 -8.48061752319336 2.1191775798797607
34.04109191894531 -8.707959175109863 2.1113855838775635
34.058345794677734 -8.935368537902832 2.1036667823791504
34.09145736694336 -9.167986869812012 2.0951504707336426
34.094093322753906 -9.393386840820312 2.0879263877868652
34.074092864990234 -9.613199234008789 2.081655502319336
34.067073822021484 -9.837274551391602 2.0747220516204834
34.07774353027344 -10.067288398742676 2.066899299621582
34.09356689453125 -10.299826622009277 2.058755874633789
34.090633392333984 -10.527630805969238 2.05139422416687
34.11952590942383 -10.76630973815918 2.0424692630767822
34.140113830566406 -11.003593444824219 2.0338377952575684
34.14957809448242 -11.238412857055664 2.025636911392212
34.14702606201172 -11.47026252746582 2.017915964126587
34.132511138916016 -11.698942184448242 2.0106778144836426
34.1513671875 -11.940073013305664 2.0017662048339844
34.12526321411133 -12.1664457321167 1.99491548538208
34.10517120361328 -12.39567756652832 1.9876980781555176
34.2746467590332 -12.695904731750488 1.9712083339691162
34.31834411621094 -12.952116012573242 1.960672378540039
34.323814392089844 -13.195362091064453 1.9518946409225464
34.346187591552734 -13.446446418762207 1.942186951637268
34.350067138671875 -13.691643714904785 1.9332871437072754
34.35778045654297 -13.939645767211914 1.9240959882736206
34.349884033203125 -14.182540893554688 1.9155834913253784
34.38174057006836 -14.443272590637207 1.9049761295318604
34.3721923828125 -14.688050270080566 1.8963419198989868
29.638212203979492 -12.880821228027344 2.1275978088378906
29.559358596801758 -13.062785148620605 2.1235861778259277
34.44073486328125 -15.473196983337402 1.8648532629013062
34.42490768432617 -15.720682144165039 1.8561149835586548
34.442665100097656 -15.984954833984375 1.8455311059951782
34.44130325317383 -16.241941452026367 1.8358241319656372
34.44888687133789 -16.504690170288086 1.8255345821380615
34.459930419921875 -16.770767211914062 1.814942717552185
34.44123840332031 -17.02387809753418 1.8058059215545654
34.3760986328125 -17.254985809326172 1.7990392446517944
34.27114486694336 -17.466432571411133 1.7943272590637207
34.187068939208984 -17.688718795776367 1.7884304523468018
34.32705307006836 -18.02906036376953 1.7703027725219727
34.414772033691406 -18.345474243164062 1.7548140287399292
34.32067108154297 -18.56668472290039 1.749123454093933
34.29957580566406 -18.828289031982422 1.739331841468811
34.36032485961914 -19.136985778808594 1.7248753309249878
34.46640396118164 -19.474157333374023 1.707713007926941
34.409305572509766 -19.721466064453125 1.6995129585266113
34.45149230957031 -20.027536392211914 1.685598373413086
34.51530456542969 -20.34906768798828 1.6702842712402344
34.481300354003906 -20.61524200439453 1.660378336906433
34.525611877441406 -20.930435180664062 1.645841121673584
34.434600830078125 -21.165359497070312 1.638959527015686
34.48017501831055 -21.486051559448242 1.6240322589874268
34.51972198486328 -21.80596351623535 1.6092705726623535
34.51289367675781 -22.099159240722656 1.5970584154129028
34.414119720458984 -22.334915161132812 1.5901485681533813
34.550724029541016 -22.72616195678711 1.5690888166427612
34.49848937988281 -22.996387481689453 1.5591119527816772
34.69334411621094 -23.435100555419922 1.5340549945831299
34.706077575683594 -23.755212783813477 1.51976478099823
34.761314392089844 -24.107664108276367 1.5026824474334717
30.041215896606445 -21.108478546142578 1.7799568176269531
34.804107666015625 -24.77554702758789 1.472043514251709
34.81563186645508 -25.107152938842773 1.4570355415344238
34.8147087097168 -25.432762145996094 1.442610502243042
34.84160232543945 -25.78187370300293 1.4262291193008423
34.83753967285156 -26.111305236816406 1.4116005897521973
34.86574172973633 -26.468223571777344 1.394702434539795
34.87027359008789 -26.81064224243164 1.3791017532348633
34.88451385498047 -27.163925170898438 1.3626549243927002
34.913761138916016 -27.532609939575195 1.3449974060058594
34.88905715942383 -27.862163543701172 1.3306529521942139
34.756011962890625 -28.107046127319336 1.3233087062835693
34.74026107788086 -28.448781967163086 1.3080109357833862
34.90227508544922 -28.941181182861328 1.2805135250091553
34.86985397338867 -29.277374267578125 1.265821933746338
34.86429214477539 -29.639484405517578 1.2490829229354858
34.95170593261719 -30.08536148071289 1.2256966829299927
34.9438591003418 -30.454029083251953 1.208579182624817
34.901336669921875 -30.795978546142578 1.1936345100402832
34.946781158447266 -31.219715118408203 1.1722745895385742
35.00388717651367 -31.659229278564453 1.1497703790664673
34.98176956176758 -32.031822204589844 1.1325902938842773
34.96664810180664 -32.41484069824219 1.1146481037139893
35.01584243774414 -32.8624267578125 1.091765284538269
35.00583267211914 -33.259552001953125 1.072861909866333
32.398521423339844 30.50520133972168 2.3119940757751465
32.339691162109375 30.077838897705078 2.317971706390381
32.47705841064453 29.836294174194336 2.3158621788024902
32.51423263549805 29.504854202270508 2.3177220821380615
32.46296691894531 29.097362518310547 2.323046922683716
32.42216110229492 28.704206466674805 2.327831745147705
32.57339859008789 28.483728408813477 2.324787139892578
32.56277847290039 28.12396240234375 2.3281519412994385
32.58168029785156 27.793296813964844 2.330230236053467
32.60004806518555 27.465394973754883 2.332230806350708
32.63099670410156 27.151103973388672 2.3336336612701416
32.642330169677734 26.82350730895996 2.3357222080230713
32.64777755737305 26.494279861450195 2.337949752807617
32.66445541381836 26.177249908447266 2.33963680267334
32.66593933105469 25.851089477539062 2.3418333530426025
32.684349060058594 25.541288375854492 2.3432705402374268
32.69148635864258 25.22551727294922 2.345062255859375
32.71904373168945 24.928194046020508 2.3459625244140625
32.72342300415039 24.615859985351562 2.3476884365081787
32.661014556884766 24.256736755371094 2.3519482612609863
32.24078369140625 23.639259338378906 2.370134115219116
32.420658111572266 23.466829299926758 2.3647141456604004
32.52237319946289 23.237878799438477 2.36228346824646
32.480377197265625 22.908321380615234 2.3653907775878906
32.47905349731445 22.610427856445312 2.3668291568756104
32.430816650390625 22.282846450805664 2.3700151443481445
32.47822570800781 22.023468017578125 2.3693978786468506
32.494606018066406 21.744892120361328 2.3699138164520264
32.35700607299805 21.3667049407959 2.3763365745544434
32.41529846191406 21.120891571044922 2.375072956085205
32.46338653564453 20.869766235351562 2.3741350173950195
32.603302001953125 20.678266525268555 2.369568109512329
32.551448822021484 20.366554260253906 2.372363805770874
32.39750289916992 19.994836807250977 2.3790383338928223
32.307674407958984 19.666839599609375 2.3831558227539062
32.308448791503906 19.396780014038086 2.3836967945098877
32.35013198852539 19.152908325195312 2.3825881481170654
32.35810852050781 18.890613555908203 2.382716655731201
32.494876861572266 18.704233169555664 2.3778018951416016
32.650569915771484 18.52823257446289 2.372093677520752
32.70327377319336 18.293928146362305 2.3702995777130127
32.77008819580078 18.0683650970459 2.3678948879241943
32.8661003112793 17.859371185302734 2.364300012588501
32.985450744628906 17.663089752197266 2.359739303588867
33.021427154541016 17.42264175415039 2.358334541320801
33.0344123840332 17.17135238647461 2.3577539920806885
33.05357360839844 16.924659729003906 2.35687255859375
33.04953384399414 16.667577743530273 2.3568248748779297
33.062381744384766 16.420520782470703 2.356062889099121
33.07345199584961 16.173933029174805 2.3553082942962646
33.08904266357422 15.930861473083496 2.354318141937256
33.10560989379883 15.689493179321289 2.3532302379608154
33.13043212890625 15.453169822692871 2.3517632484436035
33.13997268676758 15.21087646484375 2.3508262634277344
33.142330169677734 14.966581344604492 2.350109815597534
33.14841842651367 14.725265502929688 2.3491897583007812
33.161956787109375 14.488438606262207 2.3479232788085938
33.170162200927734 14.250422477722168 2.3468053340911865
33.18130874633789 14.014795303344727 2.3455162048339844
33.19635009765625 13.781867027282715 2.344017267227173
33.209781646728516 13.549283027648926 2.342524766921997
33.23738479614258 13.323372840881348 2.340423583984375
33.102603912353516 13.034287452697754 2.3445868492126465
33.134239196777344 12.812602043151855 2.342219114303589
33.599769592285156 12.75632381439209 2.32287335395813
33.66879653930664 12.546834945678711 2.318915843963623
33.71586990356445 12.329428672790527 2.3157551288604736
33.74649429321289 12.106515884399414 2.3131794929504395
33.75774383544922 11.877388000488281 2.311305284500122
33.75328826904297 11.64369010925293 2.3099915981292725
33.76237869262695 11.415616035461426 2.308091402053833
33.774688720703125 11.189438819885254 2.3060097694396973
33.77884292602539 10.961380004882812 2.3041939735412598
33.79195022583008 10.737021446228027 2.3019721508026123
33.81120681762695 10.515287399291992 2.2994511127471924
33.80703353881836 10.287030220031738 2.2978014945983887
33.80707931518555 10.060929298400879 2.295931100845337
33.81618118286133 9.838285446166992 2.293649673461914
33.83631896972656 9.619461059570312 2.2908761501312256
33.84734344482422 9.39862060546875 2.288409471511841
33.85307693481445 9.176959991455078 2.2860987186431885
33.863162994384766 8.957115173339844 2.283561944961548
33.86311721801758 8.735244750976562 2.281374931335449
33.88584899902344 8.519804954528809 2.2782249450683594
33.89460372924805 8.301321983337402 2.2755794525146484
33.8961181640625 8.08166217803955 2.2731707096099854
33.90886688232422 7.865231037139893 2.2702577114105225
33.912445068359375 7.64718770980835 2.2676596641540527
33.924381256103516 7.4315338134765625 2.264671802520752
33.9320182800293 7.215397357940674 2.2618026733398438
33.955894470214844 7.003079891204834 2.258223295211792
33.962772369384766 6.787606239318848 2.255277633666992
33.95650863647461 6.570033073425293 2.252812623977661
33.95965576171875 6.354813098907471 2.2499125003814697
33.98996353149414 6.144957542419434 2.2458510398864746
34.00026321411133 5.931704521179199 2.2425506114959717
34.01218795776367 5.719052314758301 2.239129066467285
34.02278137207031 5.506476879119873 2.235707998275757
34.01625061035156 5.29152774810791 2.232935905456543
34.01626968383789 5.07804536819458 2.2298426628112793
34.031768798828125 4.867166042327881 2.226057529449463
34.04298400878906 4.655880451202393 2.222393035888672
34.053890228271484 4.444768905639648 2.218686103820801
34.06446838378906 4.233821392059326 2.214937925338745
34.07572937011719 4.023144245147705 2.2111053466796875
33.549495697021484 3.752495527267456 2.2297024726867676
33.52003860473633 3.5411670207977295 2.22752046585083
33.58470153808594 3.3398356437683105 2.2213351726531982
33.63621139526367 3.1367287635803223 2.2156379222869873
33.65463638305664 2.93034029006958 2.211272954940796
33.6638298034668 2.7231979370117188 2.2072415351867676
33.669761657714844 2.5159029960632324 2.2032933235168457
33.67640686035156 2.3087732791900635 2.1992595195770264
33.67978286743164 2.101531505584717 2.1953089237213135
12.08680248260498 0.6789919137954712 3.115800380706787
12.090680122375488 0.6048367023468018 3.1142284870147705
33.68924331665039 1.4804108142852783 2.1831533908843994
12.66113567352295 0.47780412435531616 3.086735486984253
19.302213668823242 0.6105301976203918 2.797755718231201
33.72220993041992 0.8605372905731201 2.16947340965271
33.74964904785156 0.6541104912757874 2.1640801429748535
33.749839782714844 0.4470334053039551 2.1598124504089355
33.7597541809082 0.24005605280399323 2.1550629138946533
33.77339172363281 0.03297782316803932 2.1500895023345947
12.853327751159668 -0.06706281006336212 3.0670840740203857
12.716745376586914 -0.14437654614448547 3.071408748626709
33.79368209838867 -0.5889560580253601 2.135716438293457
33.79323959350586 -0.7963337898254395 2.1311252117156982
11.517441749572754 -0.3429274260997772 3.1196770668029785
12.488463401794434 -0.44842612743377686 3.074633836746216
11.783732414245605 -0.4955872595310211 3.104484796524048
12.71937084197998 -0.6130236983299255 3.060678482055664
13.355706214904785 -0.725775957107544 3.030094623565674
12.849357604980469 -0.777391254901886 3.05107045173645
12.8243408203125 -0.8548694252967834 3.0502943992614746
33.86537551879883 -2.4641809463500977 2.0887935161590576
13.085613250732422 -1.0336625576019287 3.034449338912964
13.101845741271973 -1.1158596277236938 3.0316832065582275
12.307781219482422 -1.1243982315063477 3.066216230392456
33.89335632324219 -3.3039791584014893 2.066452980041504
12.719182014465332 -1.3194838762283325 3.043215274810791
12.746522903442383 -1.4014067649841309 3.039881467819214
13.395485877990723 -1.5559213161468506 3.007477283477783
13.434197425842285 -1.6440027952194214 3.0034401416778564
13.494126319885254 -1.7354190349578857 2.998365640640259
13.842503547668457 -1.8665854930877686 2.9796247482299805
11.834677696228027 -1.6700092554092407 3.0723917484283447
13.821365356445312 -2.036701202392578 2.975844144821167
33.9942512512207 -5.2208051681518555 2.0104129314422607
34.002803802490234 -5.435852527618408 2.003952741622925
34.00310134887695 -5.650055885314941 1.9978162050247192
34.001060485839844 -5.864299297332764 1.991721272468567
34.022247314453125 -6.083125591278076 1.9844282865524292
34.03122329711914 -6.3004326820373535 1.9776504039764404
34.0417594909668 -6.518643379211426 1.9707188606262207
33.99797439575195 -6.726755142211914 1.9663721323013306
33.90007781982422 -6.923784255981445 1.964630365371704
33.85382080078125 -7.130982398986816 1.9603002071380615
33.859004974365234 -7.349313735961914 1.9533584117889404
33.8510856628418 -7.565364360809326 1.9469915628433228
33.80674743652344 -7.773538589477539 1.9423712491989136
33.85249328613281 -8.003052711486816 1.9331668615341187
33.834571838378906 -8.218335151672363 1.9270741939544678
34.038177490234375 -8.48928165435791 1.9096910953521729
34.054908752441406 -8.715742111206055 1.9016435146331787
34.09912109375 -8.950334548950195 1.8921024799346924
34.098331451416016 -9.174121856689453 1.884766936302185
34.08162307739258 -9.394256591796875 1.8781657218933105
34.08368682861328 -9.62022876739502 1.8705153465270996
34.0852165222168 -9.846858024597168 1.8628056049346924
34.082366943359375 -10.073019027709961 1.8552361726760864
34.10575485229492 -10.30789566040039 1.8462042808532715
34.113216400146484 -10.539016723632812 1.8379096984863281
34.141029357910156 -10.777531623840332 1.8284446001052856
34.12442398071289 -11.0029935836792 1.821232795715332
34.119606018066406 -11.233030319213867 1.813306450843811
34.151119232177734 -11.476146697998047 1.8033419847488403
34.151641845703125 -11.710031509399414 1.794933795928955
34.161888122558594 -11.948311805725098 1.7859032154083252
34.12628173828125 -12.171390533447266 1.7792601585388184
34.113624572753906 -12.403355598449707 1.7712827920913696
34.27732849121094 -12.701549530029297 1.7535396814346313
34.31344223022461 -12.95495319366455 1.7426387071609497
34.31231689453125 -13.195655822753906 1.7336777448654175
34.32347106933594 -13.442296028137207 1.72392737865448
34.33381271362305 -13.689939498901367 1.714110016822815
34.347023010253906 -13.940091133117676 1.7040174007415771
34.35753631591797 -14.19054126739502 1.693959355354309
34.37362289428711 -14.444738388061523 1.6834678649902344
34.36308670043945 -14.689069747924805 1.6743712425231934
29.651702880859375 -12.891072273254395 1.9344747066497803
29.556320190429688 -13.065850257873535 1.9314014911651611
34.4131965637207 -15.46584415435791 1.641692876815796
34.4236946105957 -15.725188255310059 1.630903959274292
34.41780471801758 -15.978513717651367 1.6209444999694824
34.42364501953125 -16.238750457763672 1.6101752519607544
34.440189361572266 -16.505701065063477 1.598644495010376
34.46103286743164 -16.776525497436523 1.586720585823059
34.468204498291016 -17.042470932006836 1.5754708051681519
34.434139251708984 -17.28942108154297 1.5665587186813354
34.347625732421875 -17.510746002197266 1.5607000589370728
34.27388381958008 -17.739004135131836 1.5539871454238892
34.2640380859375 -18.001380920410156 1.5432870388031006
34.21613693237305 -18.245044708251953 1.534788727760315
34.36940002441406 -18.598567962646484 1.513777494430542
34.0802116394043 -18.713403701782227 1.5199519395828247
34.53062438964844 -19.237472534179688 1.48006272315979
34.43950271606445 -19.46463966369629 1.473666787147522
34.517547607421875 -19.78924560546875 1.4565157890319824
34.52556228637695 -20.076391220092773 1.443595051765442
34.50726318359375 -20.350175857543945 1.4321898221969604
34.544315338134766 -20.65882682800293 1.4170873165130615
34.566917419433594 -20.96144676208496 1.4027273654937744
34.50968933105469 -21.217533111572266 1.3933645486831665
34.5006103515625 -21.504867553710938 1.3807344436645508
34.458072662353516 -21.773155212402344 1.3701379299163818
34.517791748046875 -22.108501434326172 1.3526442050933838
34.56044006347656 -22.436155319213867 1.3360605239868164
34.566162109375 -22.742660522460938 1.3217302560806274
34.50711441040039 -23.008541107177734 1.311570405960083
34.66284942626953 -23.420997619628906 1.2867319583892822
34.71759033203125 -23.769668579101562 1.2684509754180908
34.74555587768555 -24.10338592529297 1.251763939857483
34.73478317260742 -24.413084030151367 1.2375260591506958
34.810157775878906 -24.78666877746582 1.2171149253845215
34.804508209228516 -25.10602569580078 1.2020909786224365
34.814788818359375 -25.439788818359375 1.185741901397705
34.82307052612305 -25.775218963623047 1.1693086624145508
34.825347900390625 -26.109304428100586 1.153077483177185
34.85424041748047 -26.466724395751953 1.1347129344940186
34.86105728149414 -26.81087303161621 1.1176856756210327
34.8759765625 -27.16468620300293 1.0998317003250122
34.90118408203125 -27.53019905090332 1.0809731483459473
34.90058898925781 -27.87896728515625 1.0637478828430176
34.76738357543945 -28.123912811279297 1.0561050176620483
34.76919174194336 -28.480241775512695 1.038270115852356
34.90624237060547 -28.952367782592773 1.010014533996582
34.887420654296875 -29.30011749267578 0.9931488037109375
34.91506576538086 -29.690757751464844 0.9724935293197632
34.930904388427734 -30.07567024230957 0.952441930770874
34.91321563720703 -30.435651779174805 0.934684693813324
34.88941955566406 -30.793899536132812 0.9171372652053833
34.95558547973633 -31.23614501953125 0.8922722339630127
34.99467468261719 -31.65959358215332 0.8691715002059937
34.95551300048828 -32.0165901184082 0.8519467115402222
34.96891403198242 -32.425880432128906 0.8302440643310547
35.01498794555664 -32.870697021484375 0.8055679798126221
35.00263214111328 -33.265716552734375 0.785265326499939
32.34589767456055 30.811824798583984 2.0531411170959473
32.41474533081055 30.500511169433594 2.0549676418304443
32.3411865234375 30.059558868408203 2.0635828971862793
32.49974822998047 29.837631225585938 2.0608043670654297
32.5228157043457 29.49336814880371 2.0644681453704834
32.462501525878906 29.077938079833984 2.0720133781433105
32.430511474609375 28.692834854125977 2.078049898147583
32.58088684082031 28.471660614013672 2.0752243995666504
32.576202392578125 28.11716079711914 2.0797061920166016
32.598819732666016 27.789731979370117 2.082759380340576
32.61101150512695 27.456647872924805 2.086188793182373
32.63494873046875 27.13660430908203 2.0889432430267334
32.62607192993164 26.792566299438477 2.0931315422058105
32.638275146484375 26.469179153442383 2.0962066650390625
32.66256332397461 26.158523559570312 2.0986008644104004
32.66545867919922 25.833688735961914 2.1018877029418945
32.68844985961914 25.527647018432617 2.1041224002838135
32.676475524902344 25.197277069091797 2.107884168624878
32.734832763671875 24.9237117767334 2.108258008956909
32.71678161621094 24.59453582763672 2.1120874881744385
32.699947357177734 24.26949691772461 2.1157522201538086
32.54252624511719 23.844594955444336 2.1258223056793213
32.40623474121094 23.440698623657227 2.134787082672119
32.48661422729492 23.196758270263672 2.133629083633423
32.52602005004883 22.92507553100586 2.134272813796997
32.5682373046875 22.657211303710938 2.134695291519165
32.494712829589844 22.31163215637207 2.140345573425293
32.56709289550781 22.06871795654297 2.1391983032226562
32.670101165771484 21.847421646118164 2.136563301086426
32.4747200012207 21.429744720458984 2.1475019454956055
32.437904357910156 21.12108039855957 2.1510813236236572
