# .PCD v0.7 - Point Cloud Data file format
VERSION 0.7
FIELDS x y z
SIZE 4 4 4
TYPE F F F
COUNT 1 1 1
WIDTH 847
HEIGHT 1
VIEWPOINT 0 0 0 1 0 0 0
POINTS 847
DATA ascii
27.660430908203125 13.577657699584961 0.49516555666923523
27.78579330444336 13.428524017333984 0.4867895543575287
28.11428451538086 13.375380516052246 0.4553326368331909
28.44135093688965 13.317861557006836 0.4240041971206665
15.776291847229004 0.9133977890014648 1.8963452577590942
19.294729232788086 0.7613489031791687 1.5030230283737183
19.264989852905273 0.641862690448761 1.5042458772659302
12.895130157470703 -0.5993449687957764 2.1856465339660645
13.012096405029297 -0.6847943067550659 2.170337677001953
12.880486488342285 -0.7571325302124023 2.182943344116211
12.896241188049316 -0.8374732136726379 2.1789069175720215
12.858957290649414 -0.9143032431602478 2.1808032989501953
12.837419509887695 -1.1505696773529053 2.1759748458862305
12.8269681930542 -1.2290029525756836 2.174628973007202
12.79474925994873 -1.3845465183258057 2.1730687618255615
12.781880378723145 -1.4625459909439087 2.1718406677246094
12.763603210449219 -1.5398461818695068 2.17117977142334
12.732051849365234 -1.8540656566619873 2.16322660446167
29.241531372070312 -5.178171157836914 0.21930749714374542
19.7541446685791 -6.4681315422058105 1.1817988157272339
19.47359848022461 -6.508898735046387 1.209084391593933
19.215871810913086 -6.554166316986084 1.2336201667785645
19.14029312133789 -6.659828186035156 1.2354127168655396
19.11655044555664 -6.7834086418151855 1.2306288480758667
19.121896743774414 -6.917759418487549 1.222075343132019
19.09649085998535 -7.041439533233643 1.217287302017212
19.111188888549805 -7.180435657501221 1.207304835319519
19.1527156829834 -7.330526828765869 1.1937662363052368
20.46827507019043 -8.269332885742188 0.9988136887550354
19.08614158630371 -7.847614288330078 1.1680327653884888
19.138084411621094 -8.006681442260742 1.1524155139923096
19.108386993408203 -8.132466316223145 1.1472417116165161
28.383514404296875 -16.215179443359375 -0.35639023780822754
28.340534210205078 -16.422300338745117 -0.36834391951560974
20.499032974243164 -13.086637496948242 0.6424274444580078
20.212995529174805 -13.079480171203613 0.669718861579895
19.930322647094727 -13.070944786071777 0.696708083152771
19.73118782043457 -13.114378929138184 0.7115175724029541
19.523221969604492 -13.14976692199707 0.7277170419692993
19.38443374633789 -13.230098724365234 0.7336560487747192
19.306617736816406 -13.3515625 0.7304125428199768
19.270301818847656 -13.502182960510254 0.7207873463630676
19.243383407592773 -13.66032886505127 0.7095604538917542
19.221689224243164 -13.823290824890137 0.697343111038208
19.249248504638672 -14.023309707641602 0.6773563027381897
19.251911163330078 -14.207099914550781 0.6609255075454712
19.23236846923828 -14.376005172729492 0.6476902365684509
19.24945068359375 -14.573953628540039 0.6285163760185242
19.23016929626465 -14.746085166931152 0.6147655248641968
19.23535919189453 -14.938612937927246 0.5969216227531433
19.23031997680664 -15.125012397766113 0.5804253220558167
19.245445251464844 -15.329221725463867 0.560445249080658
19.24178695678711 -15.520477294921875 0.5431759357452393
19.254175186157227 -15.726701736450195 0.5230377912521362
19.2448673248291 -15.917219161987305 0.5061126351356506
19.25371551513672 -16.124778747558594 0.4859407842159271
19.224411010742188 -16.3022403717041 0.47172778844833374
19.280216217041016 -16.554279327392578 0.4431787133216858
20.8421573638916 -18.573583602905273 0.11977061629295349
20.52921485900879 -18.52227783203125 0.1505378782749176
20.308534622192383 -18.550813674926758 0.16585949063301086
20.073719024658203 -18.563873291015625 0.18372873961925507
19.851104736328125 -18.58560562133789 0.19963978230953217
19.61818504333496 -18.595075607299805 0.21747617423534393
19.435298919677734 -18.649789810180664 0.22669874131679535
12.866069793701172 11.991175651550293 1.8245338201522827
12.93769359588623 11.910690307617188 1.823151707649231
12.948469161987305 11.774894714355469 1.8301682472229004
12.975829124450684 11.65537166595459 1.834726333618164
13.043879508972168 11.572925567626953 1.8335334062576294
14.459395408630371 12.67152214050293 1.64705228805542
13.146821022033691 11.379502296447754 1.8354418277740479
13.121651649475098 11.217854499816895 1.8466886281967163
13.16643238067627 11.117269515991211 1.848258376121521
13.214295387268066 11.01974105834961 1.8493082523345947
13.247639656066895 10.910660743713379 1.85221266746521
13.284773826599121 10.805350303649902 1.8544960021972656
13.31413745880127 10.694389343261719 1.85770845413208
13.352771759033203 10.591509819030762 1.8595744371414185
13.388298988342285 10.486719131469727 1.8617490530014038
13.437203407287598 10.392843246459961 1.862053632736206
13.463330268859863 10.28185749053955 1.8652615547180176
13.48383903503418 10.167348861694336 1.869093418121338
13.534563064575195 10.076140403747559 1.8688685894012451
13.568649291992188 9.972908973693848 1.8707212209701538
13.610835075378418 9.876063346862793 1.8714247941970825
13.64506721496582 9.773862838745117 1.8730640411376953
13.685867309570312 9.676780700683594 1.8737609386444092
13.720281600952148 9.575580596923828 1.8751860857009888
13.751514434814453 9.472628593444824 1.8769229650497437
13.790226936340332 9.375245094299316 1.8776109218597412
13.829089164733887 9.278295516967773 1.8781903982162476
13.868109703063965 9.181771278381348 1.8786612749099731
13.911462783813477 9.088379859924316 1.8784983158111572
13.934968948364258 8.982407569885254 1.8807495832443237
13.973642349243164 8.886629104614258 1.8810005187988281
14.015877723693848 8.793354988098145 1.8807204961776733
14.049885749816895 8.695186614990234 1.8813855648040771
14.092554092407227 8.602630615234375 1.880886197090149
14.115874290466309 8.498591423034668 1.8827073574066162
14.16324520111084 8.409313201904297 1.8814597129821777
14.205760955810547 8.3172607421875 1.8807350397109985
14.240791320800781 8.221023559570312 1.8808536529541016
14.280362129211426 8.127619743347168 1.880332350730896
14.31932258605957 8.034040451049805 1.8798061609268188
14.456864356994629 7.995151519775391 1.8671497106552124
27.45113182067871 14.746228218078613 0.29400527477264404
27.482646942138672 14.546876907348633 0.29757773876190186
27.48189353942871 14.3316011428833 0.3048909604549408
27.470701217651367 14.112337112426758 0.3132825791835785
27.543909072875977 13.937295913696289 0.31130462884902954
27.513668060302734 13.710883140563965 0.32163867354393005
27.61825180053711 13.552382469177246 0.3155793845653534
27.757734298706055 13.41041374206543 0.30520761013031006
27.9288330078125 13.282612800598145 0.29093989729881287
28.28398323059082 13.23962688446045 0.25458022952079773
28.742576599121094 13.24019718170166 0.2058594673871994
44.891151428222656 8.186402320861816 -1.5397709608078003
19.290788650512695 0.758621871471405 1.3874527215957642
19.251110076904297 0.6388346552848816 1.3900341987609863
12.894164085388184 -0.601283609867096 2.108168601989746
12.89797306060791 -0.680776834487915 2.105541467666626
12.868576049804688 -0.7584158778190613 2.1067955493927
12.857542037963867 -0.8369448781013489 2.1058175563812256
12.764512062072754 -1.3040841817855835 2.1020028591156006
12.734360694885254 -1.3799997568130493 2.1029391288757324
12.690934181213379 -1.4541274309158325 2.1054272651672363
12.652009963989258 -1.52837073802948 2.1073296070098877
12.633336067199707 -1.6048177480697632 2.1067392826080322
12.63388442993164 -1.6837158203125 2.103767156600952
12.638858795166016 -1.7633676528930664 2.100196361541748
12.573572158813477 -1.8329830169677734 2.1051061153411865
12.556008338928223 -1.9091734886169434 2.1041696071624756
20.113515853881836 -6.5887532234191895 1.009651780128479
19.063756942749023 -6.636093616485596 1.123362421989441
19.030780792236328 -6.7558817863464355 1.119712233543396
19.990814208984375 -7.2351155281066895 0.9843266606330872
19.176780700683594 -7.342723369598389 1.0669225454330444
19.06263542175293 -7.433531284332275 1.07355535030365
20.36237144470215 -8.522066116333008 0.8605489730834961
19.027631759643555 -8.101179122924805 1.0330572128295898
19.006376266479492 -8.230344772338867 1.0265153646469116
19.038734436035156 -8.383543014526367 1.0124680995941162
19.052717208862305 -8.529747009277344 1.0007827281951904
28.303773880004883 -13.728734970092773 -0.3538178503513336
28.32440757751465 -13.954240798950195 -0.3725968897342682
28.312280654907227 -14.164983749389648 -0.3869839608669281
28.248212814331055 -14.350494384765625 -0.39419126510620117
28.172353744506836 -14.53030014038086 -0.39987966418266296
28.084802627563477 -14.704195976257324 -0.4040451943874359
27.634397506713867 -14.685330390930176 -0.3559603691101074
27.534543991088867 -14.849835395812988 -0.35841163992881775
27.427621841430664 -15.01033878326416 -0.3599623441696167
27.285076141357422 -15.15083122253418 -0.3564256727695465
27.137523651123047 -15.287710189819336 -0.35222896933555603
27.026351928710938 -15.4445161819458 -0.3534718453884125
20.712343215942383 -13.04847526550293 0.4780658483505249
20.51280403137207 -13.099471092224121 0.4934394061565399
20.201858520507812 -13.07630729675293 0.5260207653045654
19.916866302490234 -13.066147804260254 0.554827868938446
19.70875358581543 -13.103506088256836 0.5718932747840881
19.505054473876953 -13.141576766967773 0.5883604884147644
19.33931541442871 -13.203367233276367 0.5989567637443542
19.26245880126953 -13.325115203857422 0.5955610871315002
19.225439071655273 -13.474875450134277 0.5857346653938293
19.218029022216797 -13.646501541137695 0.5710082650184631
19.206010818481445 -13.8162260055542 0.5567871332168579
19.204648971557617 -13.995078086853027 0.5406197309494019
19.21217918395996 -14.182085990905762 0.522760272026062
19.223691940307617 -14.373872756958008 0.5039800405502319
19.216171264648438 -14.553160667419434 0.48803070187568665
19.218969345092773 -14.741950988769531 0.470127135515213
19.224868774414062 -14.93497085571289 0.45143064856529236
19.225994110107422 -15.126167297363281 0.4332382380962372
19.23712158203125 -15.327204704284668 0.41308334469795227
19.234922409057617 -15.519609451293945 0.3948604464530945
19.222633361816406 -15.705660820007324 0.3780551254749298
19.219472885131836 -15.900995254516602 0.3594154417514801
19.298995971679688 -16.167551040649414 0.3263009190559387
19.2557373046875 -16.333707809448242 0.31388092041015625
19.26380729675293 -16.5451602935791 0.2923232913017273
19.287208557128906 -16.77228546142578 0.2677443027496338
12.821558952331543 12.09294319152832 1.7196943759918213
12.879984855651855 11.999845504760742 1.7203837633132935
12.88728141784668 11.860028266906738 1.7285311222076416
12.952194213867188 11.774076461791992 1.728022813796997
14.11486530303955 12.674184799194336 1.5665844678878784
14.402604103088379 12.617362976074219 1.5436536073684692
13.14750862121582 11.376049995422363 1.7343822717666626
13.123862266540527 11.215751647949219 1.7461280822753906
13.161035537719727 11.108757019042969 1.7489632368087769
13.211133003234863 11.013185501098633 1.7498358488082886
13.244441986083984 10.904146194458008 1.7529927492141724
13.27999496459961 10.797621726989746 1.755712628364563
13.304667472839355 10.682978630065918 1.7598503828048706
13.32999324798584 10.56967544555664 1.7637702226638794
13.388082504272461 10.48281478881836 1.7629868984222412
13.414942741394043 10.371925354003906 1.766466498374939
13.466228485107422 10.280402183532715 1.7664391994476318
13.488324165344238 10.167098999023438 1.7703547477722168
13.521500587463379 10.062812805175781 1.7726249694824219
13.566720008850098 9.96791934967041 1.7731356620788574
13.604043960571289 9.867594718933105 1.774631381034851
13.63984203338623 9.766609191894531 1.7762342691421509
13.670855522155762 9.66268539428711 1.7783862352371216
13.715781211853027 9.568985939025879 1.7785511016845703
13.756797790527344 9.472843170166016 1.7791528701782227
13.789755821228027 9.371526718139648 1.7807453870773315
13.823638916015625 9.271268844604492 1.7821146249771118
13.861784934997559 9.174240112304688 1.7828171253204346
13.884285926818848 9.067306518554688 1.7855111360549927
13.912680625915527 8.964749336242676 1.7873178720474243
13.96801471710205 8.879781723022461 1.7854599952697754
14.0026273727417 8.7817964553833 1.7862613201141357
14.035717010498047 8.683196067810059 1.787170648574829
14.074913024902344 8.588662147521973 1.7871872186660767
14.121138572692871 8.49858570098877 1.7861963510513306
14.155681610107422 8.4016695022583 1.7866498231887817
14.199858665466309 8.31067180633545 1.7857601642608643
14.225378036499023 8.209014892578125 1.7872121334075928
14.272642135620117 8.120136260986328 1.7857543230056763
14.308084487915039 8.024662971496582 1.7857459783554077
14.442895889282227 7.984360694885254 1.7728431224822998
14.954673767089844 8.148130416870117 1.7114392518997192
27.44623374938965 14.738703727722168 0.11322388052940369
27.461904525756836 14.531044960021973 0.11919889599084854
27.483112335205078 14.327422142028809 0.12427946925163269
27.54086685180664 14.14360523223877 0.12452037632465363
27.549524307250977 13.935395240783691 0.13084496557712555
27.534435272216797 13.716532707214355 0.1399984210729599
27.597984313964844 13.537765502929688 0.13899637758731842
27.720321655273438 13.387687683105469 0.13040924072265625
27.986318588256836 13.305307388305664 0.10357318818569183
19.26272201538086 0.754879891872406 1.2781319618225098
19.2379207611084 0.6357642412185669 1.2791472673416138
19.332439422607422 0.520223081111908 1.2654556035995483
12.876930236816406 -0.6816964149475098 2.0326919555664062
12.860414505004883 -0.7599632740020752 2.032487392425537
12.863229751586914 -0.8393436074256897 2.029815673828125
12.695509910583496 -1.456681251525879 2.0301730632781982
12.61225414276123 -1.525597095489502 2.037858009338379
20.102191925048828 -6.315862655639648 0.9034456610679626
20.15714454650879 -6.469334125518799 0.8879087567329407
20.150653839111328 -6.603958606719971 0.8805931806564331
20.14702606201172 -6.740005970001221 0.8727570176124573
18.97124671936035 -6.476546764373779 1.0259575843811035
18.97577476501465 -6.608432292938232 1.0172332525253296
18.94856071472168 -6.729669570922852 1.0127681493759155
18.94015121459961 -6.857910633087158 1.005585789680481
19.199560165405273 -7.354508399963379 0.9433899521827698
18.993000030517578 -7.409440994262695 0.9634330868721008
18.951705932617188 -8.34841537475586 0.9030425548553467
18.995695114135742 -8.507438659667969 0.8866323828697205
19.019493103027344 -8.65869140625 0.8729533553123474
19.1969051361084 -8.882146835327148 0.8367055654525757
19.298702239990234 -9.073518753051758 0.8111642599105835
20.670412063598633 -13.026176452636719 0.3410082161426544
20.41262435913086 -13.039618492126465 0.3665581941604614
20.107215881347656 -13.019159317016602 0.3999269902706146
19.856698989868164 -13.03078842163086 0.42466118931770325
19.64724349975586 -13.066729545593262 0.4428822100162506
19.45618438720703 -13.112777709960938 0.4581962525844574
19.30295181274414 -13.182684898376465 0.4673738181591034
19.231904983520508 -13.308154106140137 0.4630078971385956
19.16410255432129 -13.4360933303833 0.45797663927078247
19.42345428466797 -13.796648025512695 0.39830338954925537
19.317928314208984 -13.901047706604004 0.3990321755409241
19.201444625854492 -13.997086524963379 0.40152880549430847
19.212848663330078 -14.186976432800293 0.3823205232620239
19.217084884643555 -14.373376846313477 0.36404186487197876
19.22922706604004 -14.56754207611084 0.3441264033317566
19.227123260498047 -14.752747535705566 0.32635849714279175
19.214073181152344 -14.931180953979492 0.3102014362812042
19.222909927368164 -15.128390312194824 0.28997042775154114
19.230815887451172 -15.326886177062988 0.2695870101451874
19.24008560180664 -15.528535842895508 0.24864467978477478
19.21921157836914 -15.707679748535156 0.2327093631029129
19.20448875427246 -15.893467903137207 0.21540609002113342
19.22616958618164 -16.111482620239258 0.19129250943660736
19.242870330810547 -16.32779312133789 0.16770261526107788
19.270402908325195 -16.555889129638672 0.14177729189395905
12.769194602966309 12.213662147521973 1.6105326414108276
12.82773208618164 12.12010669708252 1.6114650964736938
12.938624382019043 12.075773239135742 1.604071021080017
12.896058082580566 11.889123916625977 1.6206121444702148
12.978041648864746 11.818501472473145 1.6175360679626465
12.954018592834473 11.652316093444824 1.630785584449768
13.014601707458496 11.563409805297852 1.6307852268218994
13.052181243896484 11.45453929901123 1.634210467338562
13.115192413330078 11.368416786193848 1.6336255073547363
13.105945587158203 11.220575332641602 1.6439214944839478
13.144692420959473 11.114967346191406 1.64677095413208
13.19636344909668 11.020767211914062 1.6475515365600586
13.235878944396973 10.916869163513184 1.650050401687622
13.266145706176758 10.806000709533691 1.6538115739822388
13.305614471435547 10.703264236450195 1.656076192855835
13.325657844543457 10.585620880126953 1.6611027717590332
13.368988990783691 10.487139701843262 1.6625577211380005
13.406903266906738 10.384873390197754 1.664701223373413
13.44880199432373 10.286157608032227 1.6661489009857178
13.479689598083496 10.179535865783691 1.6690959930419922
13.510575294494629 10.073515892028809 1.671926498413086
13.554266929626465 9.977508544921875 1.6727873086929321
13.577202796936035 9.866744041442871 1.6765410900115967
13.625118255615234 9.774601936340332 1.6765848398208618
13.665929794311523 9.677648544311523 1.6775513887405396
13.702810287475586 9.578286170959473 1.6789792776107788
13.740621566772461 9.479963302612305 1.6801713705062866
13.77774429321289 9.381534576416016 1.6813606023788452
13.81829833984375 9.285775184631348 1.6819640398025513
13.863164901733398 9.193163871765137 1.6818645000457764
13.881650924682617 9.08349323272705 1.6853768825531006
13.92101001739502 8.987947463989258 1.6858543157577515
13.96474552154541 8.89546012878418 1.6856263875961304
13.986008644104004 8.789033889770508 1.688435435295105
14.025062561035156 8.694192886352539 1.6886684894561768
14.07280158996582 8.604901313781738 1.6876084804534912
14.11231803894043 8.510732650756836 1.687597632408142
14.15291690826416 8.417418479919434 1.6873480081558228
14.19118881225586 8.322919845581055 1.687328815460205
14.219378471374512 8.222798347473145 1.6885995864868164
14.254638671875 8.127070426940918 1.6888090372085571
14.30224609375 8.038515090942383 1.6872467994689941
14.371888160705566 7.962191581726074 1.6826106309890747
15.876720428466797 8.543290138244629 1.4885605573654175
19.255704879760742 0.7721328735351562 1.1632052659988403
19.242908477783203 0.6534428000450134 1.1628634929656982
19.29283905029297 0.5367009043693542 1.1543673276901245
12.884747505187988 -0.6695455312728882 1.9543530941009521
12.870283126831055 -0.7479849457740784 1.9539597034454346
12.866230010986328 -0.8269733786582947 1.9521454572677612
19.72138023376465 -6.044119834899902 0.8396020531654358
19.44905662536621 -6.091508388519287 0.8703153729438782
19.202392578125 -6.143941879272461 0.8974634408950806
19.043428421020508 -6.222206115722656 0.9121471643447876
18.957551956176758 -6.323211193084717 0.9163545966148376
18.951826095581055 -6.450859069824219 0.9089764356613159
18.917160034179688 -6.568925380706787 0.9056444764137268
18.90604591369629 -6.695411682128906 0.8988012671470642
18.9024715423584 -6.825038433074951 0.890736997127533
18.90452766418457 -6.957270622253418 0.8817194700241089
18.907522201538086 -7.090481758117676 0.8724237680435181
18.898483276367188 -7.219749927520752 0.864747941493988
18.924577713012695 -7.363186836242676 0.8517726063728333
18.90724754333496 -7.49043083190918 0.8450343608856201
18.909278869628906 -7.625892162322998 0.8353012204170227
18.894775390625 -7.7552666664123535 0.827875018119812
18.907733917236328 -7.8965888023376465 0.8162211179733276
18.930601119995117 -8.043010711669922 0.8029189705848694
18.843374252319336 -8.280590057373047 0.795812726020813
18.78914451599121 -8.394792556762695 0.7937020659446716
18.974130630493164 -8.617610931396484 0.7551878690719604
18.956514358520508 -8.750428199768066 0.74716717004776
18.972055435180664 -8.899341583251953 0.7339321970939636
18.961441040039062 -9.036843299865723 0.7245268821716309
18.98105239868164 -9.189657211303711 0.710308849811554
19.217262268066406 -9.450145721435547 0.6623951196670532
20.67324447631836 -13.002896308898926 0.19515806436538696
20.47992706298828 -13.057575225830078 0.21120420098304749
20.11125373840332 -12.996971130371094 0.25676411390304565
19.884929656982422 -13.024579048156738 0.27864575386047363
19.627687454223633 -13.029098510742188 0.3058931827545166
19.45083999633789 -13.084567070007324 0.31961578130722046
19.294513702392578 -13.152305603027344 0.32987067103385925
19.215484619140625 -13.27208137512207 0.32683250308036804
19.231433868408203 -13.458372116088867 0.3072414994239807
19.231271743774414 -13.635050773620605 0.29016193747520447
19.209556579589844 -13.7977933883667 0.2765839397907257
19.25300407409668 -14.009134292602539 0.25132250785827637
19.230024337768555 -14.173945426940918 0.23744045197963715
19.22160530090332 -14.350845336914062 0.22073322534561157
19.224363327026367 -14.53773307800293 0.20175883173942566
19.225547790527344 -14.72519302368164 0.18277044594287872
19.21575927734375 -14.905933380126953 0.16546255350112915
19.23015785217285 -15.10728931427002 0.14347979426383972
19.232728958129883 -15.301371574401855 0.12331745028495789
19.250593185424805 -15.50971508026123 0.10002598166465759
17.01766586303711 -16.514041900634766 0.20677725970745087
13.249048233032227 12.978129386901855 1.3920241594314575
12.73883056640625 12.326398849487305 1.4896255731582642
12.792404174804688 12.227459907531738 1.491664171218872
12.768731117248535 12.056082725524902 1.5064505338668823
12.866133689880371 11.99988842010498 1.5009030103683472
12.883743286132812 11.86963176727295 1.5084731578826904
13.005234718322754 11.83515739440918 1.498803973197937
14.075303077697754 12.497295379638672 1.3448708057403564
14.258132934570312 12.504331588745117 1.3258476257324219
13.113537788391113 11.359195709228516 1.5208604335784912
13.097471237182617 11.205634117126465 1.5329138040542603
13.14522647857666 11.107795715332031 1.5345607995986938
13.198371887207031 11.014880180358887 1.535233736038208
13.22482967376709 10.900262832641602 1.5400255918502808
13.28271198272705 10.812054634094238 1.539718747138977
13.294367790222168 10.686853408813477 1.5465738773345947
13.343860626220703 10.5927734375 1.547352910041809
13.368485450744629 10.47950267791748 1.5518999099731445
13.408707618713379 10.379087448120117 1.553889513015747
13.442682266235352 10.27435302734375 1.5567295551300049
13.483799934387207 10.175568580627441 1.5583479404449463
13.522623062133789 10.075480461120605 1.5602070093154907
13.550332069396973 9.967653274536133 1.56365168094635
13.589276313781738 9.868610382080078 1.5652616024017334
13.620256423950195 9.764261245727539 1.5679700374603271
13.6642427444458 9.669648170471191 1.5685946941375732
13.696189880371094 9.56690502166748 1.5709315538406372
13.738832473754883 9.47201919555664 1.571548581123352
13.776723861694336 9.374177932739258 1.5727757215499878
13.817229270935059 9.278440475463867 1.5735079050064087
13.85707950592041 9.182557106018066 1.5742360353469849
13.885476112365723 9.079471588134766 1.5765607357025146
13.918968200683594 8.980149269104004 1.5780218839645386
13.945905685424805 8.877025604248047 1.5803440809249878
13.987231254577637 8.783408164978027 1.5804433822631836
14.027933120727539 8.689617156982422 1.5805385112762451
14.066317558288574 8.594619750976562 1.5808762311935425
14.098115921020508 8.495893478393555 1.5820764303207397
14.149706840515137 8.409265518188477 1.5803017616271973
14.19049072265625 8.316302299499512 1.5800073146820068
14.225513458251953 8.220173835754395 1.580452561378479
14.249545097351074 8.118034362792969 1.5823843479156494
14.301408767700195 8.031943321228027 1.5802141427993774
14.389213562011719 7.96570348739624 1.5728118419647217
14.940980911254883 8.151993751525879 1.4990328550338745
15.256093978881836 8.203052520751953 1.4592636823654175
19.236644744873047 0.7656733989715576 1.0391688346862793
19.227773666381836 0.647239625453949 1.0384037494659424
19.271663665771484 0.5304151773452759 1.0304112434387207
12.912057876586914 -0.6750524640083313 1.8657855987548828
12.871841430664062 -0.7521548271179199 1.8689805269241333
12.860828399658203 -0.830705463886261 1.8681102991104126
27.871397018432617 -5.81271505355835 -0.3549917936325073
27.81243133544922 -5.978762626647949 -0.35547706484794617
27.73700714111328 -6.1408843994140625 -0.3537291884422302
19.895505905151367 -5.970550060272217 0.6858412027359009
19.481414794921875 -5.976894855499268 0.7391916513442993
19.22200584411621 -6.026667594909668 0.7696950435638428
19.05890655517578 -6.104287147521973 0.7858855724334717
19.00756072998047 -6.216757297515869 0.785327136516571
18.89451789855957 -6.308451175689697 0.7939536571502686
18.842914581298828 -6.420067310333252 0.7932775020599365
18.857046127319336 -6.554364204406738 0.7825669646263123
18.846906661987305 -6.680809497833252 0.775385320186615
18.84616470336914 -6.811079502105713 0.7666416764259338
18.84081268310547 -6.940225124359131 0.75845867395401
18.840145111083984 -7.07165002822876 0.7494185566902161
18.83302116394043 -7.201207637786865 0.7412247061729431
18.839771270751953 -7.336694240570068 0.7307508587837219
18.860286712646484 -7.4783711433410645 0.717991054058075
18.830204010009766 -7.60057258605957 0.712909996509552
18.871654510498047 -7.752399921417236 0.6965681314468384
18.86172103881836 -7.884028911590576 0.6880549192428589
18.873647689819336 -8.025510787963867 0.6759670376777649
18.882726669311523 -8.166651725769043 0.6641542315483093
18.86994171142578 -8.299044609069824 0.6556209921836853
18.895090103149414 -8.448958396911621 0.6409276127815247
18.922706604003906 -8.601133346557617 0.6256463527679443
18.915918350219727 -8.738609313964844 0.6156550645828247
18.928756713867188 -8.885998725891113 0.6023572087287903
18.923519134521484 -9.025782585144043 0.5917761325836182
18.90391731262207 -9.159364700317383 0.5833441615104675
18.953529357910156 -9.327566146850586 0.5635430812835693
18.98053741455078 -9.486104011535645 0.5471756458282471
16.557527542114258 -8.402673721313477 0.9307112097740173
16.47365379333496 -8.487750053405762 0.9336792230606079
16.72519302368164 -8.747756958007812 0.8813754916191101
16.619386672973633 -8.95412540435791 0.876305878162384
16.649742126464844 -9.102875709533691 0.8597435355186462
16.35701560974121 -9.0737886428833 0.8970381617546082
16.306730270385742 -9.177334785461426 0.8938202857971191
16.24203872680664 -9.272758483886719 0.8929284811019897
16.216176986694336 -9.390542030334473 0.8853675723075867
16.334510803222656 -9.593536376953125 0.8531063199043274
16.20869255065918 -9.654047012329102 0.8622431755065918
20.051197052001953 -12.966832160949707 0.1087242066860199
19.937725067138672 -13.067872047424316 0.11185696721076965
19.616941452026367 -13.030627250671387 0.15173198282718658
19.456584930419922 -13.097111701965332 0.16327613592147827
19.279813766479492 -13.15097713470459 0.17778190970420837
19.21053695678711 -13.277408599853516 0.17296677827835083
19.199583053588867 -13.444906234741211 0.15744523704051971
19.23004722595215 -13.643105506896973 0.13413001596927643
19.18971824645996 -13.792536735534668 0.1234336867928505
19.193052291870117 -13.974590301513672 0.10449907928705215
12.798959732055664 12.852481842041016 1.335413932800293
12.703312873840332 12.601168632507324 1.3649262189865112
12.697186470031738 12.441781997680664 1.3780990839004517
12.739483833312988 12.331246376037598 1.382460117340088
12.662604331970215 12.107532501220703 1.4076272249221802
12.7183256149292 12.012614250183105 1.4092222452163696
12.88940715789795 12.025750160217285 1.3906058073043823
12.913779258728027 11.90142822265625 1.3974828720092773
12.995059967041016 11.83001708984375 1.3943712711334229
13.00661849975586 11.695703506469727 1.403143286705017
13.080113410949707 11.334247589111328 1.421754002571106
13.090335845947266 11.20350170135498 1.430033802986145
13.13959789276123 11.106996536254883 1.431586742401123
13.18436336517334 11.007128715515137 1.4337704181671143
13.224573135375977 10.903974533081055 1.4365862607955933
13.267860412597656 10.803871154785156 1.4387632608413696
13.28955078125 10.686863899230957 1.4443761110305786
13.324288368225098 10.581097602844238 1.4476957321166992
13.359009742736816 10.475920677185059 1.4508864879608154
13.403923988342285 10.379215240478516 1.4522876739501953
13.426883697509766 10.26608657836914 1.4571349620819092
13.471124649047852 10.169798851013184 1.4584027528762817
13.51150894165039 10.070982933044434 1.4601781368255615
13.548794746398926 9.970288276672363 1.4623345136642456
13.586957931518555 9.870680809020996 1.4642317295074463
13.617965698242188 9.766355514526367 1.46715247631073
13.65306282043457 9.665457725524902 1.4693015813827515
13.696375846862793 9.570745468139648 1.4700349569320679
13.731695175170898 9.470796585083008 1.471921443939209
13.770404815673828 9.373563766479492 1.4731616973876953
13.801854133605957 9.271785736083984 1.4754290580749512
13.840839385986328 9.175453186035156 1.4764058589935303
13.887459754943848 9.084420204162598 1.4760886430740356
13.906826972961426 8.975948333740234 1.479897379875183
13.941278457641602 8.877701759338379 1.4812520742416382
13.982606887817383 8.784117698669434 1.481440782546997
14.016568183898926 8.686179161071777 1.4826596975326538
14.06593132019043 8.597979545593262 1.4814152717590332
14.093510627746582 8.496699333190918 1.4834048748016357
14.142535209655762 8.408580780029297 1.4820200204849243
14.185877799987793 8.317170143127441 1.4814077615737915
14.21060562133789 8.215118408203125 1.4835186004638672
14.244953155517578 8.11896800994873 1.4840681552886963
14.29162311553955 8.029991149902344 1.4826620817184448
14.384571075439453 7.966687202453613 1.474214792251587
14.844510078430176 8.103033065795898 1.4107266664505005
15.255117416381836 8.20631217956543 1.3548270463943481
14.713446617126465 7.683958053588867 1.4462559223175049
19.24155044555664 0.7700347900390625 0.9222040176391602
19.236656188964844 0.6517033576965332 0.9209559559822083
19.254793167114258 0.534119188785553 0.916354775428772
12.892600059509277 -0.6715042591094971 1.7904990911483765
12.857366561889648 -0.7487848997116089 1.7932000160217285
12.866127014160156 -0.8285183310508728 1.7895333766937256
19.783061981201172 -5.9321370124816895 0.5777316093444824
19.476360321044922 -5.970744609832764 0.6168730854988098
19.20487403869629 -6.016757965087891 0.6506624221801758
19.077716827392578 -6.1057939529418945 0.6620573997497559
18.84395408630371 -6.158782482147217 0.6900829672813416
18.818574905395508 -6.278622627258301 0.6855189204216003
18.81397247314453 -6.405715465545654 0.6775704622268677
18.80757713317871 -6.532665729522705 0.6697637438774109
18.815248489379883 -6.665063381195068 0.6595940589904785
18.81548500061035 -6.795451641082764 0.650448739528656
18.815757751464844 -6.926436424255371 0.6411490440368652
18.81327247619629 -7.056987285614014 0.6321384906768799
18.81635856628418 -7.190240859985352 0.6220861077308655
18.8231201171875 -7.325592994689941 0.611285924911499
18.817895889282227 -7.45692777633667 0.6022549271583557
18.825517654418945 -7.594025611877441 0.5909937620162964
18.842226028442383 -7.735628604888916 0.5780906677246094
18.836912155151367 -7.868958473205566 0.5685924887657166
18.860700607299805 -8.015276908874512 0.5541819334030151
18.857980728149414 -8.151201248168945 0.5439237356185913
18.87150001525879 -8.294954299926758 0.5308292508125305
18.871320724487305 -8.43353271484375 0.5198098421096802
18.88275146484375 -8.57814884185791 0.5066943168640137
18.879642486572266 -8.717005729675293 0.49580666422843933
18.909557342529297 -8.87210750579834 0.47923487424850464
19.196218490600586 -9.150851249694824 0.4194401800632477
19.137527465820312 -9.267549514770508 0.4171653389930725
18.93439483642578 -9.313188552856445 0.4391558766365051
16.639537811279297 -8.31190013885498 0.8156160712242126
16.56053924560547 -8.399932861328125 0.8180309534072876
16.455595016479492 -8.474186897277832 0.8248127102851868
16.24960708618164 -8.494805335998535 0.8488888740539551
16.700748443603516 -8.861649513244629 0.7599610686302185
16.200027465820312 -8.723944664001465 0.8347464799880981
15.96366024017334 -8.723593711853027 0.8641860485076904
16.162818908691406 -8.961777687072754 0.8178854584693909
16.178691864013672 -9.100958824157715 0.8031920790672302
16.215782165527344 -9.253411293029785 0.7845615744590759
16.19085693359375 -9.371504783630371 0.7766361236572266
16.107120513916016 -9.455615997314453 0.7789866924285889
16.108753204345703 -9.590121269226074 0.76607346534729
16.012859344482422 -9.66677188873291 0.7704082131385803
12.622598648071289 12.661966323852539 1.263536810874939
12.653966903686523 12.538956642150879 1.270538091659546
12.695637702941895 12.427133560180664 1.2754334211349487
12.746390342712402 12.324918746948242 1.2784827947616577
12.764115333557129 12.191733360290527 1.2874600887298584
12.773481369018555 12.051990509033203 1.2977598905563354
12.841798782348633 11.968692779541016 1.2971093654632568
12.886969566345215 11.8641939163208 1.3005447387695312
12.907148361206055 11.737581253051758 1.3083387613296509
12.975661277770996 11.655550956726074 1.307273507118225
12.996207237243652 11.531012535095215 1.3146699666976929
13.04404067993164 11.431488990783691 1.3170361518859863
13.049930572509766 11.296128273010254 1.3266880512237549
13.099853515625 11.199775695800781 1.3283876180648804
13.14378547668457 11.09875774383545 1.331011414527893
13.184688568115234 10.99571704864502 1.3340303897857666
13.224824905395508 10.892590522766113 1.3370459079742432
13.258811950683594 10.785004615783691 1.3409903049468994
13.291207313537598 10.676793098449707 1.345066785812378
13.33597469329834 10.579059600830078 1.3468774557113647
13.362101554870605 10.467118263244629 1.3517504930496216
13.403820037841797 10.367989540100098 1.3538219928741455
13.44325065612793 10.267539978027344 1.3561573028564453
13.474836349487305 10.161623001098633 1.359692096710205
13.508013725280762 10.057479858398438 1.3628246784210205
13.541221618652344 9.953897476196289 1.3658218383789062
13.587302207946777 9.86018180847168 1.3665412664413452
13.611800193786621 9.751266479492188 1.3707393407821655
13.66136360168457 9.660733222961426 1.3706469535827637
13.692455291748047 9.557477951049805 1.3735013008117676
13.726875305175781 9.457014083862305 1.3756821155548096
13.76221752166748 9.357600212097168 1.3775923252105713
13.805910110473633 9.264183044433594 1.3780200481414795
13.847322463989258 9.169486045837402 1.3787124156951904
13.869844436645508 9.062702178955078 1.3823643922805786
13.910733222961426 8.968335151672363 1.3829154968261719
13.954331398010254 8.875935554504395 1.3829230070114136
13.988926887512207 8.778069496154785 1.3842756748199463
14.016109466552734 8.67593765258789 1.386706829071045
14.062015533447266 8.585680961608887 1.3860260248184204
14.102250099182129 8.492117881774902 1.386151671409607
14.135903358459473 8.394840240478516 1.3872206211090088
14.182572364807129 8.305480003356934 1.3861181735992432
14.200366020202637 8.199509620666504 1.3894864320755005
14.238057136535645 8.105399131774902 1.3895970582962036
14.284632682800293 8.01646614074707 1.3882091045379639
14.429473876953125 7.9819464683532715 1.371311068534851
14.764899253845215 8.049825668334961 1.324575662612915
15.282315254211426 8.210962295532227 1.2495648860931396
19.215059280395508 0.7596474289894104 0.8128069043159485
19.22492790222168 0.6419807076454163 0.8094336986541748
19.263744354248047 0.5250311493873596 0.8016939759254456
12.888303756713867 -0.6778037548065186 1.7150835990905762
12.861934661865234 -0.755565881729126 1.7166367769241333
12.874579429626465 -0.8355874419212341 1.7122997045516968
19.637981414794922 -5.899026393890381 0.478773832321167
19.41016387939453 -5.960769176483154 0.5069229602813721
19.1163330078125 -5.999235153198242 0.5457932949066162
18.921600341796875 -6.0659966468811035 0.5687224864959717
18.825401306152344 -6.162874221801758 0.5756708383560181
18.78872299194336 -6.278842449188232 0.5728623270988464
18.781261444091797 -6.4048004150390625 0.5651651620864868
18.862564086914062 -6.562067031860352 0.54277503490448
18.812240600585938 -6.6743268966674805 0.5417952537536621
18.794706344604492 -6.798316478729248 0.5353055000305176
18.795827865600586 -6.929519176483154 0.5255925059318542
18.79326820373535 -7.059952259063721 0.5163334608078003
18.79442596435547 -7.192381381988525 0.506300151348114
18.82044219970703 -7.335136413574219 0.4919547140598297
18.79397201538086 -7.4580769538879395 0.4862118065357208
18.810678482055664 -7.598731994628906 0.4730775058269501
18.828187942504883 -7.740623950958252 0.4596230983734131
18.843746185302734 -7.882637977600098 0.4463108777999878
18.832809448242188 -8.014305114746094 0.4373093843460083
18.817337036132812 -8.144566535949707 0.42892059683799744
18.844377517700195 -8.294041633605957 0.4131079912185669
16.456998825073242 -7.364532947540283 0.8113239407539368
16.439926147460938 -7.4784135818481445 0.8041659593582153
16.335981369018555 -7.552573204040527 0.8118818998336792
16.347103118896484 -7.6799187660217285 0.7996124625205994
16.449995040893555 -7.851932048797607 0.771191418170929
18.987930297851562 -9.206609725952148 0.3169868290424347
16.621992111206055 -8.186199188232422 0.7193739414215088
16.497751235961914 -8.251320838928223 0.7300546765327454
16.392723083496094 -8.325067520141602 0.7373360991477966
16.4586238861084 -8.48609447479248 0.7142569422721863
16.415508270263672 -8.591913223266602 0.7103297710418701
16.188518524169922 -8.600229263305664 0.739173948764801
16.10639190673828 -8.68388557434082 0.7421495318412781
15.999585151672363 -8.753589630126953 0.749514639377594
16.2198429107666 -9.003963470458984 0.6976292729377747
16.28011131286621 -9.16868782043457 0.6743164658546448
16.037931442260742 -9.162554740905762 0.7059522867202759
15.985318183898926 -9.26321792602539 0.703006386756897
16.104928970336914 -9.46514892578125 0.6682253479957581
16.069087982177734 -9.577390670776367 0.6618137955665588
16.085723876953125 -9.721728324890137 0.645507276058197
12.604291915893555 12.661346435546875 1.1576073169708252
12.648360252380371 12.551017761230469 1.1625193357467651
12.687309265136719 12.436464309692383 1.1682534217834473
12.72248363494873 12.319148063659668 1.1745368242263794
12.759564399719238 12.204606056213379 1.1802687644958496
12.797880172729492 12.092113494873047 1.1855865716934204
12.825885772705078 11.970824241638184 1.1926952600479126
12.865997314453125 11.861729621887207 1.1973217725753784
12.905986785888672 11.75325870513916 1.2018077373504639
12.945131301879883 11.644742965698242 1.206291913986206
12.983434677124023 11.536189079284668 1.2107739448547363
13.014939308166504 11.422375679016113 1.216361165046692
13.042546272277832 11.306015014648438 1.2225018739700317
13.085017204284668 11.203269004821777 1.2257342338562012
13.12671947479248 11.100427627563477 1.228963851928711
13.159294128417969 10.99051284790039 1.2337158918380737
13.19865608215332 10.88691520690918 1.2370795011520386
13.238780975341797 10.78449821472168 1.2401628494262695
13.273517608642578 10.67827320098877 1.2440768480300903
13.297369956970215 10.564019203186035 1.2497978210449219
13.339802742004395 10.465153694152832 1.2520405054092407
13.378393173217773 10.363739013671875 1.2548365592956543
13.41702938079834 10.26284408569336 1.2574907541275024
13.452563285827637 10.160075187683105 1.260560393333435
13.487340927124023 10.05725383758545 1.2636282444000244
13.517380714416504 9.951452255249023 1.2673921585083008
13.548232078552246 9.846823692321777 1.2708756923675537
13.59118366241455 9.751425743103027 1.272120475769043
13.631860733032227 9.65472412109375 1.2736406326293945
13.669427871704102 9.556188583374023 1.2755776643753052
13.703857421875 9.455865859985352 1.277931809425354
13.7408447265625 9.357709884643555 1.2797229290008545
13.77550220489502 9.25834846496582 1.2817916870117188
13.811107635498047 9.160008430480957 1.2835770845413208
13.853483200073242 9.06645679473877 1.284094214439392
13.882756233215332 8.96467399597168 1.2867169380187988
13.92215633392334 8.86978530883789 1.287508249282837
13.960079193115234 8.774222373962402 1.2884365320205688
13.997353553771973 8.67852783203125 1.2893610000610352
14.036515235900879 8.584253311157227 1.2898584604263306
14.07504653930664 8.489823341369629 1.29035222530365
14.116353034973145 8.397266387939453 1.290276288986206
14.158760070800781 8.305522918701172 1.2899125814437866
14.20485782623291 8.21605110168457 1.2888363599777222
14.234912872314453 8.117498397827148 1.2903034687042236
14.28672981262207 8.031496047973633 1.2880829572677612
14.400367736816406 7.979704856872559 1.275640845298767
14.729355812072754 8.04448127746582 1.2279667854309082
15.24444580078125 8.204964637756348 1.1500942707061768
19.229087829589844 0.7743709087371826 0.6942819952964783
15.743725776672363 0.5373945832252502 1.225765347480774
19.274917602539062 0.5395247340202332 0.6833735704421997
12.870719909667969 -0.745759904384613 1.637453317642212
12.876495361328125 -0.8253804445266724 1.6340826749801636
19.192527770996094 -5.878670692443848 0.4210177958011627
19.035076141357422 -5.958510875701904 0.43872305750846863
18.883955001831055 -6.038751125335693 0.45535561442375183
18.80015754699707 -6.139434337615967 0.46061161160469055
18.771099090576172 -6.257744789123535 0.456525981426239
16.501745223999023 -5.613970756530762 0.8327677249908447
18.82453727722168 -6.533487796783447 0.4289788007736206
16.657995223999023 -5.896342754364014 0.7895883917808533
16.539424896240234 -5.968903064727783 0.8013715147972107
18.78882598876953 -6.911434173583984 0.4061892032623291
18.80944061279297 -7.050447463989258 0.3926895260810852
18.81245231628418 -7.183635234832764 0.38204848766326904
18.841217041015625 -7.327505111694336 0.3667716085910797
18.836790084838867 -7.459277629852295 0.35707008838653564
18.85251235961914 -7.599762439727783 0.3436862528324127
18.85077476501465 -7.733977794647217 0.3331703841686249
18.859025955200195 -7.873022556304932 0.320726603269577
18.86355209350586 -8.011303901672363 0.30875363945961
18.851680755615234 -8.143284797668457 0.2994978129863739
18.865100860595703 -8.286934852600098 0.28558382391929626
18.877466201782227 -8.431058883666992 0.27165868878364563
16.252851486206055 -7.378857612609863 0.729040801525116
16.281288146972656 -7.512721538543701 0.7135165929794312
16.222902297973633 -7.6069865226745605 0.713426947593689
16.2227783203125 -7.728837013244629 0.702716588973999
16.162246704101562 -7.8221659660339355 0.7027979493141174
16.707862854003906 -8.213297843933105 0.5924010276794434
16.591434478759766 -8.282991409301758 0.6021034717559814
16.473901748657227 -8.35112190246582 0.6119906306266785
16.437767028808594 -8.460128784179688 0.6068678498268127
16.514616012573242 -8.628417015075684 0.5807173848152161
16.40169906616211 -8.698098182678223 0.5895050168037415
16.10434341430664 -8.667572021484375 0.6326597929000854
16.34319496154785 -8.926054000854492 0.5756964683532715
16.200565338134766 -8.977807998657227 0.5898817777633667
16.36326026916504 -9.199830055236816 0.5464622974395752
16.443254470825195 -9.378229141235352 0.518262505531311
16.04595184326172 -9.282735824584961 0.5805914402008057
16.0861759185791 -9.438393592834473 0.5597169399261475
16.038599014282227 -9.543431282043457 0.5554294586181641
15.998787879943848 -9.653338432312012 0.5495169758796692
12.60973834991455 12.671248435974121 1.041662573814392
12.646163940429688 12.553240776062012 1.0484458208084106
12.683032035827637 12.436647415161133 1.0549414157867432
12.719660758972168 12.320761680603027 1.061292052268982
12.753917694091797 12.20352554321289 1.0679295063018799
12.79369068145752 12.092450141906738 1.0732707977294922
12.830413818359375 11.979318618774414 1.0790427923202515
12.874235153198242 11.873570442199707 1.0832276344299316
12.905540466308594 11.757073402404785 1.0897175073623657
12.940316200256348 11.644607543945312 1.0953415632247925
12.983817100524902 11.540705680847168 1.099086880683899
13.025044441223145 11.435399055480957 1.1031181812286377
13.062479972839355 11.32742691040039 1.1077253818511963
13.073533058166504 11.197540283203125 1.1172516345977783
13.122770309448242 11.101174354553223 1.1192518472671509
13.164484024047852 10.99891471862793 1.122551679611206
13.203149795532227 10.894670486450195 1.1262834072113037
13.23336410522461 10.784114837646484 1.131463885307312
13.26272201538086 10.67359733581543 1.1366440057754517
13.299744606018066 10.569896697998047 1.1402257680892944
13.343002319335938 10.471638679504395 1.1424965858459473
13.365222930908203 10.357488632202148 1.148546576499939
13.414834022521973 10.265104293823242 1.1493568420410156
13.440923690795898 10.155203819274902 1.1543864011764526
13.479652404785156 10.055425643920898 1.156937837600708
13.515275955200195 9.953791618347168 1.1599242687225342
13.549360275268555 9.851517677307129 1.16305410861969
13.582700729370117 9.749197006225586 1.1661823987960815
13.625792503356934 9.65427303314209 1.1674079895019531
13.662555694580078 9.555215835571289 1.1696536540985107
13.683150291442871 9.445392608642578 1.1746777296066284
13.729074478149414 9.353499412536621 1.1750152111053467
13.773566246032715 9.260842323303223 1.1754940748214722
13.805898666381836 9.160334587097168 1.1780219078063965
13.840828895568848 9.061944007873535 1.1799602508544922
13.88504409790039 8.96990966796875 1.18013334274292
13.905293464660645 8.862785339355469 1.1844172477722168
13.9490385055542 8.771018981933594 1.1844358444213867
13.988819122314453 8.676961898803711 1.1850382089614868
14.028815269470215 8.583261489868164 1.1854891777038574
14.069035530090332 8.48990535736084 1.1857880353927612
14.109489440917969 8.396883010864258 1.1859352588653564
14.152743339538574 8.305686950683594 1.185487151145935
14.195408821105957 8.214271545410156 1.1850335597991943
14.231473922729492 8.119214057922363 1.1856099367141724
14.27811336517334 8.03032398223877 1.1842588186264038
14.388201713562012 7.976651668548584 1.1719441413879395
14.737690925598145 8.052812576293945 1.118708610534668
15.239264488220215 8.206095695495605 1.0397353172302246
19.234806060791016 0.7789251208305359 0.5696595907211304
19.22303581237793 0.6603972911834717 0.5696744918823242
19.282594680786133 0.5440756678581238 0.558192789554596
12.87490463256836 -0.743365466594696 1.5539219379425049
12.867866516113281 -0.8221895098686218 1.5525554418563843
16.487646102905273 -3.111392021179199 0.880252480506897
16.541501998901367 -3.2268106937408447 0.865754246711731
16.541353225708008 -3.3322925567626953 0.8601635098457336
16.481599807739258 -3.4256484508514404 0.8644763827323914
16.46860122680664 -3.5285277366638184 0.8608368635177612
16.466524124145508 -3.633929491043091 0.8552455306053162
16.54747772216797 -3.758450984954834 0.8354880809783936
19.86764144897461 -5.81477165222168 0.19245262444019318
19.528751373291016 -5.845993518829346 0.24235403537750244
19.30532455444336 -5.9085001945495605 0.27229416370391846
19.129894256591797 -5.98350715637207 0.2939019203186035
18.850927352905273 -6.023567199707031 0.3336511552333832
18.791627883911133 -6.1320295333862305 0.33493366837501526
16.195756912231445 -5.395267963409424 0.7828484177589417
16.404781341552734 -5.577030181884766 0.737812876701355
16.29534149169922 -5.6516828536987305 0.7488341927528381
16.093555450439453 -5.692648887634277 0.7762321829795837
16.42814064025879 -5.924736022949219 0.7081335186958313
18.820066452026367 -6.918196201324463 0.2718680500984192
18.798080444335938 -7.041445732116699 0.2655526399612427
18.827808380126953 -7.184728145599365 0.2497924119234085
18.82338523864746 -7.315781593322754 0.23998655378818512
