# .PCD v0.7 - Point Cloud Data file format
VERSION 0.7
FIELDS x y z
SIZE 4 4 4
TYPE F F F
COUNT 1 1 1
WIDTH 853
HEIGHT 1
VIEWPOINT 0 0 0 1 0 0 0
POINTS 853
DATA ascii
33.549495697021484 3.752495527267456 2.2297024726867676
33.50712203979492 3.539802074432373 2.228062391281128
33.58271026611328 3.3396377563476562 2.221418619155884
33.63621139526367 3.1367287635803223 2.2156379222869873
33.657623291015625 2.930600643157959 2.211146116256714
33.66980743408203 2.7236814498901367 2.206989049911499
33.680721282958984 2.5167222023010254 2.2028279304504395
33.68537902832031 2.3093886375427246 2.1988773345947266
33.68177795410156 2.101656198501587 2.1952240467071533
12.095780372619629 0.6794971823692322 3.1154160499572754
12.09566879272461 0.6050868630409241 3.1140143871307373
33.68924331665039 1.4804108142852783 2.1831533908843994
12.662134170532227 0.477841854095459 3.0866925716400146
19.302213668823242 0.6105301976203918 2.797755718231201
33.72420883178711 0.8605882525444031 2.169386386871338
33.74365234375 0.653994083404541 2.1643412113189697
33.75583267211914 0.447113037109375 2.1595511436462402
33.764747619628906 0.2400917112827301 2.154844284057617
33.76939392089844 0.03297378122806549 2.1502649784088135
12.851329803466797 -0.06705256551504135 3.067172050476074
12.722739219665527 -0.14444401860237122 3.071143865585327
33.7896842956543 -0.588886559009552 2.1358935832977295
33.80222702026367 -0.7965452671051025 2.1307260990142822
11.516443252563477 -0.34289780259132385 3.1197214126586914
12.48247241973877 -0.4482116103172302 3.074901819229126
11.756782531738281 -0.4944566786289215 3.105694055557251
12.681452751159668 -0.6111999750137329 3.062385082244873
13.368674278259277 -0.7264794111251831 3.0295093059539795
12.843374252319336 -0.7770298719406128 3.0513415336608887
12.834308624267578 -0.8555329442024231 3.0498411655426025
33.8823127746582 -2.4654126167297363 2.0880215167999268
13.084617614746094 -1.0335839986801147 3.0344948768615723
12.451875686645508 -1.0605647563934326 3.0615243911743164
12.305791854858398 -1.1242166757583618 3.066307783126831
33.91423416137695 -3.306013584136963 2.0654876232147217
12.732099533081055 -1.3208225965499878 3.0426158905029297
12.698861122131348 -1.39617121219635 3.042100429534912
13.387548446655273 -1.5550001859664917 3.0078485012054443
13.435189247131348 -1.6441240310668945 3.0033938884735107
13.470348358154297 -1.732363224029541 2.9994843006134033
13.8533935546875 -1.8680529594421387 2.9791104793548584
11.84852409362793 -1.671961784362793 3.0717356204986572
13.833224296569824 -2.038447618484497 2.9752800464630127
34.00313949584961 -5.222169876098633 2.009988307952881
33.99885559082031 -5.4352216720581055 2.0041420459747314
34.00605773925781 -5.650547504425049 1.9976736307144165
34.003028869628906 -5.864638805389404 1.9916257858276367
34.01044464111328 -6.0810160636901855 1.9850006103515625
34.03220748901367 -6.300614356994629 1.9776020050048828
34.0417594909668 -6.518643379211426 1.9707188606262207
33.992095947265625 -6.725592136383057 1.966659665107727
33.90007781982422 -6.923784255981445 1.964630365371704
33.849910736083984 -7.1301589012146 1.9604934453964233
33.850215911865234 -7.347407341003418 1.9537948369979858
33.827693939208984 -7.560136795043945 1.9481568336486816
33.7979850769043 -7.771524429321289 1.9428094625473022
33.85540771484375 -8.003742218017578 1.9330207109451294
33.829715728759766 -8.217156410217285 1.927318811416626
34.04108810424805 -8.490006446838379 1.9095436334609985
34.055877685546875 -8.71599006652832 1.9015942811965942
34.093326568603516 -8.948813438415527 1.8923981189727783
34.08000183105469 -9.16919231414795 1.8857061862945557
34.072959899902344 -9.391868591308594 1.878611445426941
34.089454650878906 -9.621856689453125 1.8702175617218018
34.087135314941406 -9.847412109375 1.862705945968628
34.0814094543457 -10.072735786437988 1.8552852869033813
34.08567428588867 -10.301827430725098 1.847255825996399
34.10653305053711 -10.53695297241211 1.8382610082626343
34.13531494140625 -10.775727272033691 1.8287461996078491
34.13677978515625 -11.006977081298828 1.8205766677856445
34.140480041503906 -11.239899635314941 1.8121933937072754
34.1359748840332 -11.471056938171387 1.8041538000106812
34.153533935546875 -11.710679054260254 1.794832468032837
34.16471862792969 -11.949300765991211 1.7857505083084106
34.122520446777344 -12.170047760009766 1.7794643640518188
34.11174774169922 -12.402673721313477 1.7713849544525146
34.28856658935547 -12.705713272094727 1.7529239654541016
34.310638427734375 -12.95389461517334 1.7427936792373657
34.318843841552734 -13.198164939880371 1.7333158254623413
34.3253288269043 -13.443024635314941 1.723824381828308
34.34030532836914 -13.692527770996094 1.713747501373291
34.348876953125 -13.940842628479004 1.7039130926132202
34.33722686767578 -14.182154655456543 1.695105791091919
34.363494873046875 -14.440483093261719 1.6840424537658691
34.35665512084961 -14.686322212219238 1.6747382879257202
29.63338851928711 -12.883110046386719 1.9355236291885376
29.542621612548828 -13.059795379638672 1.9321905374526978
34.43232345581055 -15.47443962097168 1.6405863761901855
34.417335510253906 -15.722283363342285 1.6312735080718994
34.41780471801758 -15.978513717651367 1.6209444999694824
34.4362907409668 -16.244714736938477 1.6094322204589844
34.45819854736328 -16.514331817626953 1.597580075263977
34.47270584106445 -16.782207489013672 1.5860275030136108
34.47715759277344 -17.04689598083496 1.5749355554580688
34.43235397338867 -17.288524627685547 1.5666662454605103
34.349403381347656 -17.51165199279785 1.5605926513671875
34.30403137207031 -17.754610061645508 1.5521575212478638
34.25431442260742 -17.996273040771484 1.543880820274353
34.2214241027832 -18.247861862182617 1.5344651937484741
34.386085510253906 -18.60759735107422 1.512748122215271
34.15110397338867 -18.752330780029297 1.5155553817749023
34.50968933105469 -19.22580909729004 1.4813681840896606
34.44732666015625 -19.46906280517578 1.4731758832931519
34.508880615234375 -19.78428077697754 1.4570623636245728
34.51002502441406 -20.067358016967773 1.4445806741714478
34.539947509765625 -20.369449615478516 1.430105209350586
34.514320373535156 -20.640892028808594 1.4190118312835693
34.56008529663086 -20.957305908203125 1.4031676054000854
34.53520965576172 -21.23322296142578 1.3917089700698853
34.52772903442383 -21.52176856994629 1.3789640665054321
34.478328704833984 -21.785953521728516 1.368807077407837
34.53376388549805 -22.118732452392578 1.3515886068344116
34.56462860107422 -22.438873291015625 1.335781455039978
34.57366943359375 -22.747600555419922 1.3212288618087769
34.52289581298828 -23.01906394958496 1.3105087280273438
34.670291900634766 -23.426027297973633 1.286227822303772
34.727474212646484 -23.776437759399414 1.2677772045135498
34.76032257080078 -24.113630294799805 1.2507517337799072
34.7486686706543 -24.422842025756836 1.2365680932998657
34.80527877807617 -24.783193588256836 1.2174535989761353
34.80937194824219 -25.10953140258789 1.201751470565796
34.82526779174805 -25.447446823120117 1.1850045919418335
34.819862365722656 -25.772842407226562 1.1695362329483032
34.829341888427734 -26.1122989654541 1.1527929306030273
34.83674621582031 -26.45344352722168 1.1359659433364868
34.86738586425781 -26.81574058532715 1.117228627204895
34.883853912353516 -27.170820236206055 1.0992587804794312
34.89883041381836 -27.528343200683594 1.08114492893219
34.91462707519531 -27.890182495117188 1.0627140998840332
34.76816177368164 -28.12453842163086 1.0560474395751953
34.77305221557617 -28.4834041595459 1.0379821062088013
34.92929458618164 -28.971487045288086 1.008281946182251
34.90729522705078 -29.316810607910156 0.9916446805000305
34.924198150634766 -29.698518753051758 0.9717979431152344
34.94527816772461 -30.08804702758789 0.9513392448425293
34.895904541015625 -30.420564651489258 0.9360232949256897
34.92310333251953 -30.823627471923828 0.9145156741142273
34.962284088134766 -31.24213218688965 0.8917462229728699
34.984310150146484 -31.650217056274414 0.8699899315834045
34.953304290771484 -32.014564514160156 0.85212242603302
34.991607666015625 -32.446922302246094 0.8284246921539307
35.025177001953125 -32.88025665283203 0.804745078086853
30.30126953125 -28.797840118408203 1.1677824258804321
32.41101837158203 30.87386131286621 2.049959182739258
32.39436721801758 30.48133659362793 2.055959939956665
32.3389892578125 30.057518005371094 2.0636894702911377
32.4754524230957 29.815326690673828 2.061979293823242
32.504310607910156 29.476585388183594 2.0653610229492188
32.46995162963867 29.084606170654297 2.071655750274658
32.43425369262695 28.69614601135254 2.0778701305389404
32.57411575317383 28.465742111206055 2.0755488872528076
32.57317352294922 28.11454963684082 2.0798499584198
32.58513259887695 27.778060913085938 2.0834105014801025
32.61406707763672 27.4592227935791 2.0860438346862793
32.621883392333984 27.12574005126953 2.0895614624023438
32.63997268676758 26.803983688354492 2.0924746990203857
32.642154693603516 26.472326278686523 2.09602427482605
32.66802215576172 26.16289710998535 2.09834361076355
32.66859436035156 25.83616828918457 2.1017401218414307
32.68293762207031 25.52334213256836 2.1043808460235596
32.69546890258789 25.211923599243164 2.106997489929199
32.730064392089844 24.920080184936523 2.108480215072632
32.722373962402344 24.598739624023438 2.111827850341797
32.70396041870117 24.272476196289062 2.1155660152435303
32.54252624511719 23.844594955444336 2.1258223056793213
32.42890930175781 23.45709991455078 2.133739709854126
32.48905563354492 23.19849967956543 2.133516788482666
32.509681701660156 22.913562774658203 2.1350255012512207
32.574798583984375 22.66177749633789 2.1343929767608643
32.469181060791016 22.294095993041992 2.141519069671631
32.554683685302734 22.06031036376953 2.13976788520813
32.63438415527344 21.82353401184082 2.138200044631958
32.434688568115234 21.4033260345459 2.149334192276001
32.492332458496094 21.156522750854492 2.1485939025878906
32.48849105834961 20.871471405029297 2.150578498840332
32.55411148071289 20.632734298706055 2.1493074893951416
32.559574127197266 20.3574275970459 2.150695323944092
32.49314498901367 20.039812088012695 2.155268669128418
32.54442596435547 19.797014236450195 2.1544015407562256
32.610233306884766 19.564105987548828 2.1527960300445557
32.57292938232422 19.27109146118164 2.155789852142334
32.40812683105469 18.906259536743164 2.1644787788391113
32.71559143066406 18.81772232055664 2.151686191558838
32.643348693847656 18.510705947875977 2.1560187339782715
32.71772766113281 18.288665771484375 2.1536362171173096
32.81511306762695 18.079912185668945 2.1501400470733643
32.94190216064453 17.887338638305664 2.145242214202881
32.99531936645508 17.655231475830078 2.143587350845337
33.009124755859375 17.403099060058594 2.143643856048584
33.04591369628906 17.16436195373535 2.142590045928955
33.06233596801758 16.916269302368164 2.142380714416504
33.06714630126953 16.663673400878906 2.14262056350708
33.0692138671875 16.41121482849121 2.1429104804992676
33.072120666503906 16.160673141479492 2.143089532852173
33.08401107788086 15.915912628173828 2.142792224884033
33.12936019897461 15.68829345703125 2.140915632247925
33.09257125854492 15.423147201538086 2.142669200897217
33.1209831237793 15.189870834350586 2.141414165496826
33.139583587646484 14.953126907348633 2.140531539916992
33.15196228027344 14.714699745178223 2.139860153198242
33.15076446533203 14.471485137939453 2.139730930328369
33.1671142578125 14.237117767333984 2.1387429237365723
33.18459701538086 14.004260063171387 2.1376359462738037
33.19309616088867 13.768659591674805 2.136866569519043
33.209205627441406 13.537254333496094 2.1356866359710693
33.208885192871094 13.300225257873535 2.135180711746216
33.102783203125 13.022737503051758 2.1393826007843018
33.12687301635742 12.798189163208008 2.137645721435547
33.58757019042969 12.740042686462402 2.1161210536956787
33.68830490112305 12.542490005493164 2.1107780933380127
33.735328674316406 12.324975967407227 2.1077938079833984
33.73204803466797 12.089823722839355 2.107017993927002
33.7601432800293 11.866774559020996 2.10475754737854
33.74332046508789 11.62885856628418 2.104465961456299
33.74662780761719 11.39894962310791 2.1031997203826904
33.770198822021484 11.17665958404541 2.1009490489959717
33.780906677246094 10.950810432434082 2.099217653274536
33.79869079589844 10.727971076965332 2.0971014499664307
33.79020690917969 10.4976167678833 2.0961153507232666
33.799293518066406 10.273581504821777 2.0942676067352295
33.80976867675781 10.05068302154541 2.0922930240631104
33.831260681152344 9.831668853759766 2.0897531509399414
33.83692169189453 9.608673095703125 2.0878725051879883
33.84401321411133 9.386778831481934 2.0858640670776367
33.84965515136719 9.165157318115234 2.0838592052459717
33.85288619995117 8.943564414978027 2.0819027423858643
33.8740234375 8.727263450622559 2.079063653945923
33.88409423828125 8.5086030960083 2.0766689777374268
33.883052825927734 8.287773132324219 2.0747230052948
33.899044036865234 8.071674346923828 2.071932792663574
33.9000358581543 7.852533340454102 2.069770574569702
33.91033935546875 7.636096477508545 2.067117929458618
33.93682861328125 7.423672199249268 2.063654661178589
33.954166412353516 7.2095489501953125 2.0605506896972656
33.9427604675293 6.9898481369018555 2.058717727661133
33.95247268676758 6.775054931640625 2.05584454536438
33.96377182006836 6.560973644256592 2.052835702896118
33.96291732788086 6.344988822937012 2.050330877304077
33.98134231567383 6.132986545562744 2.0468661785125732
33.99253463745117 5.919969081878662 2.043675184249878
33.98761749267578 5.704561710357666 2.041177988052368
34.00895309448242 5.493898868560791 2.037388801574707
34.016143798828125 5.281194686889648 2.0341994762420654
34.02299880981445 5.068755149841309 2.0309653282165527
34.03544998168945 4.857418060302734 2.02740478515625
34.03866958618164 4.645036697387695 2.0242178440093994
34.048492431640625 4.433828830718994 2.0206568241119385
34.06889343261719 4.224151134490967 2.0165297985076904
34.07015609741211 4.012284278869629 2.013249397277832
33.52310562133789 3.7395095825195312 2.0360326766967773
33.512428283691406 3.5303497314453125 2.033252000808716
33.5660514831543 3.3279693126678467 2.0273375511169434
33.61745834350586 3.124969482421875 2.021458148956299
33.649723052978516 2.919907331466675 2.0164265632629395
33.667789459228516 2.71352219581604 2.012009859085083
33.675628662109375 2.5063560009002686 2.0080225467681885
33.673221588134766 2.298581838607788 2.004467487335205
11.96088981628418 0.74146568775177 3.0533998012542725
33.65758514404297 1.8830182552337646 1.9976996183395386
12.135540962219238 0.6029800176620483 3.0421743392944336
12.21677303314209 0.5319299697875977 3.036795139312744
33.68391036987305 1.263283133506775 1.984658122062683
12.779287338256836 0.39951997995376587 3.0062830448150635
33.72141647338867 0.8505879044532776 1.9746580123901367
33.724796295166016 0.6437027454376221 1.9703137874603271
33.755859375 0.43718358874320984 1.9645365476608276
33.75369644165039 0.23008649051189423 1.9603334665298462
33.75825500488281 0.023037079721689224 1.955733060836792
33.75654983520508 -0.18403394520282745 1.951378583908081
12.787113189697266 -0.1494339406490326 2.9944674968719482
12.726960182189941 -0.2268279790878296 2.9957494735717773
33.78973388671875 -0.8061857223510742 1.9360017776489258
33.79191970825195 -1.0136785507202148 1.9311847686767578
12.260282516479492 -0.4443816542625427 3.014002799987793
12.281196594238281 -0.5205901265144348 3.0111865997314453
12.935080528259277 -0.6277112364768982 2.9761853218078613
12.718497276306152 -0.6954638957977295 2.9853146076202393
12.844501495361328 -0.7813906669616699 2.9769773483276367
12.866291046142578 -0.8619633913040161 2.97391676902771
11.812847137451172 -0.8643800020217896 3.0260910987854004
33.87298583984375 -2.683737277984619 1.8869128227233887
12.63406753540039 -1.0803145170211792 2.9799251556396484
12.25318717956543 -1.1235671043395996 2.9976658821105957
33.903663635253906 -3.315034866333008 1.8690955638885498
12.756830215454102 -1.327683448791504 2.967386484146118
13.065017700195312 -1.4407798051834106 2.9491302967071533
13.329627990722656 -1.5527440309524536 2.933032274246216
13.364370346069336 -1.639946460723877 2.9289307594299316
33.95230484008789 -4.374697685241699 1.8380151987075806
12.325719833374023 -1.6664036512374878 2.9793901443481445
13.750914573669434 -1.9448206424713135 2.901348829269409
33.9829216003418 -5.016063213348389 1.818354606628418
33.98878860473633 -5.230191230773926 1.8118723630905151
33.98836898803711 -5.443791389465332 1.8056483268737793
33.99350357055664 -5.658731460571289 1.7990469932556152
33.99727249145508 -5.873941898345947 1.7924367189407349
29.29138946533203 -5.246435165405273 2.0416572093963623
34.01643371582031 -6.308044910430908 1.7783401012420654
34.035701751708984 -6.527866363525391 1.770633339881897
33.99576187133789 -6.7367143630981445 1.766089916229248
33.916378021240234 -6.937517166137695 1.7636524438858032
33.878807067871094 -7.14666748046875 1.7588495016098022
33.87604904174805 -7.363463878631592 1.7520453929901123
33.94010543823242 -7.595757961273193 1.741431474685669
33.94322967529297 -7.815452575683594 1.7341152429580688
33.92647171020508 -8.031102180480957 1.7278259992599487
34.00730514526367 -8.270905494689941 1.7159533500671387
34.030277252197266 -8.497974395751953 1.7072315216064453
34.028526306152344 -8.719691276550293 1.6998142004013062
34.08230209350586 -8.95667552947998 1.6891382932662964
34.08431625366211 -9.181147575378418 1.6813112497329712
34.08485412597656 -9.405981063842773 1.6734743118286133
34.10216522216797 -9.63632583618164 1.664572834968567
34.096832275390625 -9.861136436462402 1.6568808555603027
34.088104248046875 -10.085678100585938 1.6492924690246582
34.106571197509766 -10.319157600402832 1.6400212049484253
34.13108444213867 -10.55560302734375 1.6302868127822876
34.12731170654297 -10.784316062927246 1.6221070289611816
34.13911819458008 -11.018898963928223 1.612904667854309
34.12657165527344 -11.246536254882812 1.605041265487671
34.12197494506836 -11.477616310119629 1.5966057777404785
34.157371520996094 -11.723322868347168 1.585669994354248
34.14580535888672 -11.954062461853027 1.5774365663528442
34.11387634277344 -12.178391456604004 1.5703314542770386
34.10205841064453 -12.410629272460938 1.5619137287139893
34.25529479980469 -12.704970359802246 1.5433200597763062
34.298789978027344 -12.961076736450195 1.5312561988830566
34.305015563964844 -13.204569816589355 1.5213483572006226
34.309539794921875 -13.448627471923828 1.511425495147705
34.32626724243164 -13.698786735534668 1.5006252527236938
34.335655212402344 -13.947402000427246 1.4901533126831055
34.34881591796875 -14.198938369750977 1.4793193340301514
34.34914016723633 -14.446516036987305 1.4691636562347412
34.35321044921875 -14.696988105773926 1.4586458206176758
29.61724090576172 -12.886741638183594 1.7494850158691406
34.40986633300781 -15.223529815673828 1.4341228008270264
34.40568542480469 -15.474846839904785 1.4237293004989624
34.409690856933594 -15.73125171661377 1.4126770496368408
34.3928337097168 -15.97945499420166 1.4028427600860596
34.4139404296875 -16.246793746948242 1.3904082775115967
34.432151794433594 -16.51456069946289 1.378013014793396
34.437599182128906 -16.77791404724121 1.3663057088851929
34.46347427368164 -17.053024291992188 1.3531018495559692
34.453365325927734 -17.31205177307129 1.3421286344528198
34.380897521972656 -17.540752410888672 1.3351831436157227
34.32819747924805 -17.78023338317871 1.3268117904663086
34.378108978271484 -18.07453727722168 1.3113970756530762
34.34202575683594 -18.325483322143555 1.3016313314437866
34.409488677978516 -18.633697509765625 1.2846696376800537
30.79833984375 -16.923677444458008 1.5199201107025146
30.784347534179688 -17.16282081604004 1.5095174312591553
34.57334518432617 -19.554094314575195 1.2351986169815063
34.51997375488281 -19.80453872680664 1.2258294820785522
34.506229400634766 -20.07915687561035 1.2135519981384277
34.53081130981445 -20.378196716308594 1.1984105110168457
34.5307502746582 -20.664960861206055 1.184821605682373
34.57624435424805 -20.981489181518555 1.167807698249817
34.53413391113281 -21.24704933166504 1.1568572521209717
34.54256820678711 -21.54563331604004 1.1421127319335938
34.50054168701172 -21.814714431762695 1.1308327913284302
34.5346565246582 -22.134174346923828 1.1138429641723633
34.60883712768555 -22.482603073120117 1.0936901569366455
34.572479248046875 -22.76197052001953 1.0814346075057983
34.519046783447266 -23.031768798828125 1.070278286933899
34.66866683959961 -23.440397262573242 1.0437983274459839
34.721500396728516 -23.787986755371094 1.0242472887039185
34.703311920166016 -24.089866638183594 1.0098050832748413
34.73497009277344 -24.429161071777344 0.9913707375526428
34.80277633666992 -24.797544479370117 0.9699202179908752
34.78966522216797 -25.111602783203125 0.9544092416763306
34.80622863769531 -25.44999122619629 0.9363823533058167
34.7974853515625 -25.77289581298828 0.9200785756111145
34.82998275756836 -26.129589080810547 0.9003074169158936
34.84192657470703 -26.474361419677734 0.8818845152854919
34.85251998901367 -26.82147789001465 0.8633074164390564
34.873538970947266 -27.180147171020508 0.8436321020126343
34.875003814697266 -27.527097702026367 0.8252505660057068
34.893001556396484 -27.890657424926758 0.8052634596824646
34.77906799316406 -28.15125274658203 0.7957521677017212
34.76667404174805 -28.496265411376953 0.7777501940727234
34.9118537902832 -28.975385665893555 0.7464535236358643
34.87671661376953 -29.30968475341797 0.7297195792198181
34.890464782714844 -29.688615798950195 0.7086361050605774
34.936405181884766 -30.09942626953125 0.6845220327377319
34.9011344909668 -30.444347381591797 0.6669509410858154
34.90707015991211 -30.828941345214844 0.6455841660499573
34.97357177734375 -31.27195167541504 0.6186714172363281
35.00264358520508 -31.68679428100586 0.5946022272109985
34.94919967651367 -32.03102493286133 0.577379047870636
34.98721694946289 -32.463340759277344 0.5518286228179932
35.01032257080078 -32.88707733154297 0.5272060036659241
34.98396682739258 -33.26899337768555 0.506618082523346
32.36331558227539 30.877830505371094 1.7702064514160156
32.37593078613281 30.512901306152344 1.7763121128082275
32.33994674682617 30.10677719116211 1.785027027130127
32.4671630859375 29.855764389038086 1.7842626571655273
32.49415588378906 29.514978408813477 1.7890691757202148
32.44679641723633 29.110939025878906 1.7979274988174438
32.41291809082031 28.723834991455078 1.805847406387329
32.55219650268555 28.492889404296875 1.8038660287857056
32.55683517456055 28.146312713623047 1.809321641921997
32.576690673828125 27.816326141357422 1.8137757778167725
32.60060501098633 27.492956161499023 1.8178621530532837
32.609500885009766 27.160112380981445 1.82264244556427
32.62712097167969 26.837717056274414 1.8267974853515625
32.62728500366211 26.50416374206543 1.8317803144454956
32.65888595581055 26.19912338256836 1.8348925113677979
32.67231750488281 25.882291793823242 1.8388745784759521
32.6901741027832 25.571826934814453 1.8424826860427856
32.68964767456055 25.249900817871094 1.846968412399292
32.72056579589844 24.954999923706055 1.8496081829071045
32.721168518066406 24.63963508605957 1.853776454925537
32.73598098754883 24.337726593017578 1.8570475578308105
32.629127502441406 23.949079513549805 1.8667855262756348
32.52360153198242 23.566179275512695 1.8763034343719482
32.54706954956055 23.280214309692383 1.8787230253219604
32.64905548095703 23.051898956298828 1.8768057823181152
32.63144302368164 22.74095344543457 1.8812158107757568
32.67626953125 22.475820541381836 1.882161021232605
32.44796371459961 22.02695655822754 1.8976126909255981
32.58225631713867 21.82750701904297 1.8935469388961792
32.642818450927734 21.579303741455078 1.8933274745941162
32.71244430541992 21.338275909423828 1.8925284147262573
32.624088287353516 20.99664878845215 1.9000273942947388
32.50663757324219 20.640310287475586 1.9089503288269043
32.46394729614258 20.334997177124023 1.9137904644012451
32.698341369628906 20.203739166259766 1.9038666486740112
32.754905700683594 19.962236404418945 1.903268814086914
32.57599639892578 19.580305099487305 1.9150006771087646
32.54832458496094 19.293012619018555 1.9186418056488037
32.700347900390625 19.113157272338867 1.912726879119873
32.78473663330078 18.89375877380371 1.9102895259857178
32.84855651855469 18.663183212280273 1.9088460206985474
32.80793762207031 18.37493896484375 1.9127931594848633
32.869102478027344 18.145347595214844 1.9113101959228516
32.9769401550293 17.941951751708984 1.9072985649108887
33.019256591796875 17.703458786010742 1.9066314697265625
33.02544021606445 17.446924209594727 1.907765507698059
33.02529525756836 17.188674926757812 1.909142255783081
33.050785064697266 16.945213317871094 1.9090914726257324
33.06472396850586 16.69713020324707 1.9095574617385864
33.07865905761719 16.450407028198242 1.9099373817443848
33.09709167480469 16.207212448120117 1.9099984169006348
33.09309768676758 15.954438209533691 1.9111417531967163
33.10890579223633 15.712599754333496 1.9111710786819458
33.11304473876953 15.466516494750977 1.9117238521575928
33.13447189331055 15.229736328125 1.911294937133789
33.154239654541016 14.993273735046387 1.9108710289001465
33.122169494628906 14.734813690185547 1.9130586385726929
33.13667678833008 14.498530387878418 1.912746548652649
33.14494705200195 14.260651588439941 1.9126781225204468
33.182830810546875 14.036446571350098 1.9109927415847778
33.16294860839844 13.788921356201172 1.9122273921966553
33.19583511352539 13.564456939697266 1.9106446504592896
33.23185729980469 13.341970443725586 1.9088224172592163
33.10286331176758 13.055057525634766 1.9154870510101318
33.14205551147461 12.8362455368042 1.9133455753326416
33.564453125 12.763708114624023 1.891237735748291
33.68962478637695 12.575394630432129 1.8844791650772095
33.71995544433594 12.351670265197754 1.8825658559799194
33.719669342041016 12.117575645446777 1.8821651935577393
33.740394592285156 11.89191722869873 1.8805992603302002
33.75867462158203 11.666132926940918 1.8790839910507202
33.7508659362793 11.43224048614502 1.8788505792617798
33.76515579223633 11.206748008728027 1.877393126487732
33.77605438232422 10.980892181396484 1.876038670539856
33.792118072509766 10.757444381713867 1.874341607093811
33.81433868408203 10.536588668823242 1.8722491264343262
33.80168533325195 10.305670738220215 1.8719004392623901
33.811405181884766 10.082437515258789 1.870314359664917
33.825408935546875 9.861150741577148 1.8684312105178833
33.83125305175781 9.638154983520508 1.8669021129608154
33.845252990722656 9.418134689331055 1.864874005317688
33.854942321777344 9.197518348693848 1.8629997968673706
33.86126708984375 8.976627349853516 1.8612295389175415
33.8729248046875 8.757750511169434 1.8591094017028809
33.871551513671875 8.536140441894531 1.8575994968414307
33.88619613647461 8.319162368774414 1.855180025100708
33.91596984863281 8.106270790100098 1.8518930673599243
33.90743637084961 7.884729862213135 1.8505479097366333
33.92084503173828 7.668884754180908 1.8479783535003662
33.936790466308594 7.454026222229004 1.8452043533325195
33.94746398925781 7.23842716217041 1.842637062072754
33.95872497558594 7.023380756378174 1.839967131614685
33.977439880371094 6.8102335929870605 1.8368333578109741
33.968353271484375 6.591984272003174 1.8350989818572998
33.97160720825195 6.37667989730835 1.8326430320739746
33.98234176635742 6.163186550140381 1.829719066619873
33.994686126708984 5.950316905975342 1.8266396522521973
34.00668716430664 5.737692356109619 1.82350754737854
34.00946807861328 5.523862838745117 1.820796012878418
34.01979064941406 5.3115997314453125 1.8176116943359375
34.01792526245117 5.097789764404297 1.8150091171264648
34.02855682373047 4.886187553405762 1.811667561531067
34.04776382446289 4.676003932952881 1.8077956438064575
34.063697814941406 4.465507507324219 1.8040273189544678
34.07238006591797 4.25424861907959 1.8005766868591309
34.08867645263672 4.044107913970947 1.7966448068618774
33.52714157104492 3.7691192626953125 1.8238276243209839
33.51564407348633 3.5598058700561523 1.821307897567749
33.58331298828125 3.3588223457336426 1.8144325017929077
33.63487243652344 3.1557419300079346 1.8083510398864746
33.66032409667969 2.94997501373291 1.8036081790924072
33.67158126831055 2.7429590225219727 1.7995638847351074
33.66563415527344 2.5347156524658203 1.7963874340057373
33.68131637573242 2.328230142593384 1.7919597625732422
33.66781997680664 2.119889974594116 1.7890573740005493
33.665000915527344 1.9124810695648193 1.78550124168396
33.67287063598633 1.7057909965515137 1.781288743019104
12.408781051635742 0.5525652170181274 2.949486255645752
12.36296272277832 0.4745635390281677 2.9505715370178223
12.411463737487793 0.4001982808113098 2.9464213848114014
12.787898063659668 0.33381736278533936 2.924041271209717
12.496129035949707 0.24951839447021484 2.938692569732666
33.74635314941406 0.46610787510871887 1.7530208826065063
12.46812629699707 0.09596964716911316 2.937107801437378
12.55426025390625 0.01961924135684967 2.9306750297546387
12.63293170928955 -0.057752590626478195 2.9246115684509277
12.747064590454102 -0.13647525012493134 2.9165055751800537
12.73192310333252 -0.2144279181957245 2.9156293869018555
33.80607604980469 -0.7774587869644165 1.722821593284607
33.80042266845703 -0.984811544418335 1.7184042930603027
33.808467864990234 -1.1926538944244385 1.713136911392212
12.47209358215332 -0.5163496732711792 2.923233985900879
12.656086921691895 -0.601764440536499 2.9108994007110596
13.164490699768066 -0.7069178223609924 2.8799123764038086
12.85286808013916 -0.7692751288414001 2.895805597305298
11.85063362121582 -0.7822450995445251 2.951505422592163
12.244826316833496 -0.8837540745735168 2.9269134998321533
12.649145126342773 -0.9909860491752625 2.901583671569824
12.398022651672363 -1.0478668212890625 2.9141242504119873
12.389283180236816 -1.1237164735794067 2.912614345550537
12.735810279846191 -1.2339768409729004 2.8903491497039795
33.89266586303711 -3.4945297241210938 1.6502220630645752
13.311985969543457 -1.4548922777175903 2.8522393703460693
33.92111587524414 -3.9186463356018066 1.636948585510254
12.487282752990723 -1.5199980735778809 2.89630389213562
33.94819641113281 -4.344498634338379 1.6234073638916016
33.976051330566406 -4.560091972351074 1.6156549453735352
33.97091293334961 -4.771748065948486 1.609773874282837
33.992103576660156 -4.98757266998291 1.602236270904541
33.993167877197266 -5.2009687423706055 1.5958116054534912
33.992889404296875 -5.414566516876221 1.5893807411193848
34.00505828857422 -5.630642414093018 1.5821123123168945
34.00306701660156 -5.844873428344727 1.575608253479004
29.270814895629883 -5.216470718383789 1.8562238216400146
34.0401725769043 -6.282227039337158 1.5598337650299072
34.05760192871094 -6.501768112182617 1.551867961883545
34.03834915161133 -6.7148051261901855 1.5460541248321533
33.9727783203125 -6.918688774108887 1.5430063009262085
33.90403366088867 -7.121611595153809 1.5400890111923218
33.921871185302734 -7.342960834503174 1.5317436456680298
33.9489860534668 -7.5671868324279785 1.5227190256118774
34.01646423339844 -7.80161714553833 1.5110689401626587
34.02889633178711 -8.024560928344727 1.502739429473877
34.04375076293945 -8.24889087677002 1.4941540956497192
34.03969192504883 -8.469367980957031 1.4866560697555542
34.09900665283203 -8.706653594970703 1.4750503301620483
34.11033248901367 -8.932847023010254 1.4663636684417725
34.14137268066406 -9.165202140808105 1.4563124179840088
34.13426971435547 -9.388216018676758 1.4485851526260376
34.11802673339844 -9.609323501586914 1.4413444995880127
34.103233337402344 -9.831416130065918 1.4339131116867065
34.13389587402344 -10.067525863647461 1.4234386682510376
34.11612319946289 -10.29025936126709 1.4159895181655884
34.13695526123047 -10.525505065917969 1.4059206247329712
34.15237045288086 -10.7601957321167 1.3960857391357422
34.16524124145508 -10.995166778564453 1.3862990140914917
34.156593322753906 -11.224157333374023 1.3778135776519775
34.12654495239258 -11.446791648864746 1.3706364631652832
34.186641693115234 -11.70082950592041 1.3573578596115112
34.17140579223633 -11.930376052856445 1.3489662408828735
34.155574798583984 -12.16051197052002 1.3405039310455322
34.14007568359375 -12.391584396362305 1.331907033920288
34.277469635009766 -12.68005657196045 1.3128471374511719
34.3135986328125 -12.933369636535645 1.300468921661377
34.320892333984375 -13.177228927612305 1.2899136543273926
34.32368850708008 -13.420574188232422 1.2795355319976807
34.33961868286133 -13.670356750488281 1.268121361732483
34.34545135498047 -13.917465209960938 1.2572660446166992
34.354148864746094 -14.167064666748047 1.2460753917694092
34.36935043334961 -14.420767784118652 1.2342907190322876
34.36712646484375 -14.668532371520996 1.2235820293426514
34.37413024902344 -14.92158031463623 1.2120871543884277
34.43135452270508 -15.198236465454102 1.1968936920166016
34.430023193359375 -15.450824737548828 1.1856834888458252
34.42144012451172 -15.701483726501465 1.1748491525650024
34.431888580322266 -15.962270736694336 1.1625066995620728
34.4404296875 -16.223777770996094 1.1501471996307373
34.44704818725586 -16.485990524291992 1.137769341468811
34.455326080322266 -16.750640869140625 1.1251144409179688
34.452701568603516 -17.011592864990234 1.1130950450897217
34.481170654296875 -17.28969383239746 1.098633885383606
34.4150390625 -17.521697998046875 1.0909819602966309
34.35621643066406 -17.75812530517578 1.0826729536056519
34.42655563354492 -18.0631046295166 1.0646051168441772
34.41428756713867 -18.326932907104492 1.052512288093567
34.4395751953125 -18.612638473510742 1.0374280214309692
34.42415237426758 -18.878232955932617 1.0252360105514526
30.794458389282227 -17.134353637695312 1.2881479263305664
34.59418487548828 -19.527679443359375 0.9849803447723389
34.583370208740234 -19.802473068237305 0.9718544483184814
34.57305908203125 -20.079376220703125 0.9585134983062744
34.564090728759766 -20.35892105102539 0.9448884725570679
34.602664947509766 -20.66878890991211 0.9273619651794434
34.568748474121094 -20.9375057220459 0.915308952331543
34.56684112548828 -21.227468490600586 0.9005565047264099
34.523704528808594 -21.493940353393555 0.8888819813728333
34.60346603393555 -21.839492797851562 0.8672166466712952
34.58614730834961 -22.126611709594727 0.853076696395874
34.616825103759766 -22.446903228759766 0.8348603844642639
34.605674743652344 -22.74265480041504 0.8198013305664062
34.573097229003906 -23.02638816833496 0.8062855005264282
34.743412017822266 -23.44899559020996 0.7758899927139282
34.73112869262695 -23.75234031677246 0.7602091431617737
34.75414276123047 -24.082555770874023 0.7413714528083801
34.74827575683594 -24.395597457885742 0.7246922850608826
34.83741760253906 -24.77886199951172 0.6997767090797424
34.809024810791016 -25.08190155029297 0.6844825744628906
34.80561828613281 -25.405521392822266 0.6668375730514526
34.82841491699219 -25.75139045715332 0.6466935276985168
34.833900451660156 -26.087732315063477 0.6277597546577454
34.86516571044922 -26.446809768676758 0.6063157320022583
34.85456085205078 -26.777469635009766 0.5882256627082825
34.86639404296875 -27.12859535217285 0.5678982734680176
34.89324951171875 -27.495071411132812 0.5459478497505188
34.88493347167969 -27.837385177612305 0.5268116593360901
34.793025970458984 -28.115415573120117 0.5148846507072449
34.81636428833008 -28.489395141601562 0.49236947298049927
34.87712097167969 -28.89845085144043 0.46612536907196045
34.895179748535156 -29.276615142822266 0.44339925050735474
34.90001678466797 -29.647689819335938 0.42155176401138306
34.931095123291016 -30.045291900634766 0.39694154262542725
34.931514739990234 -30.420799255371094 0.37482184171676636
34.84857177734375 -30.726848602294922 0.36019378900527954
34.97079086303711 -31.218366622924805 0.32592299580574036
34.77375793457031 -31.428268432617188 0.32154566049575806
34.92649459838867 -31.958131790161133 0.2835233807563782
34.94083786010742 -32.36766815185547 0.2582952380180359
35.03076171875 -32.85295867919922 0.22531656920909882
34.95399475097656 -33.18671417236328 0.20816108584403992
32.33599090576172 30.853572845458984 1.490435004234314
32.36955642700195 30.508718490600586 1.4966719150543213
32.32261657714844 30.092472076416016 1.5080171823501587
32.460025787353516 29.85104751586914 1.5070632696151733
32.49069595336914 29.513696670532227 1.5129480361938477
32.46195983886719 29.126401901245117 1.5225186347961426
32.40727615356445 28.720705032348633 1.5335696935653687
32.544254302978516 28.487825393676758 1.532034993171692
32.57230758666992 28.161584854125977 1.5373902320861816
32.575565338134766 27.817264556884766 1.5441701412200928
32.5933837890625 27.488780975341797 1.5498454570770264
32.600738525390625 27.154733657836914 1.556024193763733
32.61294174194336 26.827978134155273 1.561728596687317
32.64950942993164 26.52414321899414 1.5657294988632202
32.64228439331055 26.187744140625 1.5723471641540527
32.65565490722656 25.871042251586914 1.5775052309036255
32.677391052246094 25.56378173828125 1.5819854736328125
32.6807861328125 25.24501609802246 1.587467908859253
32.71962356567383 24.956247329711914 1.5905861854553223
32.71466827392578 24.6367130279541 1.5962941646575928
32.721458435058594 24.328908920288086 1.6011252403259277
32.72813034057617 24.023719787597656 1.6058202981948853
32.521209716796875 23.5664119720459 1.6235761642456055
32.57474136352539 23.30198097229004 1.6250717639923096
32.66134262084961 23.062557220458984 1.6244118213653564
32.59956741333008 22.72072410583496 1.6327472925186157
32.7076301574707 22.499387741088867 1.6305315494537354
32.705963134765625 22.204092025756836 1.634918212890625
32.68531799316406 21.898548126220703 1.6403332948684692
32.69465255737305 21.615575790405273 1.6437897682189941
32.735206604003906 21.35514259338379 1.645226001739502
32.765411376953125 21.089618682861328 1.647176742553711
32.75480651855469 20.799901962280273 1.6514798402786255
32.78843688964844 20.540271759033203 1.652988076210022
32.76659393310547 20.247936248779297 1.6577296257019043
32.651161193847656 19.901029586791992 1.6679824590682983
32.62944030761719 19.61444664001465 1.6724648475646973
32.81504821777344 19.453144073486328 1.6643877029418945
32.826602935791016 19.188995361328125 1.6666604280471802
32.88894271850586 18.955856323242188 1.6657847166061401
32.86109161376953 18.672353744506836 1.6701982021331787
32.82229232788086 18.385025024414062 1.6751500368118286
32.86514663696289 18.145214080810547 1.6751238107681274
32.97295379638672 17.941844940185547 1.6711305379867554
33.01613998413086 17.703857421875 1.670889139175415
33.01968765258789 17.445953369140625 1.6729021072387695
33.02751159667969 17.19190216064453 1.6745595932006836
33.05479431152344 16.9493465423584 1.674961805343628
33.06341552734375 16.69854736328125 1.6763713359832764
33.08271789550781 16.45450782775879 1.6770492792129517
33.08772277832031 16.204713821411133 1.6784754991531372
33.07472610473633 15.947664260864258 1.680867314338684
33.10312271118164 15.711943626403809 1.680717945098877
33.11539840698242 15.469709396362305 1.681424856185913
33.13230514526367 15.2308349609375 1.6817653179168701
33.15389633178711 14.995216369628906 1.681736946105957
33.1081657409668 14.73067855834961 1.6855770349502563
33.11989974975586 14.493288040161133 1.68594229221344
33.14281463623047 14.261834144592285 1.6855589151382446
33.13195037841797 14.017024993896484 1.6870704889297485
33.16635513305664 13.792442321777344 1.685832142829895
33.18446350097656 13.561918258666992 1.6854628324508667
33.22416305541992 13.340993881225586 1.683737874031067
33.110069274902344 13.060003280639648 1.6909494400024414
33.12227249145508 12.830689430236816 1.6906614303588867
33.557552337646484 12.763229370117188 1.6654746532440186
33.681739807128906 12.57460880279541 1.6584506034851074
33.712989807128906 12.351280212402344 1.656791090965271
33.720218658447266 12.119935989379883 1.6564534902572632
33.73624038696289 11.892617225646973 1.6555137634277344
33.74602127075195 11.663926124572754 1.6548551321029663
33.753326416015625 11.435242652893066 1.6542565822601318
33.77141571044922 11.210997581481934 1.6529405117034912
33.7813835144043 10.984797477722168 1.652017593383789
33.79269790649414 10.759804725646973 1.650931477546692
33.80634307861328 10.536274909973145 1.6496248245239258
33.811832427978516 10.310941696166992 1.6487141847610474
33.81966018676758 10.087080001831055 1.6475841999053955
33.817386627197266 9.860993385314941 1.6469650268554688
33.832820892333984 9.640785217285156 1.645222783088684
33.84586715698242 9.420489311218262 1.6435405015945435
33.864227294921875 9.202228546142578 1.641463279724121
33.86091613769531 8.97872257232666 1.6405797004699707
33.86484146118164 8.757850646972656 1.6391903162002563
33.8857307434082 8.541905403137207 1.6367214918136597
33.90427017211914 8.325793266296387 1.6343092918395996
33.904930114746094 8.105828285217285 1.6328718662261963
33.908058166503906 7.8870720863342285 1.6312083005905151
33.90880584716797 7.668361663818359 1.62960684299469
33.927650451660156 7.454220771789551 1.6268560886383057
33.93830871582031 7.238678932189941 1.6245099306106567
33.943695068359375 7.022476673126221 1.622395396232605
33.96141052246094 6.809227466583252 1.6194719076156616
33.967002868652344 6.593930244445801 1.617187261581421
33.968292236328125 6.378267288208008 1.615079641342163
33.97803497314453 6.16461706161499 1.6123906373977661
33.987422943115234 5.951258182525635 1.6096441745758057
34.001373291015625 5.739011764526367 1.60654616355896
34.011043548583984 5.526336669921875 1.6036242246627808
34.021366119384766 5.314064979553223 1.6005845069885254
34.01949691772461 5.100245475769043 1.5981945991516113
34.03110885620117 4.888777256011963 1.5949193239212036
34.0483283996582 4.67830753326416 1.5912288427352905
34.0602912902832 4.467289447784424 1.5877734422683716
34.07193374633789 4.256423473358154 1.5842570066452026
34.086238861083984 4.0460524559021 1.580500841140747
33.52490234375 3.7710516452789307 1.611385703086853
33.51736831665039 3.562173843383789 1.6088389158248901
33.571109771728516 3.3597922325134277 1.60250985622406
33.62660598754883 3.157163619995117 1.5959885120391846
33.64905548095703 2.9511876106262207 1.5913832187652588
33.66228485107422 2.7444045543670654 1.587257981300354
33.67424392700195 2.5375685691833496 1.5831295251846313
33.67597198486328 2.3300676345825195 1.579545497894287
33.6694450378418 2.122199773788452 1.576385498046875
33.66163635253906 1.9144980907440186 1.5732297897338867
33.663509368896484 1.707526683807373 1.5694024562835693
13.046427726745605 0.5812931656837463 2.8321022987365723
13.010750770568848 0.4997599124908447 2.832798480987549
13.01147747039795 0.41987812519073486 2.831228017807007
33.72713851928711 0.8819957375526428 1.549835443496704
33.737632751464844 0.6752173900604248 1.5450713634490967
12.830078125 0.17779143154621124 2.8377180099487305
12.748988151550293 0.09845368564128876 2.8411319255828857
33.767494201660156 0.05433998629450798 1.5303846597671509
12.660213470458984 -0.057553865015506744 2.843350410461426
12.652539253234863 -0.13513608276844025 2.842135190963745
33.785919189453125 -0.5674222111701965 1.5156632661819458
12.791415214538574 -0.2935906946659088 2.829930067062378
33.81378173828125 -0.9829555153846741 1.504451036453247
33.82279968261719 -1.1909115314483643 1.4990237951278687
33.82355499267578 -1.3987281322479248 1.494035005569458
12.565631866455078 -0.5971407890319824 2.8368330001831055
12.999123573303223 -0.6976728439331055 2.807384729385376
12.858016967773438 -0.7692357301712036 2.814378261566162
12.867890357971191 -0.8490772247314453 2.8117408752441406
33.877845764160156 -2.4435153007507324 1.4645863771438599
12.52001953125 -0.9805471301078796 2.829954147338867
33.89149475097656 -2.862880229949951 1.4527026414871216
33.882957458496094 -3.0716161727905273 1.447618007659912
12.749863624572754 -1.2349975109100342 2.8088414669036865
33.90668487548828 -3.4936962127685547 1.4345461130142212
13.332724571228027 -1.456763744354248 2.7665326595306396
13.76258659362793 -1.5892161130905151 2.736146926879883
33.939815521240234 -4.129669189453125 1.4143980741500854
33.935333251953125 -4.340561389923096 1.4085109233856201
33.97206497192383 -4.557260990142822 1.399823546409607
33.97184371948242 -4.769580841064453 1.3934673070907593
33.97917556762695 -4.98337459564209 1.3865176439285278
33.988121032714844 -5.1978912353515625 1.3793638944625854
34.00162124633789 -5.41364860534668 1.3718092441558838
34.00489044189453 -5.628302097320557 1.3648357391357422
34.00188446044922 -5.842356204986572 1.358184814453125
29.261579513549805 -5.212946891784668 1.6694188117980957
34.03205871582031 -6.278406143188477 1.3421576023101807
34.05729675292969 -6.499382972717285 1.3333007097244263
34.03508758544922 -6.711833477020264 1.3275474309921265
33.961692810058594 -6.914106845855713 1.3251824378967285
33.91931915283203 -7.122500419616699 1.320631980895996
33.918575286865234 -7.339920997619629 1.3131506443023682
33.949546813964844 -7.5649800300598145 1.3033881187438965
33.98973083496094 -7.793148517608643 1.2928739786148071
34.0380973815918 -8.024384498596191 1.2816697359085083
34.07132339477539 -8.253220558166504 1.2713863849639893
34.07203674316406 -8.47506046295166 1.2632410526275635
34.109004974365234 -8.706844329833984 1.2524548768997192
34.098079681396484 -8.927273750305176 1.244896650314331
34.1252326965332 -9.158499717712402 1.2345534563064575
34.12967300415039 -9.384576797485352 1.2256883382797241
34.119163513183594 -9.607268333435059 1.2177640199661255
34.12350845336914 -9.834882736206055 1.2086753845214844
34.12729263305664 -10.063196182250977 1.1995067596435547
34.111412048339844 -10.286452293395996 1.191627025604248
34.16271209716797 -10.531055450439453 1.1788095235824585
34.17612838745117 -10.765283584594727 1.168575406074524
34.15566635131836 -10.989686012268066 1.1606658697128296
34.14131164550781 -11.216734886169434 1.1521989107131958
34.15477752685547 -11.453855514526367 1.1415870189666748
34.17605209350586 -11.694792747497559 1.1302680969238281
34.17775344848633 -11.930176734924316 1.1202490329742432
34.175968170166016 -12.165353775024414 1.1103556156158447
34.13413619995117 -12.387006759643555 1.1033012866973877
34.27611541748047 -12.677120208740234 1.0824588537216187
34.314056396484375 -12.931097984313965 1.0691704750061035
34.31943893432617 -13.17422103881836 1.058165192604065
34.31290054321289 -13.413904190063477 1.0479166507720947
34.32973098754883 -13.663961410522461 1.0357626676559448
34.33738327026367 -13.911734580993652 1.0241541862487793
34.34696960449219 -14.161636352539062 1.0122488737106323
34.36213684082031 -14.415267944335938 0.9997631907463074
34.36446762084961 -14.66491985321045 0.9881076216697693
34.368682861328125 -14.916732788085938 0.9761545658111572
29.511667251586914 -13.024576187133789 1.3415827751159668
34.4299430847168 -15.44828987121582 0.9476585388183594
34.40950393676758 -15.693540573120117 0.9371465444564819
34.42445373535156 -15.956321716308594 0.9237036108970642
34.432960510253906 -16.217750549316406 0.9105989933013916
34.45573806762695 -16.487634658813477 0.8961901664733887
34.46034240722656 -16.750558853149414 0.8830493092536926
34.48895263671875 -17.02696418762207 0.8678104281425476
34.47444534301758 -17.283788681030273 0.8558531999588013
34.41452407836914 -17.518905639648438 0.8474098443984985
34.35300827026367 -17.753936767578125 0.8389660716056824
34.4329833984375 -18.06393814086914 0.8188262581825256
34.419761657714844 -18.327302932739258 0.8060966730117798
34.399330139160156 -18.588342666625977 0.7937874794006348
30.829029083251953 -16.904420852661133 1.075823187828064
30.82552146911621 -17.149446487426758 1.0632423162460327
34.587974548339844 -19.521591186523438 0.7348823547363281
34.5978889465332 -19.808204650878906 0.7192122936248779
34.56935501098633 -20.074636459350586 0.7065873742103577
34.54658889770508 -20.34602165222168 0.6932938694953918
