# .PCD v0.7 - Point Cloud Data file format
VERSION 0.7
FIELDS x y z
SIZE 4 4 4
TYPE F F F
COUNT 1 1 1
WIDTH 854
HEIGHT 1
VIEWPOINT 0 0 0 1 0 0 0
POINTS 854
DATA ascii
12.84122371673584 -0.7168298959732056 0.30193936824798584
12.833256721496582 -0.7953835725784302 0.30101191997528076
12.824904441833496 -0.7133753299713135 0.2272825837135315
12.882550239562988 -0.7958751916885376 0.20891912281513214
12.814929008483887 -0.7171987295150757 0.16019733250141144
12.879199981689453 -0.8000665307044983 0.13968582451343536
12.659659385681152 12.739519119262695 1.2913938760757446
12.68325424194336 12.670259475708008 1.2944365739822388
12.776124954223633 12.763347625732422 0.3737579882144928
12.706084251403809 12.604963302612305 1.297217845916748
12.7783784866333 12.677064895629883 0.38310980796813965
12.732150077819824 12.54314136505127 1.2993870973587036
12.7064790725708 12.518318176269531 0.4103955626487732
12.745521545410156 12.469147682189941 1.3036959171295166
12.732245445251465 12.456687927246094 0.41377848386764526
12.75993824005127 12.400896072387695 1.3074383735656738
12.779756546020508 12.333903312683105 1.310524344444275
12.802846908569336 12.270355224609375 1.3129979372024536
31.038562774658203 29.547199249267578 0.3333735167980194
12.825651168823242 12.206796646118164 1.3154711723327637
31.057899475097656 29.359928131103516 0.33968186378479004
12.848165512084961 12.143228530883789 1.317943811416626
31.043216705322266 29.131637573242188 0.34975969791412354
12.865255355834961 12.0706148147583 1.3215968608856201
12.902626991271973 12.106583595275879 0.42892366647720337
32.35806655883789 30.152565002441406 2.3990609645843506
12.885346412658691 12.00535774230957 1.3243756294250488
12.922937393188477 12.041348457336426 0.4331549108028412
32.42108917236328 30.011173248291016 2.3981521129608154
31.145130157470703 28.8316707611084 0.3551183044910431
12.910351753234863 11.949102401733398 1.3259716033935547
12.948101997375488 11.985067367553711 0.4357191026210785
32.486900329589844 29.862335205078125 2.3971896171569824
31.208608627319336 28.689071655273438 0.35663238167762756
12.926227569580078 11.880481719970703 1.3293631076812744
12.96604061126709 11.918155670166016 0.44037747383117676
32.52621841430664 29.6898136138916 2.3971002101898193
31.31382179260254 28.585041046142578 0.3538883328437805
12.949115753173828 11.818582534790039 1.3315268754959106
12.98730754852295 11.854582786560059 0.4441792666912079
32.561031341552734 29.51402473449707 2.397136688232422
13.01291275024414 11.797151565551758 2.195842742919922
12.9754056930542 11.760004043579102 1.3330752849578857
13.010115623474121 11.79266357421875 0.44755223393440247
32.50027847290039 29.253087997436523 2.4003782272338867
13.039074897766113 11.738329887390137 2.196411371231079
12.992222785949707 11.693085670471191 1.3361592292785645
13.032648086547852 11.730724334716797 0.4509248435497284
32.460453033447266 29.012920379638672 2.402879476547241
13.063126564025879 11.67780876159668 2.197164297103882
13.019834518432617 11.636112213134766 1.337398648262024
13.049399375915527 11.663850784301758 0.45558246970176697
32.467369079589844 28.805877685546875 2.403827428817749
13.083344459533691 11.610013008117676 2.1984269618988037
13.039937019348145 11.568580627441406 1.340128779411316
13.06969928741455 11.596355438232422 0.4597656726837158
32.528228759765625 28.657712936401367 2.4028730392456055
13.106843948364258 11.549457550048828 2.199178457260132
13.06330680847168 11.50825309753418 1.3419814109802246
13.091376304626465 11.534407615661621 0.46313658356666565
32.58469009399414 28.506181716918945 2.4020426273345947
13.130077362060547 11.48887825012207 2.1999289989471436
13.078946113586426 11.441370964050293 1.345064401626587
13.110788345336914 11.474738121032715 0.46655285358428955
32.577789306640625 28.320077896118164 2.4032163619995117
13.147188186645508 11.431229591369629 2.2009570598602295
13.097814559936523 11.385598182678223 1.347008228302002
13.13181209564209 11.416679382324219 0.4695396423339844
32.59687042236328 28.137632369995117 2.4035956859588623
13.169915199279785 11.370626449584961 2.2017064094543457
13.114762306213379 11.320377349853516 1.349782943725586
13.156425476074219 11.357922554016113 0.47205036878585815
32.616981506347656 27.9570255279541 2.4039127826690674
13.188591957092285 11.306754112243652 2.2028274536132812
13.144603729248047 11.266478538513184 1.3504010438919067
13.175182342529297 11.294323921203613 0.4758482873439789
32.62290573120117 27.765289306640625 2.404682159423828
13.21078109741211 11.24612045288086 2.203575611114502
13.159113883972168 11.199646949768066 1.3534835577011108
13.197404861450195 11.233922958374023 0.47878724336624146
32.625980377197266 27.57223129272461 2.405519723892212
13.240323066711426 11.191910743713379 2.2035772800445557
13.1865816116333 11.144057273864746 1.3544076681137085
13.217489242553711 11.171916961669922 0.4821546673774719
32.633846282958984 27.384313583374023 2.406169891357422
13.258193016052246 11.12801456451416 2.2046966552734375
13.208121299743652 11.083630561828613 1.3562554121017456
13.23541259765625 11.108322143554688 0.48595160245895386
32.640804290771484 27.196678161621094 2.406825542449951
13.285351753234863 11.07210636138916 2.2048823833465576
13.223681449890137 11.018423080444336 1.3590292930603027
13.260624885559082 11.051042556762695 0.4880286753177643
32.6573371887207 27.008407592773438 2.407177686691284
13.300751686096191 11.002699851989746 2.2063276767730713
13.248499870300293 10.957255363464355 1.3605211973190308
13.278016090393066 10.983558654785156 0.49220776557922363
32.666316986083984 26.82449722290039 2.4077134132385254
13.317771911621094 10.93881893157959 2.2074460983276367
13.265401840209961 10.893648147583008 1.3629854917526245
13.310324668884277 10.932476997375488 0.49256226420402527
32.68022537231445 26.64558982849121 2.40805983543396
13.340307235717773 10.879677772521973 2.208003282546997
13.293557167053223 10.839459419250488 1.363594651222229
13.325263977050781 10.867300033569336 0.4967873692512512
32.685516357421875 26.46062660217285 2.4086689949035645
13.3606538772583 10.818944931030273 2.2087466716766357
13.315713882446289 10.780525207519531 1.3651304244995117
13.347565650939941 10.808349609375 0.4992910325527191
32.69770812988281 26.282211303710938 2.4090232849121094
13.38267993927002 10.75976276397705 2.2093024253845215
13.335688591003418 10.720012664794922 1.3669745922088623
13.363861083984375 10.744744300842285 0.5030858516693115
32.70514678955078 26.100915908813477 2.4095118045806885
13.404458999633789 10.70055866241455 2.209857225418091
13.351523399353027 10.656397819519043 1.3694370985031128
13.389500617980957 10.688838958740234 0.5047264695167542
32.71171569824219 25.91988754272461 2.4100050926208496
13.418172836303711 10.635141372680664 2.2111618518829346
13.372910499572754 10.597423553466797 1.3709713220596313
13.405261993408203 10.625236511230469 0.5085203647613525
32.72724533081055 25.746862411499023 2.4101755619049072
13.447267532348633 10.5820894241333 2.2109644412994385
13.384300231933594 10.530759811401367 1.3740533590316772
13.428483009338379 10.567743301391602 0.510590136051178
32.72080993652344 25.5483341217041 2.411086082458496
13.46423053741455 10.515871047973633 2.212033271789551
13.412849426269531 10.474021911621094 1.374609351158142
13.455233573913574 10.509387016296387 0.5121798515319824
32.736602783203125 25.377344131469727 2.4112002849578857
13.483015060424805 10.455078125 2.212773561477661
13.435431480407715 10.416522026062012 1.375830888748169
13.476030349731445 10.450310707092285 0.5146788954734802
32.719913482666016 25.182167053222656 2.412369728088379
13.503512382507324 10.39580249786377 2.213325262069702
13.459741592407227 10.360502243041992 1.3767414093017578
13.504384994506836 10.397223472595215 0.5154509544372559
32.747535705566406 25.03106117248535 2.4120147228240967
13.525924682617188 10.341899871826172 2.2135472297668457
13.476122856140137 10.302273750305176 1.3786296844482422
13.50139331817627 10.323990821838379 0.522743821144104
32.782840728759766 24.87735366821289 2.4114127159118652
13.541972160339355 10.279568672180176 2.2144744396209717
13.488113403320312 10.23719596862793 1.3814014196395874
13.505731582641602 10.25300407409668 0.5286955237388611
32.76557159423828 24.684606552124023 2.4125328063964844
13.573681831359863 10.229253768920898 2.2138919830322266
13.509725570678711 10.1796236038208 1.3826203346252441
13.533336639404297 10.199895858764648 0.5294662117958069
32.75336456298828 24.496774673461914 2.413461446762085
13.591230392456055 10.168388366699219 2.2146294116973877
13.535073280334473 10.124998092651367 1.3832165002822876
13.564678192138672 10.149666786193848 0.5293715000152588
32.71416091918945 24.28996467590332 2.4152612686157227
13.608518600463867 10.107524871826172 2.2153658866882324
13.560202598571777 10.070316314697266 1.3838117122650146
13.5997896194458 10.10228157043457 0.5284097790718079
32.60350036621094 24.031827926635742 2.4194045066833496
13.63156509399414 10.051101684570312 2.2155354022979736
13.583120346069336 10.01411247253418 1.3847161531448364
13.622843742370605 10.046006202697754 0.5300391316413879
32.4188346862793 23.721637725830078 2.4259722232818604
13.64835262298584 9.990226745605469 2.216271162033081
13.597803115844727 9.952011108398438 1.3868649005889893
13.657593727111816 9.998418807983398 0.5290725827217102
32.450782775878906 23.571643829345703 2.4253437519073486
13.668914794921875 9.932283401489258 2.216628074645996
13.62225341796875 9.897216796875 1.3874566555023193
13.638391494750977 9.911628723144531 0.5397834181785583
32.48413848876953 23.414588928222656 2.424668550491333
13.686910629272461 9.869016647338867 2.2173147201538086
13.638134002685547 9.832738876342773 1.3895564079284668
13.672385215759277 9.860160827636719 0.5391995310783386
32.5147590637207 23.264734268188477 2.424041509628296
13.709003448486328 9.812493324279785 2.2174806594848633
13.668167114257812 9.782205581665039 1.3892112970352173
13.658432960510254 9.778007507324219 0.5486180186271667
32.554908752441406 23.122182846069336 2.423079013824463
13.736966133117676 9.760266304016113 2.217076063156128
13.687902450561523 9.724403381347656 1.3904227018356323
13.682209014892578 9.723163604736328 0.5498130917549133
32.576087951660156 22.9666805267334 2.422722339630127
13.752507209777832 9.699344635009766 2.2178094387054443
13.70740032196045 9.666579246520996 1.3916335105895996
13.681628227233887 9.651246070861816 0.5562044978141785
32.606807708740234 22.818471908569336 2.422029972076416
13.775959014892578 9.64415168762207 2.2177820205688477
13.718534469604492 9.603049278259277 1.3940918445587158
13.704916000366211 9.596394538879395 0.5573988556861877
32.60610580444336 22.648941040039062 2.4223549365997314
13.795100212097168 9.586067199707031 2.2181341648101807
13.739580154418945 9.546635627746582 1.3949897289276123
13.740119934082031 9.5499267578125 0.55599045753479
32.555240631103516 22.445659637451172 2.4243156909942627
13.807847023010254 9.523719787597656 2.2190563678741455
13.762438774108887 9.491597175598145 1.3955739736557007
13.769083023071289 9.499133110046387 0.5558804869651794
32.493038177490234 22.235946655273438 2.426628828048706
13.834725379943848 9.471257209777832 2.2186455726623535
13.78508186340332 9.436515808105469 1.3961576223373413
32.52102279663086 22.09720802307129 2.4259326457977295
13.851520538330078 9.415535926818848 2.2190449237823486
13.801776885986328 9.381012916564941 1.3974138498306274
14.19133472442627 9.64885139465332 0.47760239243507385
32.550193786621094 21.95145034790039 2.4251890182495117
13.86972713470459 9.357388496398926 2.2193944454193115
13.830154418945312 9.330025672912598 1.3970568180084229
14.192034721374512 9.577249526977539 0.48353636264801025
32.5538330078125 21.78907585144043 2.42526912689209
13.893912315368652 9.303388595581055 2.219170093536377
13.841856002807617 9.267915725708008 1.3992011547088623
14.051252365112305 9.411233901977539 0.5194313526153564
32.54423141479492 21.618648529052734 2.425765037536621
13.91165828704834 9.24519157409668 2.2195181846618652
13.861557006835938 9.21132755279541 1.4000935554504395
13.891042709350586 9.234058380126953 0.559256911277771
32.48750686645508 21.409875869750977 2.427802801132202
13.934931755065918 9.187300682067871 2.219433069229126
13.892975807189941 9.159119606018066 1.3993695974349976
13.930715560913086 9.187174797058105 0.5569139719009399
32.44529724121094 21.22817611694336 2.4293265342712402
13.952703475952148 9.132867813110352 2.219637870788574
13.904433250427246 9.100794792175293 1.4012490510940552
13.960884094238281 9.140952110290527 0.5559704303741455
32.42267608642578 21.052223205566406 2.4301915168762207
13.982295989990234 9.082767486572266 2.218834400177002
13.92762565612793 9.046821594238281 1.4015116691589355
13.959440231323242 9.07072925567627 0.5619313716888428
32.45119094848633 20.902156829833984 2.429356098175049
14.002806663513184 9.023378372192383 2.2189371585845947
13.952171325683594 8.990363121032715 1.4017232656478882
13.996488571166992 9.022197723388672 0.5600156784057617
32.51753234863281 20.784746170043945 2.427248001098633
14.019407272338867 8.96506118774414 2.219280958175659
13.97493839263916 8.936284065246582 1.4019829034805298
14.023515701293945 8.970659255981445 0.559887170791626
32.58979034423828 20.671142578125 2.424927234649658
14.035773277282715 8.90674114227295 2.2196245193481445
13.99330997467041 8.879499435424805 1.402869462966919
14.029570579528809 8.90584945678711 0.564108669757843
32.61299133300781 20.526674270629883 2.424203634262085
14.06033992767334 8.853726387023926 2.219198703765869
14.011455535888672 8.8226900100708 1.4037550687789917
14.031176567077637 8.838480949401855 0.5692019462585449
32.6277961730957 20.385339736938477 2.423736810684204
14.081064224243164 8.801783561706543 2.2190139293670654
14.034167289733887 8.772254943847656 1.403747320175171
14.212570190429688 8.887191772460938 0.5364580154418945
32.53722381591797 20.171289443969727 2.426727056503296
14.111592292785645 8.752595901489258 2.218008041381836
14.049778938293457 8.714085578918457 1.4049458503723145
14.398077011108398 8.93358325958252 0.5032036304473877
32.479618072509766 19.979066848754883 2.428611993789673
14.13346004486084 8.698077201843262 2.2177696228027344
14.07571792602539 8.662412643432617 1.4045708179473877
14.395391464233398 8.862648010253906 0.5091476440429688
32.49359893798828 19.831756591796875 2.4281184673309326
14.148735046386719 8.639615058898926 2.218108654022217
14.105701446533203 8.613247871398926 1.403564453125
14.274742126464844 8.719989776611328 0.5395076274871826
32.519775390625 19.692358016967773 2.427203893661499
14.17230224609375 8.586318969726562 2.2176756858825684
14.131267547607422 8.561407089233398 1.403185486793518
14.130117416381836 8.564248085021973 0.5746838450431824
32.49521255493164 19.515172958374023 2.4279394149780273
14.197153091430664 8.530484199523926 2.2171902656555176
14.149618148803711 8.501916885375977 1.4040145874023438
14.17383098602295 8.520034790039062 0.5710046887397766
32.41704559326172 19.314682006835938 2.4304275512695312
14.224593162536621 8.47961711883545 2.216367721557617
14.172650337219238 8.448686599731445 1.4039475917816162
14.194796562194824 8.46549129486084 0.5717362761497498
32.40026092529297 19.1518497467041 2.4308738708496094
14.243268966674805 8.42358684539795 2.2163164615631104
14.195480346679688 8.395398139953613 1.4038792848587036
14.200723648071289 8.402129173278809 0.5755226612091064
32.415077209472656 19.008329391479492 2.430260419845581
14.270326614379883 8.372573852539062 2.2154901027679443
14.209556579589844 8.33703327178955 1.4050713777542114
14.187276840209961 8.327617645263672 0.5832401514053345
32.426002502441406 18.87059783935547 2.429764986038208
14.28929328918457 8.320207595825195 2.215294122695923
14.230535507202148 8.286144256591797 1.4050517082214355
14.212468147277832 8.27931022644043 0.5827119946479797
32.48508071899414 18.753578186035156 2.427656650543213
14.30734920501709 8.264062881469727 2.2152395248413086
14.25061321258545 8.231481552124023 1.4052953720092773
14.25597095489502 8.238292694091797 0.5786347985267639
32.608795166015625 18.673625946044922 2.4233970642089844
14.340325355529785 8.216567039489746 2.2138264179229736
14.268329620361328 8.175542831420898 1.4058542251586914
14.28227424621582 8.187281608581543 0.5780505537986755
32.680198669433594 18.56342315673828 2.420844554901123
14.351470947265625 8.156625747680664 2.2143516540527344
14.294455528259277 8.124484062194824 1.405147671699524
14.321234703063965 8.143484115600586 0.5748400092124939
32.73484420776367 18.436193466186523 2.4188153743743896
14.38767147064209 8.107659339904785 2.212688446044922
14.328282356262207 8.074496269226074 1.4034388065338135
14.292848587036133 8.058333396911621 0.585574209690094
32.78799057006836 18.315753936767578 2.4168272018432617
14.431008338928223 8.065917015075684 2.2102952003479004
14.343219757080078 8.017193794250488 1.4043101072311401
14.346443176269531 8.022833824157715 0.5792973041534424
32.78069305419922 18.169401168823242 2.4168295860290527
14.389086723327637 7.980430603027344 1.4004830121994019
14.370597839355469 7.9740447998046875 0.5787577629089355
32.873512268066406 18.07868766784668 2.41351056098938
14.42693042755127 7.942986488342285 0.571647047996521
32.93631362915039 17.9638614654541 2.411151647567749
14.947000503540039 8.157028198242188 2.168498992919922
32.99212646484375 17.845247268676758 2.4090042114257812
14.934555053710938 8.083281517028809 1.3299013376235962
33.02107620239258 17.712289810180664 2.407726287841797
33.04509735107422 17.57699966430664 2.406594753265381
33.07160949707031 17.435989379882812 2.405344247817993
27.804750442504883 14.666546821594238 1.0336607694625854
33.094520568847656 17.300792694091797 2.404212713241577
27.78931999206543 14.534784317016602 1.0375334024429321
33.11467361450195 17.164499282836914 2.4031550884246826
27.81756019592285 14.426255226135254 1.0374945402145386
33.09871292114258 17.01000213623047 2.403275966644287
27.801050186157227 14.294914245605469 1.0413743257522583
33.10657501220703 16.868303298950195 2.4025912284851074
27.808385848999023 14.176312446594238 1.0431022644042969
33.11161804199219 16.725631713867188 2.4019834995269775
33.12789535522461 16.581825256347656 2.4009618759155273
33.12504196166992 16.436132431030273 2.4005818367004395
33.14622497558594 16.302791595458984 2.3993868827819824
33.14442443847656 16.158552169799805 2.398937940597534
33.15273666381836 16.02683448791504 2.398163318634033
33.149784088134766 15.882974624633789 2.3977208137512207
32.68247604370117 15.66787338256836 0.6306379437446594
33.14849090576172 15.740401268005371 2.397207736968994
32.66920852661133 15.52165412902832 0.6342061758041382
33.15790557861328 15.603346824645996 2.3963210582733154
32.71619415283203 15.404377937316895 0.6324434280395508
33.159976959228516 15.46325397491455 2.3956634998321533
32.99763488769531 15.3965425491333 0.6101060509681702
33.175086975097656 15.32962417602539 2.394554853439331
33.11202621459961 15.309542655944824 0.6023804545402527
33.178680419921875 15.184048652648926 2.393781900405884
33.14500427246094 15.177743911743164 0.601852297782898
33.18586349487305 15.04753589630127 2.392904043197632
33.183937072753906 15.055816650390625 0.6006496548652649
33.199337005615234 14.914231300354004 2.391800880432129
33.19514465332031 14.921544075012207 0.6018255949020386
33.20285415649414 14.783757209777832 2.3910462856292725
33.17592239379883 14.780997276306152 0.605506956577301
33.203861236572266 14.645618438720703 2.3903284072875977
33.18376541137695 14.646024703979492 0.60688716173172
33.20888137817383 14.509650230407715 2.3894593715667725
33.17051315307617 14.50219440460205 0.610059916973114
33.2225341796875 14.377796173095703 2.3882856369018555
33.19326400756836 14.37447738647461 0.6100513935089111
33.22418212890625 14.24109935760498 2.387498140335083
33.18574523925781 14.234007835388184 0.612633228302002
33.23219299316406 14.107498168945312 2.386481761932373
33.196006774902344 14.101561546325684 0.6136239767074585
33.23736572265625 13.973045349121094 2.3855443000793457
33.19425582885742 13.964381217956543 0.6156139373779297
33.22815704345703 13.832964897155762 2.385073184967041
33.228763580322266 13.842717170715332 0.6144119501113892
33.23694610595703 13.693985939025879 2.383944034576416
33.21913528442383 13.696184158325195 0.6170846819877625
33.27055740356445 13.572253227233887 2.3820035457611084
33.26189422607422 13.578300476074219 0.6150802969932556
33.282875061035156 13.442032814025879 2.380763053894043
33.26033401489258 13.442546844482422 0.61687833070755
33.26220703125 13.298905372619629 2.380614995956421
33.26980209350586 13.311594009399414 0.61767578125
33.185176849365234 13.134017944335938 2.382350206375122
33.21389389038086 13.155049324035645 0.6240935325622559
33.17262649536133 13.00205135345459 2.381946086883545
33.15503692626953 13.004842758178711 0.6306412220001221
33.178096771240234 12.87084674835205 2.3808770179748535
33.14889144897461 12.869231224060059 0.6326588988304138
33.236724853515625 12.760360717773438 2.377999782562256
33.20036697387695 12.75616455078125 0.6296519041061401
33.39352798461914 12.696907043457031 0.6143625974655151
33.533042907714844 12.616275787353516 0.6036809682846069
33.7523193359375 12.554555892944336 2.3577682971954346
33.7564697265625 12.566118240356445 0.5857240557670593
33.77238464355469 12.428065299987793 2.356112003326416
33.778846740722656 12.440500259399414 0.5850902199745178
33.782379150390625 12.291421890258789 2.354731798171997
33.77714157104492 12.299604415893555 0.5865551829338074
33.780303955078125 12.157382011413574 2.3537936210632324
33.772743225097656 12.164779663085938 0.5881459712982178
33.77534866333008 12.022668838500977 2.352938413619995
33.765480041503906 12.02929973602295 0.5899417996406555
33.78900909423828 11.90149974822998 2.351487874984741
33.790863037109375 11.912330627441406 0.5888266563415527
33.79484939575195 11.771186828613281 2.3502373695373535
33.80612564086914 11.78532600402832 0.5886005759239197
33.802555084228516 11.641792297363281 2.3489062786102295
33.80677795410156 11.653488159179688 0.5895914435386658
33.80031204223633 11.509264945983887 2.347900152206421
33.83522415161133 11.531432151794434 0.5881492495536804
33.80228805541992 11.378490447998047 2.3467342853546143
33.82308578491211 11.395794868469238 0.5901587605476379
33.82746887207031 11.255729675292969 2.344761371612549
33.82460403442383 11.265106201171875 0.5909520387649536
33.80948257446289 11.118881225585938 2.3442471027374268
33.80904769897461 11.1290922164917 0.5931717753410339
33.8289794921875 10.994650840759277 2.3424370288848877
33.811912536621094 10.99948787689209 0.5937678217887878
33.83087158203125 10.858406066894531 2.3411550521850586
33.83278274536133 10.869436264038086 0.5928139090538025
33.85179138183594 10.73499584197998 2.339263439178467
33.84653854370117 10.7437744140625 0.592392086982727
33.85795974731445 10.607088088989258 2.337862253189087
33.850318908691406 10.615166664123535 0.5927863121032715
33.849891662597656 10.481484413146973 2.3369948863983154
33.85417556762695 10.493307113647461 0.5931010246276855
33.861690521240234 10.349349975585938 2.3353090286254883
33.85165786743164 10.356807708740234 0.5939892530441284
33.85923385620117 10.21957015991211 2.3341591358184814
33.86113357543945 10.230695724487305 0.5937742590904236
33.868255615234375 10.093502044677734 2.33259916305542
33.8558235168457 10.100369453430176 0.5947896242141724
33.888797760009766 9.97101879119873 2.3306257724761963
33.878692626953125 9.978652000427246 0.5933471918106079
33.86878967285156 9.843277931213379 2.3301007747650146
33.86592102050781 9.853066444396973 0.5948996543884277
33.89563751220703 9.7229585647583 2.3278796672821045
33.88311767578125 9.730021476745605 0.5938683748245239
33.88599395751953 9.592368125915527 2.326904535293579
33.8902702331543 9.604257583618164 0.5936577916145325
33.9095458984375 9.471369743347168 2.324765920639038
33.89696502685547 9.478560447692871 0.593448281288147
33.90375900268555 9.342360496520996 2.323627471923828
33.8959846496582 9.350948333740234 0.5938576459884644
33.899085998535156 9.20759105682373 2.3223681449890137
33.9129638671875 9.222116470336914 0.5927032828330994
33.92125701904297 9.086652755737305 2.320228338241577
33.91584396362305 9.095980644226074 0.5927025079727173
33.917293548583984 8.9652099609375 2.319052219390869
33.919097900390625 8.976489067077637 0.5926199555397034
33.92168045043945 8.839865684509277 2.3175008296966553
33.91142654418945 8.848015785217285 0.593449056148529
33.920772552490234 8.713356018066406 2.31611967086792
33.92257308959961 8.724664688110352 0.592625617980957
33.9290771484375 8.589411735534668 2.3144023418426514
33.926029205322266 8.599510192871094 0.5924232602119446
33.93207550048828 8.46430778503418 2.3128550052642822
33.92418670654297 8.473226547241211 0.5926366448402405
33.94190216064453 8.34107494354248 2.31105375289917
33.938812255859375 8.351228713989258 0.591400682926178
33.94643020629883 8.21670150756836 2.309422254562378
33.94089126586914 8.226295471191406 0.591201663017273
33.951908111572266 8.086472511291504 2.307669162750244
33.95118713378906 8.097261428833008 0.5902565717697144
33.962799072265625 7.963951110839844 2.3057827949523926
33.947479248046875 7.971339225769043 0.5904750823974609
33.964576721191406 7.845691680908203 2.304278612136841
33.963802337646484 7.856515407562256 0.5889471173286438
33.9745979309082 7.723241329193115 2.3023931980133057
33.95921325683594 7.730765342712402 0.58916836977005
33.976863861083984 7.59918212890625 2.3007664680480957
33.96388244628906 7.607320308685303 0.588557779788971
33.98356246948242 7.476274013519287 2.2989673614501953
33.96810531616211 7.483935832977295 0.5879482626914978
33.982486724853516 7.351826190948486 2.297429323196411
33.97917556762695 7.362194538116455 0.5867128372192383
33.99318313598633 7.230076313018799 2.2954583168029785
33.987388610839844 7.239950180053711 0.5856865048408508
33.99120330810547 7.105783939361572 2.293922185897827
34.00490951538086 7.119777679443359 0.5838231444358826
33.99488830566406 6.976668357849121 2.2920875549316406
34.008575439453125 6.990625858306885 0.5830903053283691
34.006683349609375 6.855525970458984 2.2900309562683105
34.015445709228516 6.868460655212402 0.5820635557174683
34.01069259643555 6.732931137084961 2.288235902786255
34.01210403442383 6.7443952560424805 0.581875741481781
33.99840545654297 6.613465309143066 2.28709077835083
34.009613037109375 6.6268463134765625 0.5816047787666321
34.00777816772461 6.498373031616211 2.285159111022949
34.00182342529297 6.508450031280518 0.5817552804946899
33.99933624267578 6.36774206161499 2.2836813926696777
34.00562286376953 6.380153179168701 0.5808171629905701
34.006507873535156 6.246349334716797 2.2817137241363525
34.01521301269531 6.259200572967529 0.5793732404708862
34.02799987792969 6.127639293670654 2.279217481613159
34.03171920776367 6.139583587646484 0.5772975087165833
34.024478912353516 6.004515647888184 2.2776029109954834
34.030635833740234 6.016892433166504 0.5766959190368652
34.02543640136719 5.882340431213379 2.2758126258850098
34.03647232055664 5.895556926727295 0.5754620432853699
34.046661376953125 5.757626056671143 2.273188352584839
34.04533386230469 5.768731117248535 0.5738925337791443
34.04426193237305 5.635108947753906 2.271486759185791
34.045372009277344 5.646637439727783 0.5730817914009094
34.05868911743164 5.515471935272217 2.2691633701324463
34.05235290527344 5.525808811187744 0.5716375708580017
34.05788803100586 5.393459320068359 2.2673745155334473
34.05644607543945 5.404609680175781 0.5704044699668884
34.06314468383789 5.278608798980713 2.2654430866241455
34.05426788330078 5.288626670837402 0.5697210431098938
34.078792572021484 5.159333229064941 2.263028383255005
34.06490707397461 5.168643951416016 0.5678530931472778
34.071773529052734 5.036726474761963 2.2614197731018066
34.05786895751953 5.04609489440918 0.5674694776535034
34.086570739746094 4.9174394607543945 2.2590034008026123
34.079978942871094 4.927934169769287 0.5645393133163452
34.08363723754883 4.795674800872803 2.257216691970825
34.0770149230957 4.806201934814453 0.5637325644493103
34.088497161865234 4.669059753417969 2.2550346851348877
34.079349517822266 4.679282188415527 0.5623750686645508
34.09210205078125 4.548422336578369 2.2529778480529785
34.075496673583984 4.557694911956787 0.5615696907043457
34.08289337158203 4.426208972930908 2.2513747215270996
34.083560943603516 4.437798500061035 0.5597007870674133
34.117862701416016 4.309747695922852 2.2481377124786377
34.09366989135742 4.318212985992432 0.5576176643371582
34.12267303466797 4.189443588256836 2.2459895610809326
34.108306884765625 4.19921875 0.5551061630249023
34.09956741333008 4.083463668823242 0.5546414256095886
33.540977478027344 3.5311856269836426 2.257537603378296
33.36959457397461 3.5245041847229004 0.6123191714286804
33.57844543457031 3.4107861518859863 2.2540178298950195
33.35232162475586 3.399188756942749 0.612309455871582
33.63727951049805 3.2982165813446045 2.249786615371704
33.3637580871582 3.2827868461608887 0.6098494529724121
33.67335891723633 3.1831626892089844 2.2463796138763428
33.26816940307617 3.1562368869781494 0.6166290044784546
33.694114685058594 3.066539764404297 2.2435240745544434
33.21426773071289 3.034243106842041 0.6197670102119446
33.696537017822266 2.9541664123535156 2.2414391040802
32.99319076538086 2.903827428817749 0.6374576091766357
33.704044342041016 2.8363492488861084 2.2390451431274414
32.620689392089844 2.756409168243408 0.6682020425796509
33.71862030029297 2.7191174030303955 2.2363698482513428
32.90794372558594 2.665065050125122 0.6416420340538025
33.6954231262207 2.59893798828125 2.2350943088531494
33.341461181640625 2.5830912590026855 0.6023059487342834
33.71415328979492 2.482069730758667 2.2322304248809814
32.828433990478516 2.428182601928711 0.6452042460441589
33.71253967285156 2.3637046813964844 2.230114459991455
32.92593002319336 2.3199117183685303 0.6349958181381226
33.718379974365234 2.2399957180023193 2.2275917530059814
33.12782287597656 2.212190628051758 0.6155630350112915
33.71092987060547 2.121375322341919 2.2256646156311035
33.0953483581543 2.0940661430358887 0.6165788769721985
33.70271682739258 2.0087149143218994 2.223863363265991
32.975101470947266 1.9767510890960693 0.6253081560134888
33.6894645690918 1.8899732828140259 2.2221271991729736
15.818842887878418 0.8939550518989563 2.120079517364502
33.71321105957031 1.7733137607574463 2.2189724445343018
15.806835174560547 0.8379616737365723 2.1202118396759033
33.706626892089844 1.655043363571167 2.2169530391693115
15.826963424682617 0.7836599946022034 2.1175217628479004
15.83446979522705 0.7286564707756042 2.115915298461914
15.83680534362793 0.6733989715576172 2.114743709564209
12.480494499206543 0.4831773042678833 3.0218987464904785
15.843925476074219 0.6183270812034607 2.113135576248169
19.296058654785156 0.7560942769050598 0.8524042367935181
12.462162971496582 0.4367472231388092 3.0216939449310303
15.84846019744873 0.5603602528572083 2.1116855144500732
19.35293960571289 0.6873234510421753 0.8434268832206726
12.461073875427246 0.39317768812179565 3.0208663940429688
15.8477201461792 0.5049759149551392 2.1107301712036133
12.549727439880371 0.35212886333465576 3.0165822505950928
15.859233856201172 0.4499547481536865 2.108682632446289
19.319721221923828 0.5512003898620605 0.8456634283065796
15.860596656799316 0.39461246132850647 2.1075079441070557
19.33370018005371 0.48409539461135864 0.842529833316803
15.869180679321289 0.3421933054924011 2.1057350635528564
12.56505012512207 0.22313988208770752 3.0133554935455322
15.880128860473633 0.28699570894241333 2.10368275642395
33.79527282714844 0.47877946496009827 2.1899399757385254
15.870965003967285 0.2314375787973404 2.103381633758545
33.776641845703125 0.36063021421432495 2.188209295272827
15.884014129638672 0.1761922538280487 2.1011087894439697
33.80506896972656 0.24295468628406525 2.184635877609253
32.903045654296875 0.24799223244190216 0.599834680557251
12.5692720413208 0.04555021971464157 3.009483814239502
32.91096496582031 0.12746553122997284 0.5966129302978516
12.621770858764648 0.0016862815245985985 3.006503105163574
32.91347885131836 0.01262497529387474 0.5939505696296692
12.681611061096191 -0.042570002377033234 3.003221273422241
32.895668029785156 -0.10216926038265228 0.5930488705635071
12.731318473815918 -0.08495267480611801 3.0003695487976074
32.93727111816406 -0.21149100363254547 0.586985170841217
12.790851593017578 -0.12999871373176575 2.997070550918579
32.91618728637695 -0.3262234330177307 0.5863028764724731
12.747811317443848 -0.17404687404632568 2.997791051864624
32.91213607788086 -0.44104668498039246 0.584078848361969
12.647174835205078 -0.21680240333080292 3.000781774520874
32.9151496887207 -0.5559729337692261 0.5811929106712341
12.643798828125 -0.26088324189186096 2.999940872192383
33.75430679321289 -0.6880282163619995 0.5040549635887146
33.842533111572266 -0.8198466300964355 2.160170793533325
33.734046936035156 -0.8053901791572571 0.5030947327613831
33.83935546875 -0.9379405975341797 2.1576552391052246
33.56650924682617 -0.9185919761657715 0.5151973962783813
33.8382682800293 -1.056100845336914 2.155040740966797
33.03520584106445 -1.0193994045257568 0.5596679449081421
33.85153579711914 -1.1806925535202026 2.151702404022217
33.27739334106445 -1.148951768875122 0.5351376533508301
33.317745208740234 -1.2667696475982666 0.5286679267883301
12.931387901306152 -0.5356231331825256 2.3456599712371826
12.55089282989502 -0.568091630935669 2.996613025665283
12.956709861755371 -0.581976056098938 2.342252731323242
12.698491096496582 -0.6192100644111633 2.9896719455718994
33.34176254272461 -1.6174044609069824 0.517673134803772
13.005654335021973 -0.6774654388427734 2.9763364791870117
13.143744468688965 -0.6800602674484253 2.323228597640991
13.000673294067383 -0.7227073311805725 2.975468873977661
13.133739471435547 -0.7255068421363831 2.32291841506958
12.978950500488281 -0.7145197987556458 1.6915562152862549
12.931575775146484 -0.7070514559745789 1.04652738571167
12.926928520202637 -0.7084686160087585 0.38356471061706543
12.80601692199707 -0.756694495677948 2.982252359390259
12.964488983154297 -0.761522650718689 2.3368828296661377
12.946573257446289 -0.7580597996711731 1.6947277784347534
12.928841590881348 -0.7521645426750183 1.0455646514892578
12.914435386657715 -0.7529950141906738 0.3849448561668396
12.803252220153809 -0.8013781309127808 2.9812986850738525
12.911955833435059 -0.8036549687385559 2.340381383895874
12.921467781066895 -0.8018443584442139 1.6968690156936646
12.913689613342285 -0.7965099215507507 1.0469317436218262
12.872678756713867 -0.7956400513648987 0.39335736632347107
11.962850570678711 -0.7905646562576294 3.0142951011657715
12.874192237854004 -0.8464127779006958 2.3425471782684326
12.92339038848877 -0.847249448299408 1.6952159404754639
12.910643577575684 -0.8415600657463074 1.0459697246551514
12.91566276550293 -0.8435606360435486 0.3812631666660309
11.977418899536133 -0.833522617816925 3.012695074081421
12.9257173538208 -0.8951238989830017 2.3366692066192627
12.151117324829102 -0.8903943300247192 3.004556894302368
12.91231918334961 -0.9417500495910645 2.336552619934082
12.187742233276367 -0.9358583688735962 3.0020253658294678
12.906377792358398 -0.9866102933883667 2.3358142375946045
12.493282318115234 -1.001047134399414 2.9885406494140625
12.88309097290039 -1.027801513671875 2.336693286895752
12.50709056854248 -1.046098232269287 2.9868953227996826
12.884294509887695 -1.0731637477874756 2.3352839946746826
12.438618659973145 -1.0840873718261719 2.9886183738708496
12.42227554321289 -1.1263571977615356 2.9882025718688965
13.343072891235352 -1.252252221107483 2.2896759510040283
12.779468536376953 -1.2487965822219849 2.971249580383301
33.64906692504883 -3.279581069946289 0.44412466883659363
12.802322387695312 -1.296156644821167 2.9691638946533203
33.607452392578125 -3.393972635269165 0.44431525468826294
12.809859275817871 -1.3443626165390015 2.967644691467285
33.7208366394043 -3.53031325340271 0.43018314242362976
13.229681968688965 -1.4351873397827148 2.9490272998809814
33.77738952636719 -3.6554629802703857 0.42134761810302734
13.358589172363281 -1.4963810443878174 2.9424519538879395
33.88296127319336 -3.7865846157073975 0.4079863429069519
13.34331226348877 -1.5418399572372437 2.941868543624878
33.89897918701172 -3.908216714859009 0.40274304151535034
15.947136878967285 -1.8284722566604614 0.4376157522201538
13.226466178894043 -1.5727771520614624 2.9455933570861816
33.747154235839844 -4.0041327476501465 0.4130014181137085
15.852974891662598 -1.8709466457366943 0.45336490869522095
12.608464241027832 -1.5438406467437744 2.9702956676483154
33.794525146484375 -4.129419326782227 0.4048210382461548
15.921684265136719 -1.9354407787322998 0.43763723969459534
12.558345794677734 -1.5822027921676636 2.971228837966919
33.63887023925781 -4.229604721069336 0.41520681977272034
16.111955642700195 -2.0156939029693604 0.39843493700027466
33.96709442138672 -4.4034199714660645 2.0679049491882324
33.67058181762695 -4.35302734375 0.40838387608528137
15.917060852050781 -2.047745943069458 0.43337926268577576
33.9959716796875 -4.527865409851074 2.0634825229644775
33.74872589111328 -4.482954502105713 0.3972436189651489
15.875500679016113 -2.098757266998291 0.43876415491104126
33.98398208618164 -4.653078079223633 2.0606024265289307
33.874900817871094 -4.626123428344727 0.38142064213752747
15.796900749206543 -2.1473007202148438 0.45114293694496155
33.97237014770508 -4.772337436676025 2.057849645614624
33.929813385009766 -4.754322052001953 0.37229517102241516
15.82312297821045 -2.207155227661133 0.4433804750442505
34.01720428466797 -4.899765968322754 2.0526788234710693
33.962059020996094 -4.879772186279297 0.36520645022392273
16.08002471923828 -2.3002800941467285 0.3909437656402588
33.997314453125 -5.01807975769043 2.0502376556396484
33.97906494140625 -5.003330707550049 0.3594770133495331
15.921045303344727 -2.334266424179077 0.41890400648117065
34.01405715942383 -5.1419172286987305 2.046215772628784
33.9931640625 -5.126695156097412 0.35397082567214966
15.868860244750977 -2.383229970932007 0.4261826276779175
34.0189323425293 -5.25808572769165 2.042844533920288
33.997894287109375 -5.242768287658691 0.3495011627674103
15.816965103149414 -2.4290997982025146 0.4335273802280426
34.02738952636719 -5.38106107711792 2.0391321182250977
34.001277923583984 -5.36486291885376 0.3449006676673889
15.827559471130371 -2.487320899963379 0.4285753071308136
34.02801513671875 -5.502963542938232 2.0357348918914795
33.996856689453125 -5.485854148864746 0.340983122587204
15.806428909301758 -2.5405771732330322 0.42974504828453064
34.04791259765625 -5.6281938552856445 2.031484842300415
33.99937057495117 -5.608098030090332 0.33637866377830505
15.816614151000977 -2.5988962650299072 0.42479005455970764
34.04519271850586 -5.7498884201049805 2.0281882286071777
33.998992919921875 -5.730012893676758 0.33200085163116455
34.05925750732422 -5.87460470199585 2.0241432189941406
34.0006217956543 -5.8524169921875 0.3273911476135254
34.05952072143555 -6.003265857696533 2.020500421524048
34.02037811279297 -5.984285831451416 0.32081958651542664
15.763154029846191 -2.7628097534179688 0.42589524388313293
34.08495330810547 -6.13048791885376 2.01591420173645
15.9030122756958 -2.844609260559082 0.3954471945762634
34.077972412109375 -6.252100467681885 2.012713670730591
15.854109764099121 -2.8930203914642334 0.4018095135688782
34.107391357421875 -6.380630970001221 2.0079028606414795
34.028541564941406 -6.353793621063232 0.306278258562088
16.075374603271484 -2.9914615154266357 0.3552708029747009
34.078575134277344 -6.492264270782471 2.005793333053589
33.980159759521484 -6.461444854736328 0.30638062953948975
16.12302589416504 -3.055704355239868 0.34278321266174316
34.07029724121094 -6.614003658294678 2.002588987350464
34.00114822387695 -6.588502883911133 0.29968973994255066
16.00356101989746 -3.090975046157837 0.36284661293029785
34.06404113769531 -6.736248016357422 1.999276876449585
34.024105072021484 -6.716269016265869 0.2927623391151428
16.08637237548828 -3.1652870178222656 0.3432011902332306
34.01817321777344 -6.850639820098877 1.9976913928985596
34.046592712402344 -6.844277381896973 0.2858302593231201
16.087018966674805 -3.2238047122955322 0.339627742767334
33.95234298706055 -6.960779190063477 1.9969769716262817
33.963714599609375 -6.951054096221924 0.2888071835041046
16.154802322387695 -3.2961151599884033 0.3228009343147278
33.947288513183594 -7.083301067352295 1.993558406829834
33.8927001953125 -7.059877395629883 0.2906402051448822
16.145360946655273 -3.352957248687744 0.32111382484436035
33.90876388549805 -7.205044269561768 1.9914233684539795
33.88826370239258 -7.188658237457275 0.28588783740997314
16.120702743530273 -3.4095396995544434 0.3222087323665619
33.88817596435547 -7.324384689331055 1.9886571168899536
33.867591857910156 -7.307914733886719 0.2828782796859741
16.223651885986328 -3.4905600547790527 0.29825302958488464
33.923274993896484 -7.456005096435547 1.983384609222412
33.85379409790039 -7.428716659545898 0.2791758179664612
16.110414505004883 -3.525092124938965 0.3169425129890442
33.939693450927734 -7.577679634094238 1.9791052341461182
16.09122085571289 -3.576871633529663 0.3172139823436737
33.93240737915039 -7.700494289398193 1.9756773710250854
16.114309310913086 -3.6411097049713135 0.30888843536376953
33.8505973815918 -7.8000407218933105 1.9757722616195679
34.0090446472168 -7.824496269226074 0.2495402991771698
16.13301658630371 -3.701639413833618 0.3015681803226471
33.8692512512207 -7.928938865661621 1.9711406230926514
34.00551986694336 -7.948787689208984 0.2446611523628235
16.124540328979492 -3.759019136428833 0.2994047999382019
33.89957046508789 -8.060952186584473 1.965954065322876
34.06208801269531 -8.087529182434082 0.2339741587638855
33.89053726196289 -8.183892250061035 1.9625225067138672
33.994686126708984 -8.196998596191406 0.23512902855873108
33.95139694213867 -8.324116706848145 1.9558907747268677
34.028656005859375 -8.469091415405273 1.9484742879867554
34.07959747314453 -8.614534378051758 1.9420210123062134
34.09757995605469 -8.745820045471191 1.9372369050979614
34.11023712158203 -8.876078605651855 1.9326698780059814
34.13689041137695 -9.010358810424805 1.927430272102356
34.136470794677734 -9.137825012207031 1.9234092235565186
34.13558578491211 -9.265400886535645 1.9193854331970215
34.12459182739258 -9.390429496765137 1.9158045053482056
34.12516403198242 -9.518851280212402 1.9116640090942383
34.132469177246094 -9.649430274963379 1.9071835279464722
34.12487030029297 -9.77604866027832 1.9033725261688232
34.136653900146484 -9.91495418548584 1.8984180688858032
34.130470275878906 -10.042479515075684 1.8944892883300781
34.13816452026367 -10.174363136291504 1.8898805379867554
34.130428314208984 -10.295414924621582 1.8861876726150513
19.78704261779785 -5.9575066566467285 0.5188207030296326
34.14193344116211 -10.42905044555664 1.881345510482788
19.607332229614258 -5.978145122528076 0.5412608981132507
34.1457633972168 -10.560675621032715 1.8768380880355835
19.444271087646484 -6.002715587615967 0.5612246990203857
34.16339111328125 -10.696934700012207 1.8716453313827515
19.321434020996094 -6.038773536682129 0.5751314163208008
34.16857147216797 -10.829670906066895 1.8670158386230469
19.179712295532227 -6.0680766105651855 0.5919173955917358
34.18275833129883 -10.965624809265137 1.8619263172149658
19.049802780151367 -6.100238800048828 0.6069332361221313
34.17266082763672 -11.094100952148438 1.8579713106155396
18.94344711303711 -6.139199733734131 0.618385374546051
34.18342590332031 -11.229652404785156 1.852986454963684
18.900527954101562 -6.198318004608154 0.6201769113540649
34.179447174072266 -11.360689163208008 1.8486826419830322
18.843338012695312 -6.252535343170166 0.62412428855896
34.18716049194336 -11.502575874328613 1.8435596227645874
18.838829040527344 -6.327830791473389 0.6197572946548462
34.17032241821289 -11.629855155944824 1.8398233652114868
18.825780868530273 -6.3967084884643555 0.6168960332870483
34.17661666870117 -11.765286445617676 1.8349361419677734
18.833538055419922 -6.472812175750732 0.6108027100563049
16.44685935974121 -5.646106243133545 0.10033155232667923
34.17559051513672 -11.905223846435547 1.8301446437835693
16.388708114624023 -5.693432331085205 0.1067046970129013
34.19234848022461 -12.038362503051758 1.8249168395996094
16.38106918334961 -5.751784801483154 0.10312393307685852
34.175872802734375 -12.16682243347168 1.8210550546646118
16.36526107788086 -5.810544013977051 0.10092170536518097
34.15167236328125 -12.285971641540527 1.8177837133407593
16.64154624938965 -5.977189064025879 0.9296543598175049
34.16008758544922 -12.42385482788086 1.812645435333252
25.11727523803711 -9.125720024108887 0.9424222111701965
18.91547203063965 -6.868894577026367 0.5731639266014099
34.174983978271484 -12.564529418945312 1.8071545362472534
16.248531341552734 -5.958386421203613 0.10880953073501587
34.27593231201172 -12.737654685974121 1.797356367111206
18.850383758544922 -6.994696617126465 0.5728184580802917
16.18597412109375 -5.999686241149902 0.11623753607273102
34.32230758666992 -12.891437530517578 1.790216326713562
18.867328643798828 -7.076066017150879 0.5649005770683289
16.17157554626465 -6.0587029457092285 0.11356531828641891
34.3143310546875 -13.025313377380371 1.7857460975646973
18.84229278564453 -7.141853332519531 0.5634689331054688
16.12483787536621 -6.105527877807617 0.11763465404510498
34.324520111083984 -13.173330307006836 1.7800922393798828
18.866579055786133 -7.230316162109375 0.5540301203727722
16.150196075439453 -6.182981491088867 0.10623477399349213
34.33640670776367 -13.315604209899902 1.7745627164840698
18.861766815185547 -7.304141044616699 0.5493490695953369
34.338417053222656 -13.454477310180664 1.7694956064224243
18.849756240844727 -7.375316619873047 0.545750081539154
34.34219741821289 -13.594447135925293 1.7643073797225952
18.858184814453125 -7.454684734344482 0.5388984680175781
34.35246658325195 -13.730469703674316 1.7590093612670898
18.85382843017578 -7.525407314300537 0.534284234046936
34.357460021972656 -13.8717679977417 1.753692865371704
18.859338760375977 -7.604097843170166 0.5277881026268005
34.36882400512695 -14.016098022460938 1.7480179071426392
18.866825103759766 -7.6838531494140625 0.5209273099899292
34.370361328125 -14.15687370300293 1.742809534072876
18.869403839111328 -7.761870861053467 0.5147867798805237
34.3690299987793 -14.296871185302734 1.737714171409607
18.876237869262695 -7.8418989181518555 0.5079193711280823
34.3763427734375 -14.440899848937988 1.7321418523788452
18.864492416381836 -7.914412021636963 0.5039471387863159
34.380516052246094 -14.591153144836426 1.7264324426651
18.878395080566406 -8.001815795898438 0.49555179476737976
34.386627197265625 -14.735633850097656 1.7208482027053833
18.866043090820312 -8.07444953918457 0.4915761947631836
34.40361404418945 -14.88529109954834 1.7146644592285156
18.87384605407715 -8.155926704406738 0.48433414101600647
34.4039421081543 -15.028247833251953 1.7093067169189453
18.88584327697754 -8.239538192749023 0.4763621687889099
18.917856216430664 -8.332305908203125 0.4651171565055847
34.478553771972656 -15.341197967529297 1.6948885917663574
18.948671340942383 -8.421089172363281 0.45429956912994385
34.42467498779297 -15.461421966552734 1.6922614574432373
16.520105361938477 -7.410759449005127 0.8393293619155884
34.45906066894531 -15.621670722961426 1.6849687099456787
16.446622848510742 -7.446924686431885 0.8457090854644775
34.424625396728516 -15.751175880432129 1.6812622547149658
16.440574645996094 -7.513516902923584 0.8411803245544434
34.43505096435547 -15.901572227478027 1.6751554012298584
16.418540954589844 -7.572906017303467 0.8391987085342407
34.426185607910156 -16.050853729248047 1.6697523593902588
16.352352142333984 -7.615250587463379 0.8440765738487244
