# .PCD v0.7 - Point Cloud Data file format
VERSION 0.7
FIELDS x y z
SIZE 4 4 4
TYPE F F F
COUNT 1 1 1
WIDTH 852
HEIGHT 1
VIEWPOINT 0 0 0 1 0 0 0
POINTS 852
DATA ascii
33.04545211791992 16.942476272583008 1.9093692302703857
33.069183349609375 16.699382781982422 1.9093247652053833
33.079551696777344 16.450849533081055 1.9098906517028809
33.08811950683594 16.202821731567383 1.9104652404785156
33.099395751953125 15.957473754882812 1.9108141660690308
33.120635986328125 15.718165397644043 1.9105602502822876
33.1302375793457 15.47454833984375 1.9108296632766724
33.125396728515625 15.225564956665039 1.9117664098739624
33.159706115722656 14.995743751525879 1.9105867147445679
33.113956451416016 14.731159210205078 1.9134854078292847
33.13759231567383 14.498930931091309 1.9126986265182495
33.148616790771484 14.26223087310791 1.9124871492385864
33.16903305053711 14.030610084533691 1.9117088317871094
33.1749382019043 13.793905258178711 1.9116051197052002
33.19121170043945 13.562568664550781 1.9108846187591553
33.232784271240234 13.342342376708984 1.9087741374969482
33.097286224365234 13.052858352661133 1.9157761335372925
33.1411247253418 12.835885047912598 1.9133943319320679
33.57845687866211 12.76903247833252 1.8905115127563477
33.68400955200195 12.573298454284668 1.8847707509994507
33.73308563232422 12.35647964477539 1.8818838596343994
33.733768463134766 12.122642517089844 1.8814334869384766
33.742279052734375 11.892580032348633 1.8805010318756104
33.75112533569336 11.66352367401123 1.8794761896133423
33.74897384643555 11.431599617004395 1.8789480924606323
33.767051696777344 11.207377433776855 1.877294659614563
33.787452697753906 10.984597206115723 1.8754456043243408
33.78640365600586 10.755626678466797 1.8746380805969238
33.802894592285156 10.533023834228516 1.8728454113006592
33.809326171875 10.307999610900879 1.8715031147003174
33.79130172729492 10.076444625854492 1.8713618516921997
33.823490142822266 9.860591888427734 1.868531346321106
33.83413314819336 9.638976097106934 1.8667513132095337
33.85198974609375 9.420008659362793 1.8645219802856445
33.86168670654297 9.19935131072998 1.8626469373703003
33.86705780029297 8.97816276550293 1.860926866531372
33.87485885620117 8.75825023651123 1.8590075969696045
33.87929916381836 8.538093566894531 1.8571934700012207
33.88716506958008 8.319400787353516 1.8551287651062012
33.91402816772461 8.105806350708008 1.8519952297210693
33.891876220703125 7.8811116218566895 1.8513660430908203
33.909156799316406 7.666242599487305 1.8485935926437378
33.926055908203125 7.451669216156006 1.8457703590393066
33.94941711425781 7.2388434410095215 1.8425339460372925
33.96459197998047 7.024594306945801 1.8396581411361694
33.9686279296875 6.808467388153076 1.8372998237609863
33.97129440307617 6.592554569244385 1.8349435329437256
33.97062683105469 6.376495838165283 1.8326947689056396
33.986270904541016 6.1638994216918945 1.8295103311538696
34.00059127807617 5.95134973526001 1.82632577419281
34.01554870605469 5.739187717437744 1.8230363130569458
34.024253845214844 5.52626371383667 1.820007562637329
34.024723052978516 5.3123698234558105 1.817348837852478
34.01298904418945 5.097049713134766 1.8152726888656616
34.029544830322266 4.886329174041748 1.8116145133972168
34.04776382446289 4.676003932952881 1.8077956438064575
34.0557746887207 4.464468955993652 1.8044530153274536
34.06544494628906 4.253382682800293 1.8009494543075562
34.076778411865234 4.042696952819824 1.797285556793213
33.54103469848633 3.7706809043884277 1.8230777978897095
33.50372314453125 3.5585405826568604 1.821951985359192
33.588279724121094 3.3593192100524902 1.814164161682129
33.647796630859375 3.156954526901245 1.8076492547988892
33.66032409667969 2.94997501373291 1.8036081790924072
33.665611267089844 2.7424728870391846 1.7998888492584229
33.666629791259766 2.534790515899658 1.7963330745697021
33.68231201171875 2.328299045562744 1.7919055223464966
33.6817741394043 2.1207683086395264 1.7882932424545288
33.665000915527344 1.9124810695648193 1.78550124168396
33.66987991333008 1.7056394815444946 1.7814528942108154
12.387833595275879 0.5516330599784851 2.9506406784057617
12.35498046875 0.47425737977027893 2.95101261138916
12.401484489440918 0.39987683296203613 2.9469738006591797
12.776918411254883 0.33353108167648315 2.924650192260742
12.519088745117188 0.24997612833976746 2.9374160766601562
33.75334167480469 0.46620431542396545 1.752631425857544
12.469123840332031 0.0959772914648056 2.937051773071289
12.541280746459961 0.019599368795752525 2.9314017295837402
12.64591121673584 -0.057812321931123734 2.9238834381103516
12.75804615020752 -0.13659316301345825 2.9158878326416016
12.73292064666748 -0.21444478631019592 2.9155731201171875
33.808074951171875 -0.7775047421455383 1.722708821296692
33.81239700317383 -0.9851605892181396 1.7177261114120483
33.81645202636719 -1.1929354667663574 1.7126835584640503
12.47209358215332 -0.5163496732711792 2.923233985900879
12.631155014038086 -0.6005783081054688 2.912322759628296
13.177451133728027 -0.7076141238212585 2.8791706562042236
12.844895362854004 -0.768797755241394 2.8962631225585938
11.854618072509766 -0.7825082540512085 2.9512763023376465
12.26872444152832 -0.8854798078536987 2.925534725189209
12.676018714904785 -0.9930922389030457 2.900028944015503
12.382105827331543 -1.0465210676193237 2.9150476455688477
33.901676177978516 -3.075587034225464 1.6609734296798706
12.733823776245117 -1.2337840795516968 2.890465259552002
33.90160369873047 -3.4954512119293213 1.6496986150741577
13.308016777038574 -1.454458236694336 2.8524723052978516
33.9310302734375 -3.9197916984558105 1.6363645792007446
12.476383209228516 -1.518670916557312 2.8969473838806152
33.95017623901367 -4.344751834869385 1.6232900619506836
33.968135833740234 -4.559030055999756 1.6161245107650757
33.97684097290039 -4.772581577301025 1.6094210147857666
33.991111755371094 -4.987427234649658 1.6022952795028687
33.99612808227539 -5.201421737670898 1.5956345796585083
34.004722595214844 -5.416451454162598 1.5886696577072144
34.00998306274414 -5.631457805633545 1.581815242767334
34.006019592285156 -5.845380783081055 1.5754297971725464
29.2619686126709 -5.2148942947387695 1.8567607402801514
34.02446746826172 -6.279327869415283 1.5607898235321045
34.04387283325195 -6.499147415161133 1.5527071952819824
34.02758026123047 -6.712679862976074 1.5467145442962646
33.9727783203125 -6.918688774108887 1.5430063009262085
33.90305709838867 -7.121406555175781 1.5401501655578613
33.916019439697266 -7.341693878173828 1.5321063995361328
33.97237014770508 -7.572399139404297 1.5212651491165161
34.00673294067383 -7.799386024475098 1.511676549911499
34.022090911865234 -8.022956848144531 1.5031648874282837
34.06024169921875 -8.252887725830078 1.4931180477142334
34.050350189208984 -8.472020149230957 1.485984444618225
34.078697204589844 -8.701467514038086 1.4763354063034058
34.10647201538086 -8.931835174560547 1.4666085243225098
34.11727523803711 -9.158732414245605 1.457849383354187
34.136192321777344 -9.388745307922363 1.4484624862670898
34.11034393310547 -9.607159614562988 1.4418379068374634
34.104190826416016 -9.831692695617676 1.433850646018982
34.1386833190918 -10.068938255310059 1.4231280088424683
34.13427734375 -10.295735359191895 1.414809226989746
34.150306701660156 -10.529623031616211 1.4050490856170654
34.15237045288086 -10.7601957321167 1.3960857391357422
34.16524124145508 -10.995166778564453 1.3862990140914917
34.14236831665039 -11.219483375549316 1.3787527084350586
34.11329650878906 -11.44234848022461 1.3715145587921143
34.182865142822266 -11.69953727722168 1.3576098680496216
34.162925720214844 -11.927414894104004 1.3495334386825562
34.14805221557617 -12.15783405303955 1.3410090208053589
34.16447067260742 -12.400437355041504 1.3302628993988037
34.274662017822266 -12.679018020629883 1.3130378723144531
34.3192024230957 -12.935482025146484 1.3000879287719727
34.333003997802734 -13.181879043579102 1.2890863418579102
34.32926559448242 -13.422755241394043 1.2791532278060913
34.34239959716797 -13.671463966369629 1.2679296731948853
34.357479095458984 -13.922337532043457 1.2564339637756348
34.362449645996094 -14.170488357543945 1.2454981803894043
34.36014938354492 -14.41690731048584 1.234932541847229
34.37263107299805 -14.670883178710938 1.223196268081665
34.38236618041992 -14.925156593322754 1.2115072011947632
29.547212600708008 -13.04227352142334 1.5425270795822144
34.430023193359375 -15.450824737548828 1.1856834888458252
34.410545349121094 -15.696513175964355 1.1756268739700317
34.434600830078125 -15.963529586791992 1.1623116731643677
34.44223403930664 -16.224628448486328 1.1500170230865479
34.47224807739258 -16.4980525970459 1.1359436511993408
34.4732780456543 -16.75936508178711 1.123807668685913
34.47060012817383 -17.020429611206055 1.1117862462997437
34.481170654296875 -17.28969383239746 1.098633885383606
34.40169906616211 -17.51490592956543 1.0919678211212158
34.36064910888672 -17.760414123535156 1.0823436975479126
34.41153335571289 -18.05522346496582 1.0657256841659546
34.39227294921875 -18.31520652770996 1.0541634559631348
34.4536247253418 -18.620229721069336 1.0363695621490479
34.40840530395508 -18.869596481323242 1.0264289379119873
30.815383911132812 -17.14599609375 1.286553978919983
34.581153869628906 -19.520320892333984 0.9859779477119446
34.563453674316406 -19.79106903076172 0.9733873009681702
34.55580520629883 -20.069353103637695 0.9598487019538879
34.5821418762207 -20.36955451965332 0.9434842467308044
34.5949592590332 -20.664182662963867 0.9279655814170837
34.5789909362793 -20.943708419799805 0.9145039916038513
34.55918884277344 -21.22277069091797 0.9011611938476562
34.53894805908203 -21.503433227539062 0.8876696228981018
34.570560455322266 -21.8187255859375 0.8698475360870361
34.561771392822266 -22.11101722717285 0.8550359010696411
34.60594177246094 -22.43984603881836 0.8357403874397278
34.62568664550781 -22.75580406188965 0.8181741237640381
34.57392883300781 -23.026941299438477 0.8062175512313843
34.732662200927734 -23.441740036010742 0.776773989200592
34.73771667480469 -23.756847381591797 0.7596642374992371
34.745941162109375 -24.076871871948242 0.7420541644096375
34.753173828125 -24.399036407470703 0.724281907081604
34.81627655029297 -24.763830184936523 0.7015559673309326
34.814693450927734 -25.08598518371582 0.6840021014213562
34.812870025634766 -25.410812377929688 0.6662194132804871
34.835636138916016 -25.756729125976562 0.6460742950439453
34.84587478637695 -26.096702575683594 0.626725971698761
34.86119079589844 -26.443796157836914 0.6066609621047974
34.87196350097656 -26.79084014892578 0.5867047905921936
34.85301208496094 -27.118181228637695 0.5690754652023315
34.878360748291016 -27.483341217041016 0.5472650527954102
34.90130615234375 -27.85045051574707 0.5253530144691467
34.799232482910156 -28.120433807373047 0.5143283009529114
34.783939361572266 -28.462862014770508 0.49529558420181274
34.89939498901367 -28.916906356811523 0.4641016125679016
34.890594482421875 -29.272769927978516 0.4438183605670929
34.925865173339844 -29.669649124145508 0.4191725552082062
34.9371452331543 -30.05049705505371 0.3963814079761505
34.90744400024414 -30.39983558654785 0.3770676553249359
34.86503219604492 -30.741361618041992 0.35864776372909546
34.95516586303711 -31.204416275024414 0.3274007737636566
34.73823547363281 -31.396163940429688 0.3249289393424988
35.052337646484375 -32.07328414916992 0.2714531123638153
34.92913055419922 -32.35682678222656 0.2594258785247803
35.06350326538086 -32.8836669921875 0.22213082015514374
35.00607681274414 -33.23616027832031 0.20305782556533813
32.377906799316406 30.893566131591797 1.4876573085784912
32.3579216003418 30.497756958007812 1.4974396228790283
32.3167724609375 30.08702850341797 1.5084010362625122
32.44532012939453 29.8375244140625 1.508026361465454
32.50178909301758 29.523773193359375 1.512223720550537
32.457496643066406 29.122400283813477 1.5228089094161987
32.405033111572266 28.71871566772461 1.5337148904800415
32.548763275146484 28.49177360534668 1.5317442417144775
32.560218811035156 28.151132583618164 1.5381683111190796
32.575565338134766 27.817264556884766 1.5441701412200928
32.5933837890625 27.488780975341797 1.5498454570770264
32.60611343383789 27.159208297729492 1.5556814670562744
32.615257263183594 26.82988166809082 1.5615813732147217
32.63632583618164 26.513437271118164 1.5665645599365234
32.63449478149414 26.181493759155273 1.5728390216827393
32.650177001953125 25.866703033447266 1.5778502225875854
32.66795349121094 25.556394577026367 1.582578182220459
32.689483642578125 25.251731872558594 1.5869234800338745
32.70930099487305 24.948373794555664 1.5912305116653442
32.71786117553711 24.639116287231445 1.5960962772369385
32.727874755859375 24.333675384521484 1.60072660446167
32.749061584472656 24.039087295532227 1.604522943496704
32.51878356933594 23.564653396606445 1.6237257719039917
32.57636642456055 23.303144454956055 1.6249717473983765
32.67276382446289 23.070621490478516 1.6237090826034546
32.611854553222656 22.729290008544922 1.6319926977157593
32.702693939208984 22.49599266052246 1.6308341026306152
32.709266662597656 22.206336975097656 1.6347167491912842
32.72099685668945 21.922452926635742 1.6381570100784302
32.68299102783203 21.607866287231445 1.6444990634918213
32.73102569580078 21.352413177490234 1.6454805135726929
32.7746467590332 21.095563888549805 1.646616816520691
32.748905181884766 20.796154022216797 1.6518372297286987
32.764739990234375 20.52542495727539 1.6544198989868164
32.75469970703125 20.24058723449707 1.658447027206421
32.64860153198242 19.89946937561035 1.6681362390518188
32.620025634765625 19.608787536621094 1.6730307340621948
32.789276123046875 19.437864303588867 1.6659339666366577
32.84040069580078 19.197057723999023 1.6658333539962769
32.864715576171875 18.94189453125 1.667234182357788
32.86195755004883 18.6728458404541 1.6701462268829346
32.81270980834961 18.379655838012695 1.6757220029830933
32.87651062011719 18.1514892578125 1.6744463443756104
32.9896240234375 17.95091438293457 1.6701388359069824
33.01790237426758 17.704803466796875 1.670784592628479
33.029396057128906 17.45108413696289 1.6723260879516602
33.0266227722168 17.19144058227539 1.6746121644973755
33.0459098815918 16.944787979125977 1.6754887104034424
33.0651969909668 16.69944953918457 1.676265835762024
33.05589294433594 16.4411678314209 1.678635597229004
33.082340240478516 16.202077865600586 1.6787933111190796
33.08821487426758 15.954171180725098 1.6800705194473267
33.11033630371094 15.715367317199707 1.6802918910980225
33.11992263793945 15.471821784973145 1.6811585426330566
33.12867736816406 15.229166030883789 1.6819791793823242
33.15298843383789 14.994804382324219 1.6817903518676758
33.10725021362305 14.73027229309082 1.685630440711975
33.12721633911133 14.496490478515625 1.685511589050293
33.14373016357422 14.262228965759277 1.6855050325393677
33.14114761352539 14.020915985107422 1.686530351638794
33.16635513305664 13.792442321777344 1.685832142829895
33.185386657714844 13.562296867370605 1.6854087114334106
33.22694396972656 13.342109680175781 1.6835750341415405
33.08684539794922 13.050843238830566 1.692311406135559
33.130653381347656 12.833935737609863 1.6901695728302002
33.56315612792969 12.765358924865723 1.665145754814148
33.68080520629883 12.574260711669922 1.6585055589675903
33.72611618041992 12.35608959197998 1.6560213565826416
33.7324333190918 12.1243257522583 1.655737280845642
33.7503662109375 11.89759635925293 1.6546860933303833
33.752628326416016 11.66620922088623 1.6544678211212158
33.753326416015625 11.435242652893066 1.6542565822601318
33.761940002441406 11.207852363586426 1.6534966230392456
33.78423309326172 10.985723495483398 1.6518508195877075
33.796504974365234 10.761015892028809 1.650707483291626
33.79776382446289 10.533600807189941 1.6501288414001465
33.801326751708984 10.307738304138184 1.6493310928344727
33.792869567871094 10.079089164733887 1.6491572856903076
33.815467834472656 9.860433578491211 1.6470768451690674
33.83858108520508 9.642426490783691 1.644884467124939
33.84971237182617 9.421561241149902 1.6433144807815552
33.854591369628906 9.199610710144043 1.6420303583145142
33.8580207824707 8.977954864501953 1.6407502889633179
33.86097717285156 8.756851196289062 1.639418125152588
33.890567779541016 8.54312515258789 1.6364365816116333
33.9023323059082 8.325318336486816 1.6344243288040161
33.909786224365234 8.106988906860352 1.6325854063034058
33.90416717529297 7.886167526245117 1.6314377784729004
33.907833099365234 7.668140888214111 1.6296641826629639
33.93057632446289 7.454863548278809 1.6266831159591675
33.94417190551758 7.23992919921875 1.6241627931594849
33.9593391418457 7.0257134437561035 1.6214687824249268
33.96532440185547 6.810012340545654 1.6192399263381958
33.96406555175781 6.593359470367432 1.6173617839813232
33.970252990722656 6.378635406494141 1.6149628162384033
33.98294448852539 6.165507793426514 1.6120983362197876
33.99528884887695 5.952635765075684 1.6091760396957397
34.010231018066406 5.74050760269165 1.6060181856155396
34.02484130859375 5.528578281402588 1.6028012037277222
34.021366119384766 5.314064979553223 1.6005845069885254
34.0125846862793 5.099209308624268 1.598608136177063
34.03506088256836 4.889344692230225 1.5946825742721558
34.05228805541992 4.678851127624512 1.5909913778305054
34.0602912902832 4.467289447784424 1.5877734422683716
34.07193374633789 4.256423473358154 1.5842570066452026
34.082275390625 4.045581340789795 1.5807396173477173
33.530853271484375 3.771721124649048 1.6110262870788574
33.500492095947266 3.560380458831787 1.6098588705062866
33.583030700683594 3.3609848022460938 1.601789116859436
33.637535095214844 3.1581902503967285 1.5953257083892822
33.65700912475586 2.95188570022583 1.5909006595611572
33.65830612182617 2.744080066680908 1.587499737739563
33.66727828979492 2.537043571472168 1.5835540294647217
33.67497634887695 2.32999849319458 1.579605221748352
33.67143630981445 2.1223254203796387 1.5762643814086914
33.663631439208984 1.9146113395690918 1.5731067657470703
33.672481536865234 1.707982063293457 1.568852424621582
13.03246784210205 0.5806705951690674 2.8329598903656006
13.029701232910156 0.5004884600639343 2.831632375717163
13.014471054077148 0.41997483372688293 2.8310434818267822
33.71815872192383 0.881760835647583 1.5503910779953003
33.736637115478516 0.6751973032951355 1.5451334714889526
12.838061332702637 0.17790234088897705 2.8372228145599365
12.760965347290039 0.09854656457901001 2.8403875827789307
33.757511138916016 0.054323818534612656 1.5310052633285522
12.659215927124023 -0.057549361139535904 2.8434126377105713
12.664514541625977 -0.1352635771036148 2.841386079788208
33.792903900146484 -0.567539393901825 1.5152249336242676
12.781437873840332 -0.293362021446228 2.830556869506836
33.820762634277344 -0.9831584095954895 1.5040111541748047
33.82579040527344 -1.1910167932510376 1.498835563659668
33.830535888671875 -1.3990167379379272 1.4935929775238037
12.577595710754395 -0.5977088809013367 2.8360745906829834
13.003108978271484 -0.6978866457939148 2.807131290435791
12.857020378112793 -0.769176185131073 2.814441680908203
12.866894721984863 -0.8490115404129028 2.8118045330047607
33.877845764160156 -2.4435153007507324 1.4645863771438599
12.52996826171875 -0.9813259840011597 2.829315662384033
33.9034309387207 -2.8638880252838135 1.4519344568252563
33.893890380859375 -3.0726070404052734 1.4469126462936401
12.739930152893066 -1.2340357303619385 2.8094840049743652
33.93050765991211 -3.4961507320404053 1.433001160621643
13.376373291015625 -1.4615315198898315 2.7636942863464355
13.764568328857422 -1.5894449949264526 2.7360174655914307
33.926937103271484 -4.1281023025512695 1.4152404069900513
13.196433067321777 -1.6881781816482544 2.76829195022583
33.968109130859375 -4.556730270385742 1.4000835418701172
33.970855712890625 -4.769442081451416 1.393532156944275
33.977203369140625 -4.983084678649902 1.3866478204727173
33.9782600402832 -5.196382999420166 1.3800179958343506
33.99275588989258 -5.41223669052124 1.372398853302002
33.99504470825195 -5.626672744750977 1.365492582321167
34.01565170288086 -5.844721794128418 1.3572633266448975
29.254701614379883 -5.211721897125244 1.6698802709579468
34.024208068847656 -6.276957988739014 1.3426861763000488
34.053375244140625 -6.4986348152160645 1.3335652351379395
34.021385192871094 -6.709131240844727 1.328476071357727
33.963645935058594 -6.914504528045654 1.3250494003295898
33.92908477783203 -7.124550819396973 1.3199665546417236
33.92832946777344 -7.342031002044678 1.3124831914901733
33.935916900634766 -7.561942100524902 1.3043248653411865
33.99070358276367 -7.793371200561523 1.2928073406219482
34.06334686279297 -8.0303373336792 1.27992582321167
34.07035446166992 -8.252985000610352 1.271453619003296
34.05557632446289 -8.470967292785645 1.2643862962722778
34.103206634521484 -8.705364227294922 1.2528597116470337
34.08842468261719 -8.9247465133667 1.2455722093582153
34.112709045410156 -9.15513801574707 1.2354344129562378
34.12582015991211 -9.383519172668457 1.2259589433670044
34.11628341674805 -9.606456756591797 1.2179679870605469
34.13405227661133 -9.837922096252441 1.2079256772994995
34.137821197509766 -10.066299438476562 1.198756217956543
34.121917724609375 -10.289620399475098 1.1908750534057617
34.155086517333984 -10.528703689575195 1.1793577671051025
34.16756820678711 -10.76258659362793 1.1691930294036865
34.163265228271484 -10.992130279541016 1.1601154804229736
34.14036560058594 -11.216423988342285 1.1522680521011353
34.16707229614258 -11.457978248596191 1.1406893730163574
34.17416763305664 -11.694147109985352 1.1304062604904175
34.1749267578125 -11.929190635681152 1.1204564571380615
34.16469192504883 -12.16133975982666 1.1111879348754883
34.14069747924805 -12.389388084411621 1.1028143167495728
34.280792236328125 -12.678849220275879 1.0821104049682617
34.3028564453125 -12.92687702178955 1.0700072050094604
34.333404541015625 -13.179584503173828 1.0571173429489136
34.33055114746094 -13.420804977416992 1.0465863943099976
34.33436584472656 -13.665804862976074 1.035412311553955
34.34477996826172 -13.9147310256958 1.0235919952392578
34.36725997924805 -14.170001983642578 1.010699987411499
34.36305618286133 -14.415653228759766 0.9996927380561829
34.363548278808594 -14.664528846740723 0.9881779551506042
34.377830505371094 -14.920703887939453 0.9754467606544495
29.53630828857422 -13.035449981689453 1.3396693468093872
34.42903137207031 -15.447881698608398 0.9477300643920898
34.41404342651367 -15.695611000061035 0.9367902874946594
34.441650390625 -15.964289665222168 0.922350287437439
34.44017791748047 -16.22115135192871 0.9100282192230225
34.463836669921875 -16.49150848388672 0.8955469727516174
34.46034240722656 -16.750558853149414 0.8830493092536926
34.477325439453125 -17.021224975585938 0.868743360042572
34.467308044433594 -17.28021240234375 0.8564284443855286
34.39496612548828 -17.508949279785156 0.8489928245544434
34.3538932800293 -17.75439453125 0.8388937711715698
34.44270324707031 -18.069032669067383 0.8180315494537354
34.418880462646484 -18.32683563232422 0.8061687350273132
34.410736083984375 -18.594505310058594 0.7928463220596313
34.39972686767578 -18.862287521362305 0.77958083152771
30.808961868286133 -17.14023208618164 1.0646227598190308
34.58102798461914 -19.517669677734375 0.7354641556739807
34.59442901611328 -19.80622100830078 0.7195030450820923
34.54521179199219 -20.06061363220215 0.7086322903633118
34.59127426147461 -20.372339248657227 0.6894900798797607
34.60997772216797 -20.67055320739746 0.6724420189857483
34.60071563720703 -20.954261779785156 0.6575697660446167
34.595218658447266 -21.242290496826172 0.642167329788208
34.573089599609375 -21.522077560424805 0.6279971599578857
34.59858322143555 -21.83379554748535 0.609464168548584
34.5400505065918 -22.094505310058594 0.5980647206306458
34.59844207763672 -22.432357788085938 0.5761617422103882
34.614803314208984 -22.746017456054688 0.5577014088630676
34.594573974609375 -23.038057327270508 0.54225754737854
34.67869186401367 -23.40266227722168 0.5172150135040283
34.736576080322266 -23.753402709960938 0.4942111372947693
34.74554443359375 -24.073928833007812 0.47534188628196716
34.75514602661133 -24.397747039794922 0.45614907145500183
34.824642181396484 -24.767087936401367 0.43117809295654297
34.79623794555664 -25.069997787475586 0.4149200916290283
34.82421875 -25.41640281677246 0.3931756019592285
34.82198715209961 -25.743934631347656 0.3739522695541382
34.834598541259766 -26.085546493530273 0.35305255651474
34.87291717529297 -26.449970245361328 0.32941436767578125
34.863773345947266 -26.78182601928711 0.30996260046958923
34.83769989013672 -27.10354232788086 0.2918475270271301
34.848140716552734 -27.456798553466797 0.26993528008461
34.856327056884766 -27.81182098388672 0.24791809916496277
34.7908821105957 -28.110950469970703 0.23277197778224945
34.73078536987305 -28.416637420654297 0.21685871481895447
34.88630294799805 -28.903301239013672 0.17934447526931763
34.89122772216797 -29.270540237426758 0.15630121529102325
34.91042709350586 -29.653766632080078 0.13147608935832977
34.90278625488281 -30.018173217773438 0.10898558795452118
30.301345825195312 -28.766908645629883 0.4003494083881378
32.34136962890625 30.86020278930664 1.224153995513916
32.369903564453125 30.510560989379883 1.2320297956466675
32.31499099731445 30.086885452270508 1.2458587884902954
32.45601272583008 29.84889793395996 1.245009183883667
32.482261657714844 29.507583618164062 1.2524340152740479
32.451290130615234 29.118391036987305 1.2638342380523682
32.402587890625 28.718109130859375 1.276294469833374
32.5447883605957 28.48987579345703 1.2746816873550415
32.56531524658203 28.157135009765625 1.281726598739624
32.56629180908203 27.810951232910156 1.2899869680404663
32.590965270996094 27.48834991455078 1.2963496446609497
32.59296798706055 27.149879455566406 1.3041512966156006
32.604393005371094 26.822572708129883 1.3110908269882202
32.6440315246582 26.52133560180664 1.3158451318740845
32.625919342041016 26.176258087158203 1.324520230293274
32.6666259765625 25.881389617919922 1.3288555145263672
32.668785095214844 25.558706283569336 1.3357430696487427
32.67612075805664 25.243078231811523 1.3420929908752441
32.687171936035156 24.933168411254883 1.3480132818222046
32.70841979980469 24.63368797302246 1.3530590534210205
32.709598541259766 24.321775436401367 1.3593406677246094
32.74602127075195 24.038549423217773 1.3630152940750122
32.520694732666016 23.567718505859375 1.3846443891525269
32.6002197265625 23.3218994140625 1.3850057125091553
32.66246032714844 23.06505012512207 1.3864291906356812
32.67855453491211 22.77748680114746 1.3908882141113281
32.70222091674805 22.49738311767578 1.3946818113327026
32.6584358215332 22.17354393005371 1.4029419422149658
32.70564270019531 21.913888931274414 1.404841423034668
32.735904693603516 21.644580841064453 1.4077634811401367
32.7339973449707 21.356082916259766 1.4127342700958252
32.74489974975586 21.078155517578125 1.4166966676712036
32.755313873291016 20.801969528198242 1.4205570220947266
32.81011199951172 20.55560302734375 1.4212909936904907
18.447797775268555 11.400137901306152 2.3921406269073486
18.434541702270508 11.236358642578125 2.3953750133514404
18.389169692993164 11.054654121398926 2.4006853103637695
18.377477645874023 10.894805908203125 2.403658390045166
32.83759307861328 19.197187423706055 1.4396494626998901
32.91294479370117 18.97146987915039 1.4382808208465576
32.88174057006836 18.68586540222168 1.4438996315002441
32.8160514831543 18.383304595947266 1.451681137084961
32.8807373046875 18.155607223510742 1.4506731033325195
32.97718048095703 17.945940017700195 1.4474517107009888
33.00631332397461 17.700387954711914 1.4485857486724854
33.01955032348633 17.447689056396484 1.450657606124878
33.0158805847168 17.187654495239258 1.4537321329116821
33.05024719238281 16.948823928833008 1.45418381690979
33.05708312988281 16.697166442871094 1.45633864402771
33.055824279785156 16.442949295043945 1.4589154720306396
33.0688362121582 16.197280883789062 1.4604427814483643
33.07828140258789 15.951204299926758 1.462095856666565
33.10038375854492 15.712469100952148 1.4628100395202637
33.12532424926758 15.476178169250488 1.4632329940795898
33.12504196166992 15.229329109191895 1.4652032852172852
33.135711669921875 14.988824844360352 1.466352105140686
33.104549407958984 14.730905532836914 1.470129370689392
33.12268829345703 14.496347427368164 1.4705805778503418
33.12544631958008 14.256200790405273 1.4719343185424805
33.13294219970703 14.019287109375 1.4728771448135376
33.16550827026367 13.793936729431152 1.4720841646194458
33.17808151245117 13.561159133911133 1.472496747970581
33.210350036621094 13.337301254272461 1.4715272188186646
33.08235168457031 13.050914764404297 1.480891466140747
33.12242126464844 12.832595825195312 1.4792166948318481
33.53703308105469 12.757308006286621 1.4530959129333496
33.66861343383789 12.571606636047363 1.4452929496765137
33.711082458496094 12.352483749389648 1.4431877136230469
33.721134185791016 12.12216854095459 1.44309401512146
33.73716354370117 11.89484977722168 1.4425159692764282
33.751670837402344 11.6677885055542 1.4419418573379517
33.751434326171875 11.436511039733887 1.4422303438186646
33.759098052978516 11.208821296691895 1.441910982131958
33.77284622192383 10.983935356140137 1.4411042928695679
33.77939224243164 10.757484436035156 1.4406718015670776
33.78825378417969 10.532554626464844 1.439996361732483
33.79084777832031 10.306464195251465 1.4396353960037231
33.79385757446289 10.081306457519531 1.4391552209854126
33.79442596435547 9.856219291687012 1.4387438297271729
33.826133728027344 9.640807151794434 1.436218023300171
33.840126037597656 9.420822143554688 1.4347522258758545
33.84788513183594 9.199721336364746 1.4336012601852417
33.86481475830078 8.981689453125 1.4317635297775269
33.86488342285156 8.759798049926758 1.4309333562850952
33.8751220703125 8.541170120239258 1.4293525218963623
33.88880157470703 8.323935508728027 1.4274587631225586
33.90108871459961 8.106852531433105 1.425566554069519
33.89740753173828 7.886538505554199 1.424625277519226
33.903011322021484 7.668995380401611 1.4229921102523804
33.925743103027344 7.45574951171875 1.4201538562774658
33.94029998779297 7.241054058074951 1.4177592992782593
33.95155334472656 7.026054859161377 1.415493369102478
33.955570220947266 6.8100104331970215 1.4136121273040771
33.95527648925781 6.59360933303833 1.4119259119033813
33.959495544433594 6.3785719871521 1.4098585844039917
33.9741325378418 6.165868282318115 1.4070210456848145
33.98351287841797 5.952535629272461 1.4044408798217773
33.9954833984375 5.7399821281433105 1.4016026258468628
34.013031005859375 5.528625011444092 1.3983118534088135
34.01052474975586 5.3143391609191895 1.3962509632110596
34.007659912109375 5.100438594818115 1.394128680229187
34.02715301513672 4.890179634094238 1.3904469013214111
34.042381286621094 4.679463863372803 1.3869576454162598
34.04938507080078 4.467834949493408 1.3839250802993774
34.064971923828125 4.257532119750977 1.380237102508545
34.078269958496094 4.047086715698242 1.3766131401062012
33.524078369140625 3.772895336151123 1.4105318784713745
33.51654052734375 3.564023017883301 1.40816330909729
33.561317443847656 3.3607544898986816 1.402233362197876
33.62869644165039 3.1593096256256104 1.394705891609192
33.64915084838867 2.953148365020752 1.3902101516723633
33.661373138427734 2.7462847232818604 1.3861738443374634
33.663368225097656 2.5387051105499268 1.3827346563339233
33.671051025390625 2.331685781478882 1.3788282871246338
33.64958190917969 2.1229054927825928 1.3767907619476318
33.65271759033203 1.9159504175186157 1.3730193376541138
33.66055679321289 1.709338665008545 1.3688445091247559
33.669124603271484 1.5027904510498047 1.3645325899124146
33.67542266845703 1.2961609363555908 1.3602865934371948
19.26890754699707 0.6227839589118958 2.330592393875122
13.017684936523438 0.3404187560081482 2.7517755031585693
33.7415771484375 0.6772725582122803 1.3438109159469604
12.42808723449707 0.17241674661636353 2.788670301437378
33.74475860595703 0.2632784843444824 1.3351504802703857
33.750431060791016 0.056294072419404984 1.3304098844528198
12.729135513305664 -0.05762871727347374 2.763275623321533
33.771934509277344 -0.35799890756607056 1.319961667060852
33.77977752685547 -0.5653299689292908 1.3147999048233032
12.820344924926758 -0.2940082252025604 2.7517731189727783
33.81059265136719 -0.9808676242828369 1.303158164024353
33.81260681152344 -1.1885558366775513 1.2981199026107788
33.812355041503906 -1.396266222000122 1.2931466102600098
33.7350959777832 -1.6004302501678467 1.2934257984161377
12.883443832397461 -0.6912145614624023 2.737924814224243
12.890798568725586 -0.7709411978721619 2.735405921936035
12.87177848815918 -0.8490800857543945 2.734691619873047
12.826416015625 -0.9251519441604614 2.7357916831970215
12.50810718536377 -0.9793905019760132 2.756021499633789
33.88414764404297 -2.860241174697876 1.250586748123169
12.80290699005127 -1.160650372505188 2.7310309410095215
12.71600341796875 -1.2314759492874146 2.7349653244018555
12.79641056060791 -1.3185429573059082 2.7270402908325195
13.953128814697266 -1.5241827964782715 2.642606258392334
12.273665428161621 -1.4171251058578491 2.759666919708252
12.53396987915039 -1.525129795074463 2.7388272285461426
12.656850814819336 -1.618929147720337 2.7276904582977295
12.635693550109863 -1.6950769424438477 2.7268073558807373
12.61802864074707 -1.7715811729431152 2.7256433963775635
12.601875305175781 -1.8482224941253662 2.724339723587036
12.600048065185547 -1.926993489265442 2.721968173980713
12.51301097869873 -1.9923324584960938 2.725741147994995
12.491584777832031 -2.0675835609436035 2.7247378826141357
34.005043029785156 -5.840840816497803 1.1523748636245728
29.251842498779297 -5.20955753326416 1.4930295944213867
34.01845932006836 -6.273834705352783 1.1369372606277466
34.0466194152832 -6.495275974273682 1.1274750232696533
34.012657165527344 -6.7053422927856445 1.1224782466888428
33.947105407714844 -6.9090728759765625 1.119726300239563
33.90180969238281 -7.11676025390625 1.1153899431228638
33.928348541259766 -7.339968204498291 1.105609655380249
33.943687438964844 -7.561602592468262 1.0965440273284912
33.98868942260742 -7.790832042694092 1.085132360458374
34.043800354003906 -8.02364444732666 1.0728257894515991
34.07891082763672 -8.252967834472656 1.0618864297866821
34.070865631103516 -8.472677230834961 1.0540796518325806
34.103919982910156 -8.703449249267578 1.0430368185043335
34.09779357910156 -8.92509937286377 1.0348442792892456
34.12297439575195 -9.15578842163086 1.0241402387619019
34.11294937133789 -9.377874374389648 1.0160032510757446
34.11300277709961 -9.603423118591309 1.0069719552993774
34.13456344604492 -9.835955619812012 0.99615478515625
34.13255310058594 -10.062628746032715 0.9870275259017944
34.12521743774414 -10.288496971130371 0.9781886339187622
34.16118240356445 -10.528459548950195 0.9658435583114624
34.14888000488281 -10.754572868347168 0.9571318626403809
34.14741897583008 -10.984904289245605 0.9474418759346008
34.1529426574707 -11.218422889709473 0.9370682835578918
34.15971374511719 -11.453374862670898 0.9264578819274902
34.1601676940918 -11.68721866607666 0.9162097573280334
34.16939163208008 -11.925115585327148 0.9051238894462585
34.13658142089844 -12.149189949035645 0.8972612023353577
34.13604736328125 -12.385554313659668 0.8866806626319885
34.2274169921875 -12.656953811645508 0.8685327172279358
34.263545989990234 -12.909899711608887 0.8546620011329651
34.29878234863281 -13.164122581481934 0.8406937718391418
34.312679290771484 -13.411643981933594 0.8282977938652039
34.32667541503906 -13.660567283630371 0.8157334327697754
34.33428192138672 -13.908295631408691 0.8035336136817932
34.34013748168945 -14.156633377075195 0.7913185358047485
34.3635368347168 -14.413665771484375 0.7774825096130371
34.34930419921875 -14.656257629394531 0.7666128873825073
34.35807800292969 -14.909934043884277 0.7536627054214478
29.510311126708984 -13.02221393585205 1.1493746042251587
34.421993255615234 -15.442513465881348 0.723330020904541
34.41423416137695 -15.693485260009766 0.7112489938735962
34.4309196472168 -15.957098007202148 0.6969178915023804
34.43753433227539 -16.217687606811523 0.6832635998725891
34.45124053955078 -16.483259201049805 0.6688169240951538
34.45669937133789 -16.746557235717773 0.6548946499824524
34.4789924621582 -17.019811630249023 0.6393243670463562
34.46178436279297 -17.27520751953125 0.6269980669021606
34.384098052978516 -17.501184463500977 0.6197999715805054
34.35009765625 -17.750200271606445 0.6086294054985046
34.44853210449219 -18.069847106933594 0.5855764150619507
34.41408157348633 -18.322032928466797 0.5740597248077393
34.413787841796875 -18.593904495239258 0.5593226552009583
30.815994262695312 -16.895353317260742 0.8673240542411804
30.802888870239258 -17.134933471679688 0.8549226522445679
34.592464447021484 -19.5218505859375 0.4976145327091217
34.58671951293945 -19.799530029296875 0.48246920108795166
34.574554443359375 -20.07537269592285 0.4677010476589203
34.565452575683594 -20.35484504699707 0.4524439573287964
34.62610626220703 -20.677894592285156 0.43051984906196594
34.60393142700195 -20.953914642333984 0.4160127639770508
34.618743896484375 -21.254430770874023 0.39783960580825806
34.605770111083984 -21.540119171142578 0.3820286691188812
34.562767028808594 -21.808889389038086 0.3688291311264038
34.594181060791016 -22.12681770324707 0.3483639657497406
34.61712646484375 -22.442157745361328 0.3284282386302948
34.580013275146484 -22.720840454101562 0.3139840364456177
34.423789978027344 -22.922019958496094 0.3108207583427429
30.301908493041992 -20.447158813476562 0.6924745440483093
34.66737747192383 -23.70374870300293 0.24994634091854095
34.64787673950195 -24.003925323486328 0.2327771782875061
34.743473052978516 -24.387208938598633 0.20399469137191772
29.83507537841797 -21.21671485900879 0.6716129779815674
29.90859031677246 -21.546709060668945 0.6471273303031921
29.72473907470703 -21.692739486694336 0.6481561064720154
29.62278175354004 -21.898351669311523 0.6408731937408447
29.623138427734375 -22.181188583374023 0.6230574250221252
29.56951141357422 -22.42570686340332 0.6104987859725952
29.540075302124023 -22.6904354095459 0.5952501893043518
30.289325714111328 -28.753536224365234 0.15239673852920532
32.33681106567383 30.81400489807129 0.9753980040550232
32.428218841552734 30.52407455444336 0.979326605796814
32.31187438964844 30.043174743652344 0.9999974966049194
32.43714904785156 29.79107093811035 1.0007250308990479
32.48218536376953 29.46746063232422 1.0077767372131348
32.45832061767578 29.085132598876953 1.0201643705368042
32.41380310058594 28.688993453979492 1.0339564085006714
32.559539794921875 28.46401023864746 1.03228759765625
32.58135223388672 28.13262939453125 1.0403443574905396
32.58970260620117 27.792984008789062 1.0492565631866455
32.607330322265625 27.46459197998047 1.0572214126586914
32.616790771484375 27.132558822631836 1.0656218528747559
32.614933013916016 26.794479370117188 1.0747050046920776
32.647369384765625 26.48763084411621 1.0808967351913452
32.638328552246094 26.150190353393555 1.0901339054107666
32.687435150146484 25.86216926574707 1.0946481227874756
32.66975402832031 25.524137496948242 1.1041607856750488
32.68551254272461 25.215349197387695 1.1108893156051636
32.69316101074219 24.903091430664062 1.1180588006973267
32.71417236328125 24.60369110107422 1.1240195035934448
32.7247314453125 24.29902458190918 1.130603551864624
32.76258087158203 24.016986846923828 1.1349307298660278
32.55644607543945 23.560428619384766 1.1576508283615112
32.628578186035156 23.309228897094727 1.1590033769607544
32.68906784057617 23.051128387451172 1.1610939502716064
32.733699798583984 22.78346824645996 1.1642347574234009
32.72528076171875 22.481088638305664 1.1712185144424438
32.769737243652344 22.217199325561523 1.1740646362304688
32.73255920410156 21.900325775146484 1.1828770637512207
32.75436782836914 21.625442504882812 1.1871098279953003
32.778228759765625 21.35384178161621 1.1910401582717896
32.824337005615234 21.09841537475586 1.1931687593460083
32.785953521728516 20.79083824157715 1.2014272212982178
32.80765151977539 20.52370262145996 1.2050750255584717
18.43658447265625 11.375868797302246 2.271799087524414
18.431682586669922 11.217419624328613 2.2749481201171875
18.380184173583984 11.032234191894531 2.281442165374756
18.376924514770508 10.877592086791992 2.284299373626709
32.88829040527344 19.197582244873047 1.2232542037963867
32.934207916259766 18.95466423034668 1.2242985963821411
32.92543029785156 18.681856155395508 1.2292098999023438
32.83355712890625 18.364561080932617 1.2400418519973755
32.881492614746094 18.127643585205078 1.2405420541763306
32.97862243652344 17.91846466064453 1.2373456954956055
33.00227355957031 17.670141220092773 1.2393704652786255
33.01265335083008 17.41615104675293 1.2422329187393188
33.02558898925781 17.164997100830078 1.2447839975357056
33.050018310546875 16.92116355895996 1.2463805675506592
33.062007904052734 16.672283172607422 1.2487537860870361
33.066829681396484 16.421228408813477 1.2515207529067993
33.08147430419922 16.176441192626953 1.2534598112106323
33.0817756652832 15.926032066345215 1.2563093900680542
33.10099792480469 15.686058044433594 1.2576818466186523
33.13479995727539 15.454038619995117 1.2578920125961304
33.13163375854492 15.20595932006836 1.260636806488037
33.14850616455078 14.968358039855957 1.2618314027786255
33.11811065673828 14.71086311340332 1.2662904262542725
33.12330627441406 14.470685958862305 1.2680903673171997
33.13780212402344 14.235726356506348 1.269112229347229
33.16170120239258 14.005789756774902 1.2693538665771484
33.17757034301758 13.773419380187988 1.270058512687683
33.177066802978516 13.535346031188965 1.2718199491500854
33.17581558227539 13.29817008972168 1.2735244035720825
33.08656692504883 13.02751350402832 1.2813773155212402
33.13577651977539 12.812801361083984 1.2792755365371704
33.52314758300781 12.726902961730957 1.2530566453933716
33.67414474487305 12.548565864562988 1.243537187576294
33.70708084106445 12.326008796691895 1.2422970533370972
33.72352600097656 12.098128318786621 1.2421231269836426
33.74314880371094 11.87216567993164 1.2416189908981323
33.73297882080078 11.636651992797852 1.2431217432022095
33.73537063598633 11.40650463104248 1.24363112449646
33.761783599853516 11.185237884521484 1.242335319519043
33.792442321777344 10.965923309326172 1.2406367063522339
33.78269958496094 10.734261512756348 1.2416976690292358
33.789493560791016 10.50876235961914 1.2414859533309937
33.794795989990234 10.283581733703613 1.2412792444229126
33.80434036254883 10.06043815612793 1.2406718730926514
33.80093002319336 9.834218978881836 1.2408819198608398
33.81233596801758 9.613058090209961 1.2399438619613647
33.8328742980957 9.395062446594238 1.2382599115371704
33.844303131103516 9.17508602142334 1.2371220588684082
33.85913848876953 8.956597328186035 1.2356455326080322
33.86096954345703 8.735279083251953 1.234991192817688
33.88071823120117 8.519142150878906 1.23297119140625
33.888427734375 8.300477981567383 1.2317065000534058
33.901527404785156 8.083658218383789 1.2299624681472778
33.902549743652344 7.864508152008057 1.2289789915084839
33.90800094604492 7.646965026855469 1.2275848388671875
33.92570495605469 7.432640075683594 1.2252260446548462
33.93717575073242 7.217345714569092 1.2232123613357544
33.952171325683594 7.003196716308594 1.2208534479141235
33.951141357421875 6.786199569702148 1.2195378541946411
33.967342376708984 6.573078632354736 1.2169015407562256
33.95866394042969 6.355607986450195 1.215940237045288
33.97314453125 6.142928123474121 1.2132370471954346
33.981380462646484 5.929450035095215 1.2108831405639648
33.99319076538086 5.716927528381348 1.2081794738769531
34.00663757324219 5.504961013793945 1.2052648067474365
34.00791549682617 5.291354179382324 1.2031246423721313
34.00883865356445 5.078085422515869 1.2009152173995972
34.024227142333984 4.867263317108154 1.197577714920044
34.038307189941406 4.656442165374756 1.194237470626831
34.04317092895508 4.4445953369140625 1.191464900970459
34.05760192871094 4.234216690063477 1.187909483909607
34.06578063964844 4.02324104309082 1.1847095489501953
33.540348052978516 3.7527318000793457 1.2198176383972168
33.503910064697266 3.5407397747039795 1.2196874618530273
33.558433532714844 3.3385229110717773 1.2129087448120117
33.61174011230469 3.1357686519622803 1.2061177492141724
33.642948150634766 2.930664539337158 1.2008215188980103
33.655006408691406 2.723844528198242 1.1968151330947876
33.65983200073242 2.516538381576538 1.1932381391525269
33.667354583740234 2.309547185897827 1.1893713474273682
33.67361068725586 2.1025562286376953 1.1855024099349976
33.675601959228516 1.8954054117202759 1.1818506717681885
33.69125747680664 1.6890572309494019 1.1771082878112793
33.70366287231445 1.4824987649917603 1.1725075244903564
15.707788467407227 0.5933211445808411 2.4848766326904297
19.263681411743164 0.60980224609375 2.2225899696350098
33.711326599121094 0.8617491126060486 1.1602932214736938
33.720645904541016 0.6550487279891968 1.1555345058441162
33.73567581176758 0.44835758209228516 1.1502591371536255
33.735477447509766 0.24140408635139465 1.1460081338882446
33.76492691040039 0.03450138866901398 1.1394718885421753
33.74623107910156 -0.17251864075660706 1.1363959312438965
12.809978485107422 -0.14534829556941986 2.6839945316314697
12.765851974487305 -0.223177969455719 2.685506820678711
11.676429748535156 -0.2759633958339691 2.7647807598114014
12.825709342956543 -0.3816543221473694 2.677415609359741
33.80717468261719 -1.2102298736572266 1.1081091165542603
33.78683090209961 -1.4170753955841064 1.1045846939086914
33.74231719970703 -1.6226184368133545 1.1027804613113403
12.70844841003418 -0.6905809044837952 2.678493022918701
12.856146812438965 -0.7777082324028015 2.665358543395996
12.853996276855469 -0.8567502498626709 2.663450241088867
33.854148864746094 -2.4617745876312256 1.0727840662002563
12.520195007324219 -0.9889836311340332 2.6845006942749023
13.061227798461914 -1.1122969388961792 2.641263008117676
12.767053604125977 -1.1662237644195557 2.6614058017730713
13.062227249145508 -1.2739876508712769 2.6366262435913086
13.10462474822998 -1.35932457447052 2.63104248046875
13.126639366149902 -1.4430540800094604 2.6269657611846924
33.92195129394531 -3.9366321563720703 1.0258370637893677
33.92552947998047 -4.148138523101807 1.0191692113876343
33.918888092041016 -4.358695030212402 1.0131831169128418
33.94355010986328 -4.5737199783325195 1.0046684741973877
33.93722152709961 -4.78503942489624 0.9984414577484131
12.953407287597656 -1.9087992906570435 2.6252353191375732
12.843761444091797 -1.9732444286346436 2.631146192550659
13.030167579650879 -2.08376145362854 2.6138906478881836
33.9951171875 -5.647202491760254 0.9659355878829956
33.9948616027832 -5.861713886260986 0.9586732983589172
29.25579071044922 -5.229885578155518 1.3252193927764893
34.018714904785156 -6.296620845794678 0.9418820738792419
34.00259780883789 -6.509665489196777 0.9355312585830688
12.611363410949707 -2.496025562286377 2.630075454711914
33.92827224731445 -6.928092956542969 0.9258619546890259
33.9033203125 -7.139975070953369 0.9198991656303406
33.88581466674805 -7.353716850280762 0.9132311344146729
33.9389533996582 -7.583596706390381 0.9007627964019775
33.98180389404297 -7.812397003173828 0.8889787197113037
34.041542053222656 -8.046365737915039 0.8756824731826782
34.052223205566406 -8.269837379455566 0.8662193417549133
34.071102142333984 -8.496155738830566 0.8559573888778687
34.09428024291992 -8.72450065612793 0.8452067971229553
34.08314895629883 -8.944849014282227 0.8371323943138123
34.113914489746094 -9.177042007446289 0.8254855871200562
34.105628967285156 -9.399621963500977 0.8169170022010803
34.1131591796875 -9.627320289611816 0.8069103956222534
34.12205123901367 -9.85629653930664 0.7966532707214355
34.137054443359375 -10.088005065917969 0.7857460379600525
34.10851287841797 -10.30758285522461 0.7783396244049072
34.16618347167969 -10.554255485534668 0.7635707855224609
34.1393928527832 -10.775922775268555 0.7557471990585327
