# .PCD v0.7 - Point Cloud Data file format
VERSION 0.7
FIELDS x y z
SIZE 4 4 4
TYPE F F F
COUNT 1 1 1
WIDTH 848
HEIGHT 1
VIEWPOINT 0 0 0 1 0 0 0
POINTS 848
DATA ascii
13.498641967773438 10.174877166748047 1.7689287662506104
13.52389144897461 10.064593315124512 1.772295594215393
13.573126792907715 9.972627639770508 1.77225661277771
13.600021362304688 9.864676475524902 1.7751811742782593
13.639033317565918 9.766030311584473 1.7763445377349854
13.675724983215332 9.66612720489502 1.7777252197265625
13.714151382446289 9.56784725189209 1.7787718772888184
13.751887321472168 9.469460487365723 1.779815435409546
13.784823417663574 9.36817455291748 1.7814081907272339
13.818687438964844 9.267946243286133 1.782778263092041
13.860127449035645 9.173142433166504 1.7830383777618408
13.88594913482666 9.068392753601074 1.7852892875671387
13.916021347045898 8.966902732849121 1.7868744134902954
13.96214485168457 8.876049041748047 1.7862372398376465
13.996734619140625 8.77810001373291 1.787039041519165
14.034027099609375 8.682150840759277 1.7873932123184204
14.082547187805176 8.593321800231934 1.7861851453781128
14.113475799560547 8.493972778320312 1.7871994972229004
14.156536102294922 8.402175903320312 1.7865382432937622
14.202430725097656 8.312177658081055 1.7854251861572266
14.227099418640137 8.210007667541504 1.786988615989685
14.266596794128418 8.116694450378418 1.786537528038025
14.30981731414795 8.025635719299316 1.7855218648910522
14.442895889282227 7.984360694885254 1.7728431224822998
14.935478210449219 8.13766860961914 1.7139075994491577
15.900542259216309 8.537701606750488 1.594539999961853
27.47332191467285 14.537087440490723 0.11773722618818283
27.491043090820312 14.33155632019043 0.12326665967702866
27.53821563720703 14.142243385314941 0.12485834211111069
27.566370010375977 13.943917274475098 0.12870275974273682
27.552221298217773 13.725395202636719 0.13774113357067108
27.5872802734375 13.532513618469238 0.14035184681415558
27.6854305267334 13.370833396911621 0.1348201483488083
27.9019718170166 13.2652006149292 0.11421509087085724
19.266691207885742 0.7550357580184937 1.277646780014038
19.254785537719727 0.6363233923912048 1.2770823240280151
19.299697875976562 0.5193384289741516 1.2694683074951172
12.889813423156738 -0.6823763251304626 2.0310893058776855
12.861406326293945 -0.7600216269493103 2.0323641300201416
12.880064010620117 -0.8404393196105957 2.0277156829833984
12.690581321716309 -1.4561165571212769 2.0307958126068115
12.632939338684082 -1.5280957221984863 2.0352392196655273
20.165584564208984 -6.33577299118042 0.8948338031768799
20.159034729003906 -6.469940185546875 0.8876512050628662
20.150653839111328 -6.603958606719971 0.8805931806564331
20.14702606201172 -6.740005970001221 0.8727570176124573
18.96843147277832 -6.475586414337158 1.0263450145721436
18.960792541503906 -6.60321569442749 1.019299864768982
18.945756912231445 -6.728673934936523 1.0131559371948242
18.942947387695312 -6.858922958374023 1.0051974058151245
18.999467849731445 -7.411962985992432 0.962523877620697
18.95079803466797 -8.348014831542969 0.9031736254692078
18.946834564208984 -8.48556137084961 0.8937003016471863
18.999643325805664 -8.649657249450684 0.8758357167243958
19.127622604370117 -8.850098609924316 0.846802294254303
19.363298416137695 -9.103882789611816 0.8017143607139587
20.708982467651367 -13.0504789352417 0.3348628282546997
20.388402938842773 -13.024148941040039 0.370435506105423
20.125516891479492 -13.031006813049316 0.39698323607444763
19.850069046020508 -13.026439666748047 0.42573240399360657
19.658796310424805 -13.074411392211914 0.4410056173801422
19.471797943115234 -13.123298645019531 0.45564746856689453
19.298860549926758 -13.179891586303711 0.4680449962615967
19.230276107788086 -13.307025909423828 0.4632767140865326
19.178709030151367 -13.446331024169922 0.45555588603019714
19.437997817993164 -13.806976318359375 0.395880788564682
19.362167358398438 -13.932876586914062 0.3916228711605072
19.204647064208984 -13.999420166015625 0.4009896516799927
19.1953125 -14.174028396606445 0.3852892518043518
19.212324142456055 -14.369817733764648 0.36485186219215393
19.203163146972656 -14.547800064086914 0.34858644008636475
19.218475341796875 -14.746113777160645 0.32784590125083923
19.21955108642578 -14.935436248779297 0.3092537224292755
19.226024627685547 -15.130840301513672 0.2894285321235657
19.230815887451172 -15.326886177062988 0.2695870101451874
19.237773895263672 -15.5266695022583 0.2490515112876892
19.221511840820312 -15.70956039428711 0.23230189085006714
19.17930030822754 -15.872626304626465 0.2198905199766159
19.223133087158203 -16.108936309814453 0.19183671474456787
19.216428756713867 -16.305362701416016 0.17246606945991516
19.28317642211914 -16.566862106323242 0.1394617110490799
19.218111038208008 -16.71731948852539 0.13000482320785522
12.775655746459961 12.219841957092285 1.6095082759857178
12.841453552246094 12.13306999206543 1.6093013286590576
12.919740676879883 12.058148384094238 1.607034683227539
13.000078201293945 11.838568687438965 1.6141114234924316
12.975439071655273 11.67158317565918 1.6274724006652832
13.02871322631836 11.575946807861328 1.6286125183105469
13.099223136901855 11.495820045471191 1.6270010471343994
13.156479835510254 11.404202461242676 1.6273267269134521
13.108209609985352 11.222513198852539 1.6435776948928833
13.146209716796875 11.116250991821289 1.6465415954589844
13.194075584411621 11.0188570022583 1.6478960514068604
13.228981018066406 10.911181449890137 1.6510847806930542
13.271536827087402 10.810391426086426 1.653006672859192
13.292457580566406 10.692679405212402 1.6580328941345215
13.3272123336792 10.5868558883667 1.660872459411621
13.371333122253418 10.488978385925293 1.6622118949890137
13.412400245666504 10.389131546020508 1.663893461227417
13.442489624023438 10.281330108642578 1.6670727729797363
13.479689598083496 10.179535865783691 1.6690959930419922
13.516148567199707 10.07767105102539 1.6711164712905884
13.555868148803711 9.97868537902832 1.672555923461914
13.581220626831055 9.869664192199707 1.6759620904922485
13.62592601776123 9.77518081665039 1.6764689683914185
13.660256385803223 9.673630714416504 1.6783640384674072
13.70036792755127 9.576580047607422 1.6793277263641357
13.742257118225098 9.481090545654297 1.6799386739730835
13.76542854309082 9.373148918151855 1.6831064224243164
13.80923080444336 9.279682159423828 1.6832457780838013
13.849920272827148 9.184382438659668 1.683729887008667
13.883313179016113 9.084580421447754 1.6851433515548706
13.91183090209961 8.982022285461426 1.6871390342712402
13.954693794250488 8.889057159423828 1.6870290040969849
13.983485221862793 8.78744888305664 1.688786506652832
14.02928352355957 8.696809768676758 1.6880828142166138
14.069413185119629 8.602828979492188 1.6880773305892944
14.106365203857422 8.507143020629883 1.6884191036224365
14.147795677185059 8.414373397827148 1.688052773475647
14.19118881225586 8.322919845581055 1.687328815460205
14.221097946166992 8.223793029785156 1.6883642673492432
14.254638671875 8.127070426940918 1.6888090372085571
14.30224609375 8.038515090942383 1.6872467994689941
14.372756004333496 7.962672710418701 1.682492733001709
14.966676712036133 8.172259330749512 1.6067562103271484
15.87934398651123 8.544702529907227 1.4882062673568726
19.269580841064453 0.7726889252662659 1.161424160003662
19.256786346435547 0.6539137959480286 1.1610807180404663
19.274991989135742 0.5362048149108887 1.1566613912582397
12.886727333068848 -0.6696485280990601 1.9540947675704956
12.871273040771484 -0.7480425238609314 1.9538304805755615
12.876124382019043 -0.827609658241272 1.9508512020111084
19.71095848083496 -6.0409255027771 0.8410788178443909
19.470806121826172 -6.098320960998535 0.8672240972518921
19.132553100585938 -6.1215949058532715 0.9074186682701111
18.975614547729492 -6.200046062469482 0.9218429327011108
18.93499183654785 -6.315686225891113 0.9195895195007324
18.94150733947754 -6.4473466873168945 0.9104602932929993
18.927457809448242 -6.572500705718994 0.9041592478752136
18.91818618774414 -6.699711322784424 0.8970444202423096
18.9052677154541 -6.826047897338867 0.8903315663337708
18.894298553466797 -6.9535064697265625 0.8832089900970459
18.885257720947266 -7.082131862640381 0.8756763935089111
18.898483276367188 -7.219749927520752 0.864747941493988
18.913497924804688 -7.358875751495361 0.8534020185470581
18.931194305419922 -7.499918460845947 0.8415011763572693
18.914791107177734 -7.628115177154541 0.8344851136207581
18.937850952148438 -7.772947788238525 0.8214760422706604
19.015600204467773 -7.941641330718994 0.8001410961151123
18.993513107299805 -8.069741249084473 0.7935083508491516
18.962383270263672 -8.194334030151367 0.7881017327308655
18.90595054626465 -8.308090209960938 0.7863854765892029
18.763818740844727 -8.383478164672852 0.7975308895111084
18.988561630249023 -8.624165534973145 0.7529979944229126
18.95561408996582 -8.75001335144043 0.7473039627075195
18.9666748046875 -8.896817207336426 0.7347546815872192
18.953392028808594 -9.033007621765137 0.7257624268531799
19.00244903564453 -9.200017929077148 0.7070124745368958
19.174598693847656 -9.42916488647461 0.6689939498901367
20.69000816345215 -13.013442039489746 0.1923689991235733
20.501636505126953 -13.071415901184082 0.20757529139518738
20.137035369873047 -13.013632774353027 0.2524338662624359
19.882444381713867 -13.02295207977295 0.2790650427341461
19.657386779785156 -13.048812866210938 0.3008563816547394
19.463985443115234 -13.09341049194336 0.3173752427101135
19.299421310424805 -13.155652046203613 0.3290300965309143
19.215484619140625 -13.27208137512207 0.32683250308036804
19.21115493774414 -13.44417953491211 0.310750275850296
19.23611831665039 -13.638486862182617 0.28931891918182373
19.168546676635742 -13.768336296081543 0.28375327587127686
19.223384857177734 -13.987580299377441 0.2565278708934784
19.237995147705078 -14.179819107055664 0.23603233695030212
19.224777221679688 -14.353215217590332 0.22016963362693787
19.21409797668457 -14.529970169067383 0.2035921812057495
19.22004508972168 -14.720979690551758 0.18375824391841888
19.21575927734375 -14.905933380126953 0.16546255350112915
19.236385345458984 -15.1121826171875 0.14234890043735504
19.234277725219727 -15.302604675292969 0.12303464114665985
19.243654251098633 -15.504124641418457 0.10129997134208679
16.985706329345703 -16.48302459716797 0.2132154405117035
13.26465129852295 12.993412971496582 1.3893831968307495
12.73526382446289 12.322946548461914 1.490226149559021
12.776616096496582 12.212368965148926 1.4943089485168457
12.773783683776855 12.060853958129883 1.505608081817627
12.927841186523438 12.057441711425781 1.4906692504882812
13.143656730651855 12.109092712402344 1.4655789136886597
13.032400131225586 11.859878540039062 1.4943424463272095
13.074365615844727 11.752516746520996 1.4976798295974731
14.01294994354248 12.44193172454834 1.355014681816101
13.14910888671875 11.53170108795166 1.5054352283477783
13.10678482055664 11.353346824645996 1.521949052810669
13.105013847351074 11.212087631225586 1.531703233718872
13.152050018310547 11.11356258392334 1.5334705114364624
13.19913387298584 11.015515327453613 1.5351123809814453
13.221766471862793 10.897738456726074 1.540511131286621
13.275784492492676 10.806415557861328 1.540811538696289
13.29281997680664 10.685609817504883 1.5468170642852783
13.337640762329102 10.587836265563965 1.5483258962631226
13.374733924865723 10.48440170288086 1.5509260892868042
13.418126106262207 10.386378288269043 1.5524277687072754
13.434008598327637 10.267722129821777 1.5580703020095825
13.480630874633789 10.173176765441895 1.558835744857788
13.520235061645508 10.073700904846191 1.5605731010437012
13.546334266662598 9.964713096618652 1.5642623901367188
13.596504211425781 9.873859405517578 1.564160943031311
13.620256423950195 9.764261245727539 1.5679700374603271
13.66505241394043 9.670222282409668 1.5684723854064941
13.6953763961792 9.566336631774902 1.5710541009902954
13.738832473754883 9.47201919555664 1.571548581123352
13.78328800201416 9.378643989562988 1.5717933177947998
13.804046630859375 9.269588470458984 1.5754741430282593
13.849634170532227 9.177623748779297 1.5753430128097534
13.892121315002441 9.083816528320312 1.575575828552246
13.913130760192871 8.976383209228516 1.578884482383728
13.943394660949707 8.87542724609375 1.5807137489318848
13.995634078979492 8.78868579864502 1.5792092084884644
14.036369323730469 8.694843292236328 1.5793029069900513
14.066317558288574 8.594619750976562 1.5808762311935425
14.098115921020508 8.495893478393555 1.5820764303207397
14.147147178649902 8.407745361328125 1.5806734561920166
14.187922477722168 8.314797401428223 1.5803792476654053
14.224653244018555 8.219677925109863 1.5805764198303223
14.257303237915039 8.122454643249512 1.5812667608261108
14.304004669189453 8.033400535583496 1.5798414945602417
14.368378639221191 7.954168796539307 1.575797438621521
15.099502563476562 8.23848819732666 1.4763734340667725
15.228129386901855 8.18801498413086 1.4632511138916016
19.26041030883789 0.7666199207305908 1.0359619855880737
19.244609832763672 0.6478068232536316 1.0361299514770508
19.261756896972656 0.5301422476768494 1.0317500829696655
12.950645446777344 -0.6770685315132141 1.8604990243911743
12.86788558959961 -0.7519238591194153 1.869523286819458
12.87565803527832 -0.8316628336906433 1.8660728931427002
27.868486404418945 -5.812108516693115 -0.35457518696784973
27.804685592651367 -5.977097511291504 -0.3543660640716553
27.758277893066406 -6.145593643188477 -0.35678791999816895
27.67609214782715 -6.30582857131958 -0.35419389605522156
19.86042022705078 -5.960021018981934 0.6910418272018433
19.492773056030273 -5.980379104614258 0.737503707408905
19.245624542236328 -6.034071445465088 0.7661746740341187
19.036277770996094 -6.097040176391602 0.789267897605896
19.042377471923828 -6.228143692016602 0.7801077961921692
18.891698837280273 -6.307511329650879 0.7943770885467529
18.84853744506836 -6.421982765197754 0.7924296855926514
18.85236930847168 -6.55273962020874 0.7832743525505066
18.832910537719727 -6.675848960876465 0.7775087356567383
18.845233917236328 -6.81074333190918 0.7667832970619202
18.838027954101562 -6.9391984939575195 0.7588837742805481
18.839218139648438 -7.0713019371032715 0.7495603561401367
18.840417861938477 -7.204036235809326 0.7400883436203003
18.838848114013672 -7.336334705352783 0.7308927774429321
18.848325729370117 -7.473628520965576 0.7198410034179688
18.859575271606445 -7.612427711486816 0.7083520889282227
18.864330291748047 -7.749390602111816 0.6977084279060364
18.854413986206055 -7.880975246429443 0.689195990562439
18.868181228637695 -8.023187637329102 0.6768236756324768
18.86910057067871 -8.160758972167969 0.6662978529930115
18.864505767822266 -8.296652793884277 0.6564791202545166
18.88966941833496 -8.446534156799316 0.6417865753173828
18.916400909423828 -8.5982666015625 0.6266494393348694
18.91861343383789 -8.73985481262207 0.6152253150939941
18.916213989257812 -8.880111694335938 0.6043661236763
18.914587020874023 -9.021522521972656 0.5932121872901917
18.908370971679688 -9.161521911621094 0.5826254487037659
18.941986083984375 -9.321885108947754 0.5654134154319763
18.991159439086914 -9.491411209106445 0.5454477071762085
16.583118438720703 -8.41565990447998 0.9265316128730774
16.459579467773438 -8.480499267578125 0.9359869956970215
16.735713958740234 -8.753259658813477 0.8796432018280029
16.617645263671875 -8.95318603515625 0.8765949606895447
16.62977409362793 -9.091958999633789 0.8630717396736145
16.367399215698242 -9.079548835754395 0.8953003287315369
16.313627243041992 -9.181217193603516 0.8926611542701721
16.254928588867188 -9.28011703491211 0.8907526135444641
16.199909210205078 -9.381122589111328 0.8881257176399231
16.29612159729004 -9.570989608764648 0.8596440553665161
16.147489547729492 -9.617596626281738 0.8727123141288757
19.934415817260742 -13.065702438354492 0.1124420240521431
19.635068893432617 -13.042669296264648 0.1485130488872528
19.459047317504883 -13.09876823425293 0.16283710300922394
19.294523239135742 -13.161009788513184 0.17514458298683167
19.20240020751953 -13.271784782409668 0.17443318665027618
19.20687484741211 -13.450013160705566 0.15612463653087616
19.201004028320312 -13.6225004196167 0.139417365193367
19.172849655151367 -13.780414581298828 0.12652020156383514
12.84865951538086 12.90239429473877 1.3264849185943604
12.720918655395508 12.618635177612305 1.3617799282073975
12.690810203552246 12.435532569885254 1.37923264503479
12.741621017456055 12.3333158493042 1.382082223892212
12.707056045532227 12.150040626525879 1.3998085260391235
12.759430885314941 12.051443099975586 1.402029037475586
12.93655014038086 12.06973934173584 1.3823972940444946
13.050177574157715 12.027149200439453 1.373850703239441
13.013398170471191 11.846712112426758 1.391209602355957
13.107665061950684 11.786576271057129 1.3858052492141724
13.160895347595215 11.689495086669922 1.3873510360717773
13.162726402282715 11.547717094421387 1.3975098133087158
13.056876182556152 11.314109802246094 1.4256856441497803
13.098625183105469 11.210597038269043 1.4286377429962158
13.14262866973877 11.10955810546875 1.4310787916183472
13.188170433044434 11.010307312011719 1.4331350326538086
13.23222541809082 10.910284996032715 1.435314416885376
13.257862091064453 10.79572868347168 1.4404181241989136
13.281821250915527 10.680647850036621 1.4456501007080078
13.324288368225098 10.581097602844238 1.4476957321166992
13.36291217803955 10.478981018066406 1.45024836063385
13.408629417419434 10.382858276367188 1.4515217542648315
13.427671432495117 10.266688346862793 1.4570074081420898
13.475082397460938 10.172786712646484 1.457763433456421
13.492424964904785 10.056756973266602 1.463249683380127
13.540008544921875 9.963822364807129 1.4637432098388672
13.586155891418457 9.870098114013672 1.4643598794937134
13.613936424255371 9.76346492767334 1.4677938222885132
13.658727645874023 9.669468879699707 1.4684028625488281
13.704504013061523 9.57642650604248 1.4687501192092896
13.72761344909668 9.46798038482666 1.4725643396377563
13.769585609436035 9.373004913330078 1.4732904434204102
13.810084342956543 9.27731704711914 1.474141001701355
13.83340072631836 9.17052173614502 1.4775656461715698
13.882481575012207 9.08116340637207 1.4768627882003784
13.908493995666504 8.97702407836914 1.4796390533447266
13.930405616760254 8.870777130126953 1.4829319715499878
13.986804962158203 8.786754608154297 1.480794072151184
14.022468566894531 8.689835548400879 1.481753945350647
14.051548957824707 8.589187622070312 1.4836171865463257
14.103699684143066 8.50284481048584 1.4818493127822876
14.139978408813477 8.407060623168945 1.482409119606018
14.182456016540527 8.315162658691406 1.4819269180297852
14.208030700683594 8.213629722595215 1.4839085340499878
14.247537612915039 8.120441436767578 1.483677864074707
14.289029121398926 8.028533935546875 1.4830524921417236
14.355949401855469 7.950833320617676 1.4785137176513672
14.96721076965332 8.170022010803223 1.3923423290252686
15.232417106628418 8.194098472595215 1.358219861984253
19.250455856323242 0.7703917026519775 0.9209482669830322
19.222803115844727 0.6512330174446106 0.9229105710983276
19.24588394165039 0.5338715314865112 0.917612612247467
12.856378555297852 -0.7487274408340454 1.7933416366577148
12.856247901916504 -0.8278831243515015 1.7909501791000366
19.78021812438965 -5.9312849044799805 0.5781710147857666
19.493383407592773 -5.9759626388549805 0.614234983921051
19.24924087524414 -6.030654430389404 0.643768846988678
19.059818267822266 -6.100066184997559 0.664846658706665
18.856176376342773 -6.162776470184326 0.6881731152534485
18.816699981689453 -6.27799654006958 0.6858128309249878
18.822397232055664 -6.408584117889404 0.6762454509735107
18.80290412902832 -6.531044006347656 0.6705003380775452
18.810585021972656 -6.663412570953369 0.660331130027771
18.81548500061035 -6.795451641082764 0.650448739528656
18.812973022460938 -6.925411224365234 0.6415917873382568
18.814199447631836 -7.0573344230651855 0.6319906115531921
18.818206787109375 -7.190946578979492 0.6217901110649109
18.821277618408203 -7.324875354766846 0.6115818619728088
18.813297271728516 -7.455106735229492 0.6029954552650452
18.832855224609375 -7.59698486328125 0.589807391166687
18.841310501098633 -7.73525333404541 0.5782390236854553
18.83873748779297 -7.869720935821533 0.5682951211929321
18.845230102539062 -8.008703231811523 0.5567091107368469
18.857072830200195 -8.150809288024902 0.5440725088119507
18.865163803100586 -8.292168617248535 0.531871497631073
18.868614196777344 -8.432323455810547 0.520256757736206
18.872848510742188 -8.573650360107422 0.5083346962928772
18.878746032714844 -8.716590881347656 0.49595606327056885
18.888967514038086 -8.862447738647461 0.4826706349849701
19.155160903930664 -9.131280899047852 0.4263173043727875
19.12417984008789 -9.261085510253906 0.4194093942642212
18.93439483642578 -9.313188552856445 0.4391558766365051
16.627155303955078 -8.305715560913086 0.8177141547203064
16.562301635742188 -8.400827407836914 0.8177309632301331
16.44240951538086 -8.467398643493652 0.8270639777183533
16.229455947875977 -8.484272003173828 0.8523441553115845
16.71122932434082 -8.867209434509277 0.7581566572189331
16.180007934570312 -8.713165283203125 0.8382067680358887
15.972334861755371 -8.728333473205566 0.8626803755760193
16.154172897338867 -8.956984519958496 0.8193925023078918
16.151119232177734 -9.08545207977295 0.8080176711082458
16.27588653564453 -9.287704467773438 0.7739971876144409
16.178024291992188 -9.3640775680542 0.7789014577865601
16.090923309326172 -9.446107864379883 0.7818585634231567
16.10450553894043 -9.587593078613281 0.7668297290802002
16.019630432128906 -9.670858383178711 0.7691971063613892
15.998416900634766 -9.792659759521484 0.7600646615028381
12.638694763183594 12.678115844726562 1.2605125904083252
12.649038314819336 12.534072875976562 1.2714589834213257
12.699179649353027 12.430601119995117 1.2747752666473389
12.73855209350586 12.317337989807129 1.2799317836761475
12.723259925842285 12.152702331542969 1.2949740886688232
12.764829635620117 12.043827056884766 1.2993429899215698
12.820772171020508 11.949090957641602 1.300937533378601
12.887699127197266 11.86486530303955 1.3004125356674194
12.915213584899902 11.744916915893555 1.306884765625
12.952804565429688 11.635013580322266 1.3113738298416138
12.98063850402832 11.517195701599121 1.317449927330017
13.041805267333984 11.429529190063477 1.3174333572387695
13.067166328430176 11.311050415039062 1.3236393928527832
13.099853515625 11.199775695800781 1.3283876180648804
13.145298957824707 11.10003662109375 1.330746054649353
13.187732696533203 10.99825668334961 1.3334987163543701
13.224824905395508 10.892590522766113 1.3370459079742432
13.258811950683594 10.785004615783691 1.3409903049468994
13.29507064819336 10.67989730834961 1.3444011211395264
13.326658248901367 10.571667671203613 1.3484760522842407
13.365221977233887 10.469564437866211 1.351217269897461
13.403036117553711 10.36738395690918 1.3539555072784424
13.439312934875488 10.264531135559082 1.3568247556686401
13.474045753479004 10.161025047302246 1.359825849533081
13.508013725280762 10.057479858398438 1.3628246784210205
13.54521369934082 9.956831932067871 1.3651529550552368
13.583292007446289 9.857270240783691 1.3672106266021729
13.609383583068848 9.74953556060791 1.3711416721343994
13.658127784729004 9.65844440460205 1.3711832761764526
13.694080352783203 9.558611869812012 1.3732327222824097
13.728507041931152 9.458138465881348 1.3754137754440308
13.76877212524414 9.36205768585205 1.3765169382095337
13.807555198669434 9.265287399291992 1.3777512311935425
13.851452827453613 9.172222137451172 1.3780392408370972
13.873162269592285 9.06486988067627 1.381825566291809
13.91739559173584 8.97263240814209 1.3818371295928955
13.946806907653809 8.871149063110352 1.3841372728347778
13.983891487121582 8.774908065795898 1.3850858211517334
14.028745651245117 8.683761596679688 1.3846795558929443
14.058632850646973 8.58361530303955 1.3865668773651123
14.102250099182129 8.492117881774902 1.386151671409607
14.138458251953125 8.396357536315918 1.3868144750595093
14.179152488708496 8.303476333618164 1.3866605758666992
14.196076393127441 8.19703197479248 1.390164852142334
14.241500854492188 8.107358932495117 1.3890540599822998
14.282904624938965 8.015497207641602 1.3884806632995605
14.399133682250977 7.965158939361572 1.3760709762573242
14.747504234313965 8.040339469909668 1.3272978067398071
15.281441688537598 8.210493087768555 1.2497012615203857
19.2377986907959 0.7605488300323486 0.8094672560691833
19.22492790222168 0.6419807076454163 0.8094336986541748
19.259788513183594 0.5249229073524475 0.8022757172584534
12.876450538635254 -0.6771823167800903 1.7168492078781128
12.861934661865234 -0.755565881729126 1.7166367769241333
12.867671012878418 -0.8351401686668396 1.7133315801620483
19.619049072265625 -5.893341064453125 0.48181667923927307
19.394100189208984 -5.955838203430176 0.5095112323760986
19.11350440979004 -5.998348236083984 0.5462503433227539
18.947010040283203 -6.074140548706055 0.564604640007019
18.816009521484375 -6.159800052642822 0.5771968960762024
18.78778648376465 -6.278529644012451 0.5730149149894714
18.766294479370117 -6.399698257446289 0.5676114559173584
18.8550968170166 -6.5594706535339355 0.5439989566802979
18.81875991821289 -6.676639080047607 0.5407233834266663
18.78541374206543 -6.794956207275391 0.5368378758430481
18.800464630126953 -6.931228160858154 0.524825930595398
18.78864288330078 -7.058215141296387 0.517100989818573
18.81934356689453 -7.201913833618164 0.5021523237228394
18.80478858947754 -7.329037666320801 0.49456852674484253
18.80499267578125 -7.462449073791504 0.4843658208847046
18.810678482055664 -7.598731994628906 0.4730775058269501
18.81722068786621 -7.736116886138916 0.4614725708961487
18.839189529418945 -7.880731582641602 0.4470822513103485
18.797353744506836 -7.99921989440918 0.4433295428752899
18.821870803833008 -8.146528244018555 0.42814838886260986
18.775650024414062 -8.263800621032715 0.4248577356338501
16.448881149291992 -7.360901832580566 0.8127167820930481
16.44442367553711 -7.4804582595825195 0.8033913373947144
16.36467933654785 -7.565836429595947 0.8069227933883667
16.304182052612305 -7.659760475158691 0.8070563077926636
16.429489135742188 -7.842146873474121 0.7747611403465271
18.998598098754883 -9.211780548095703 0.31512290239334106
16.641489028930664 -8.195798873901367 0.7159544825553894
16.488916397094727 -8.246903419494629 0.7316102981567383
16.38303565979004 -8.320149421691895 0.7390490770339966
16.439308166503906 -8.476137161254883 0.7176842093467712
16.39712905883789 -8.582296371459961 0.7136040329933167
16.2940731048584 -8.656290054321289 0.7202936410903931
16.088134765625 -8.674043655395508 0.7454285621643066
16.008251190185547 -8.758329391479492 0.7479519844055176
16.198251724243164 -8.99198055267334 0.7015387415885925
16.332609176635742 -9.198246955871582 0.6647694706916809
16.06108856201172 -9.175780296325684 0.7017236948013306
15.97506332397461 -9.25727653503418 0.704887330532074
16.10407829284668 -9.464649200439453 0.6683821678161621
16.100479125976562 -9.59609603881836 0.6560062170028687
16.109392166137695 -9.736028671264648 0.6411089897155762
12.611978530883789 12.669068336486816 1.1560966968536377
12.64765739440918 12.550320625305176 1.1626567840576172
12.688015937805176 12.43715763092041 1.1681158542633057
12.726040840148926 12.322593688964844 1.1738488674163818
12.763143539428711 12.208028793334961 1.1795804500579834
12.796440124511719 12.090753555297852 1.1858620643615723
12.836747169494629 11.980960845947266 1.1906269788742065
12.863812446594238 11.859715461730957 1.1977356672286987
12.910380363464355 11.7572603225708 1.2009793519973755
12.935559272766113 11.636133193969727 1.2080878019332886
12.975289344787598 11.528952598571777 1.2122948169708252
13.014195442199707 11.421722412109375 1.2164995670318604
13.047036170959473 11.309906005859375 1.221671223640442
13.084264755249023 11.202625274658203 1.2258728742599487
13.1282320022583 11.101707458496094 1.2286865711212158
13.165375709533691 10.995590209960938 1.232606291770935
13.204004287719727 10.891325950622559 1.2361080646514893
13.237244606018066 10.783247947692871 1.2404406070709229
13.271202087402344 10.676410675048828 1.2444939613342285
13.303573608398438 10.568946838378906 1.248685359954834
13.340581893920898 10.465765953063965 1.2519012689590454
13.37761116027832 10.36313247680664 1.2549759149551392
13.416243553161621 10.262243270874023 1.2576298713684082
13.45019245147705 10.158284187316895 1.2609785795211792
13.484959602355957 10.0554780960083 1.2640467882156372
13.52296257019043 9.955561637878418 1.2664144039154053
13.558646202087402 9.854391098022461 1.2690585851669312
13.594402313232422 9.75373363494873 1.2715610265731812
13.63105297088623 9.654151916503906 1.2737805843353271
13.674298286437988 9.559593200683594 1.2747372388839722
13.707932472229004 9.458678245544434 1.277230978012085
13.745755195617676 9.361053466796875 1.278881311416626
13.780431747436523 9.261662483215332 1.2809492349624634
13.81275749206543 9.161102294921875 1.2832961082458496
13.857625961303711 9.069167137145996 1.2833911180496216
13.88192367553711 8.964136123657227 1.2868576049804688
13.917146682739258 8.866593360900879 1.2883528470993042
13.960917472839355 8.774750709533691 1.2882953882217407
14.002402305603027 8.681656837463379 1.2885150909423828
14.03904914855957 8.585803031921387 1.2894351482391357
14.077589988708496 8.491357803344727 1.2899281978607178
14.116353034973145 8.397266387939453 1.290276288986206
14.157052040100098 8.304521560668945 1.2901955842971802
14.200572967529297 8.21357250213623 1.2895441055297852
14.234912872314453 8.117498397827148 1.2903034687042236
14.278964042663574 8.027131080627441 1.2893588542938232
14.391709327697754 7.974907398223877 1.2770590782165527
14.716323852539062 8.03736400604248 1.2300963401794434
15.27408218383789 8.220913887023926 1.145263433456421
19.236000061035156 0.7746491432189941 0.6932246088981628
15.73088264465332 0.5369564890861511 1.2277307510375977
19.290727615356445 0.5399669408798218 0.6809527277946472
12.869733810424805 -0.7457026839256287 1.6376062631607056
12.868607521057129 -0.8248745203018188 1.6353086233139038
19.747940063476562 -5.916439056396484 0.3368375599384308
19.233125686645508 -5.891106605529785 0.4142191410064697
19.045440673828125 -5.961756706237793 0.43698251247406006
18.883955001831055 -6.038751125335693 0.45535561442375183
18.80015754699707 -6.139434337615967 0.46061161160469055
18.77297019958496 -6.258368968963623 0.45620885491371155
16.491464614868164 -5.610472679138184 0.8345139026641846
18.79096031188965 -6.521833419799805 0.43469780683517456
16.65706443786621 -5.896013259887695 0.7897473573684692
16.524564743041992 -5.963540077209473 0.8039169311523438
18.799943923950195 -6.915524482727051 0.4042784571647644
18.795574188232422 -7.0452494621276855 0.3950800895690918
18.80507469177246 -7.1808180809021 0.38332438468933105
18.838455200195312 -7.3264312744140625 0.36725059151649475
18.836790084838867 -7.459277629852295 0.35707008838653564
18.83969497680664 -7.594594955444336 0.34592410922050476
18.848949432373047 -7.73322868347168 0.3334904909133911
18.850828170776367 -7.869600296020508 0.32216712832450867
18.85173988342285 -8.006288528442383 0.3108363449573517
18.843524932861328 -8.139761924743652 0.30094054341316223
18.875947952270508 -8.291699409484863 0.283658504486084
16.34775161743164 -7.301176071166992 0.7223911881446838
16.242067337036133 -7.373960971832275 0.7309689521789551
16.26515769958496 -7.50527811050415 0.7164111733436584
16.20949935913086 -7.600700855255127 0.7158411741256714
16.20852279663086 -7.722044944763184 0.7052937746047974
16.169353485107422 -7.825605392456055 0.7015083432197571
16.713178634643555 -8.215909957885742 0.5914337635040283
16.595848083496094 -8.285195350646973 0.6012967228889465
16.461580276489258 -8.34487533569336 0.6142517924308777
16.426361083984375 -8.45425796508789 0.6089695692062378
16.564470291137695 -8.654465675354004 0.5714964270591736
16.37816047668457 -8.685614585876465 0.5938760638237
16.11737632751465 -8.674588203430176 0.6302294731140137
16.334535598754883 -8.921323776245117 0.5773176550865173
16.206607818603516 -8.981156349182129 0.5887464284896851
16.32283592224121 -9.177101135253906 0.5540929436683655
16.594961166381836 -9.464757919311523 0.4895058572292328
16.05534553527832 -9.288171768188477 0.5788030028343201
16.06149673461914 -9.423912048339844 0.5644354224205017
16.035207748413086 -9.541412353515625 0.5560811161994934
16.03595542907715 -9.675766944885254 0.542348325252533
12.616719245910645 12.678263664245605 1.0402265787124634
12.641246795654297 12.548359870910645 1.049451470375061
12.685858726501465 12.439417839050293 1.0543662309646606
12.713973999023438 12.315253257751465 1.062442421913147
12.762496948242188 12.211735725402832 1.0662027597427368
12.79297161102295 12.09177017211914 1.0734150409698486
12.830413818359375 11.979318618774414 1.0790427923202515
12.871325492858887 11.870887756347656 1.0838041305541992
12.907003402709961 11.758405685424805 1.0894291400909424
12.940316200256348 11.644607543945312 1.0953415632247925
12.987515449523926 11.54399299621582 1.0983644723892212
13.02355670928955 11.434093475341797 1.103407382965088
13.053509712219238 11.319646835327148 1.1094610691070557
13.089314460754395 11.211057662963867 1.114212155342102
13.125791549682617 11.103731155395508 1.118672490119934
13.164484024047852 10.99891471862793 1.122551679611206
13.197044372558594 10.889633178710938 1.1274434328079224
13.231830596923828 10.782864570617676 1.1317540407180786
13.265033721923828 10.675457954406738 1.1362082958221436
13.305167198181152 10.57420539855957 1.1392085552215576
13.337553024291992 10.467362403869629 1.1435142755508423
13.372261047363281 10.362943649291992 1.1472373008728027
13.40776252746582 10.259693145751953 1.1506671905517578
13.449605941772461 10.161765098571777 1.152783989906311
13.473308563232422 10.05069351196289 1.1581041812896729
13.512089729309082 9.951445579528809 1.1605077981948853
13.55016040802002 9.85209846496582 1.1629080772399902
13.586719512939453 9.752081871032715 1.165452003479004
13.61852741241455 9.649125099182129 1.168723702430725
13.658501625061035 9.552380561828613 1.1703851222991943
13.701061248779297 9.457756042480469 1.1714571714401245
13.72989273071289 9.354055404663086 1.1748688220977783
13.77110481262207 9.259185791015625 1.175934076309204
13.807547569274902 9.161428451538086 1.1777284145355225
13.845794677734375 9.065194129943848 1.1790796518325806
13.883381843566895 8.968835830688477 1.1804269552230835
13.919473648071289 8.87182331085205 1.1819183826446533
13.95155143737793 8.772598266601562 1.1839946508407593
13.992181777954102 8.679046630859375 1.184449315071106
14.021222114562988 8.578615188598633 1.1868149042129517
14.066495895385742 8.488371849060059 1.1862304210662842
14.110339164733887 8.397388458251953 1.185787558555603
14.149331092834473 8.30368423461914 1.1860777139663696
14.19027328491211 8.211299896240234 1.1859203577041626
14.238346099853516 8.123135566711426 1.18442702293396
14.278975486755371 8.030808448791504 1.1841109991073608
14.380417823791504 7.9723358154296875 1.1732767820358276
14.737690925598145 8.052812576293945 1.118708610534668
15.273221969604492 8.224382400512695 1.033951997756958
19.258487701416016 0.7798846960067749 0.5658853650093079
15.731193542480469 0.5403530597686768 1.126516580581665
19.267789840698242 0.5436575412750244 0.5605554580688477
12.873919486999512 -0.7433086037635803 1.5540812015533447
12.86392593383789 -0.8219378590583801 1.5531930923461914
16.499855041503906 -3.2186872959136963 0.8727267384529114
16.51426887512207 -3.3268368244171143 0.864707350730896
16.45841407775879 -3.420830011367798 0.8683741092681885
16.44255256652832 -3.522946834564209 0.8652254343032837
16.500246047973633 -3.6413707733154297 0.849552571773529
16.511878967285156 -3.750365972518921 0.8415117263793945
16.162151336669922 -3.9852609634399414 0.8821262121200562
19.912137985229492 -5.827793598175049 0.1847423017024994
19.592065811157227 -5.864945888519287 0.2313540279865265
19.300607681274414 -5.90705680847168 0.27311578392982483
19.084705352783203 -5.969374656677246 0.3017944097518921
18.873477935791016 -6.030771732330322 0.32970184087753296
18.79068946838379 -6.131723403930664 0.3350982964038849
16.190141677856445 -5.393397808074951 0.7838376760482788
16.438398361206055 -5.588458061218262 0.7318753004074097
16.316774368286133 -5.659115791320801 0.7450384497642517
16.10564422607422 -5.696924209594727 0.7740846276283264
16.420717239379883 -5.922059535980225 0.7094562649726868
18.80988311767578 -6.914453506469727 0.27368780970573425
18.823938369750977 -7.051131248474121 0.2609170079231262
18.83517837524414 -7.1875410079956055 0.2484668642282486
18.826143264770508 -7.316853046417236 0.23948901891708374
18.846487045288086 -7.458302021026611 0.2250310629606247
18.840187072753906 -7.589959144592285 0.21520979702472687
18.845748901367188 -7.727059364318848 0.2030564546585083
18.834861755371094 -7.858060836791992 0.1937209665775299
18.879352569580078 -8.013106346130371 0.17406411468982697
18.878280639648438 -8.1498441696167 0.16254760324954987
18.858177185058594 -8.278946876525879 0.1543562114238739
16.359350204467773 -7.302164077758789 0.6051108837127686
18.89345932006836 -8.572773933410645 0.12344751507043839
18.87856101989746 -8.706238746643066 0.11373599618673325
16.190675735473633 -7.587674140930176 0.604239284992218
16.356184005737305 -7.788124084472656 0.5620962381362915
16.165700912475586 -7.819603443145752 0.5866819620132446
16.745859146118164 -8.614191055297852 0.4289967715740204
16.53849220275879 -8.636422157287598 0.4563075006008148
16.45779037475586 -8.72337818145752 0.45929449796676636
16.244691848754883 -8.738690376281738 0.48786038160324097
16.282085418701172 -8.888216972351074 0.46783334016799927
16.222536087036133 -8.985517501831055 0.4664832651615143
16.122875213623047 -9.060213088989258 0.47289419174194336
16.12224578857422 -9.190650939941406 0.4597589671611786
16.072834014892578 -9.293793678283691 0.45606663823127747
15.974299430847168 -9.368257522583008 0.4620053470134735
15.95339298248291 -9.488216400146484 0.45241373777389526
16.719905853271484 -10.08366584777832 0.2848600447177887
12.554903984069824 12.767048835754395 0.9272120594978333
12.606830596923828 12.663886070251465 0.9312071204185486
12.646035194396973 12.548723220825195 0.9377427697181702
12.676538467407227 12.425942420959473 0.9459248185157776
12.713117599487305 12.310136795043945 0.9526088237762451
12.750899314880371 12.19640064239502 0.9588419198989868
12.783456802368164 12.078588485717773 0.9659741520881653
12.826614379882812 11.971628189086914 0.9707043170928955
12.853679656982422 11.850518226623535 0.9785863161087036
12.909713745117188 11.756821632385254 0.9803066253662109
12.938624382019043 11.639077186584473 0.987435519695282
12.97618579864502 11.529956817626953 0.9926086664199829
13.001753807067871 11.411029815673828 1.000038981437683
13.05025863647461 11.312944412231445 1.0026487112045288
13.086034774780273 11.204405784606934 1.0076664686203003
13.120218276977539 11.095213890075684 1.012833595275879
13.15052318572998 10.983487129211426 1.0186035633087158
13.186054229736328 10.876839637756348 1.0231648683547974
13.228437423706055 10.776410102844238 1.0262129306793213
13.262385368347168 10.669672966003418 1.0307700634002686
13.297070503234863 10.564153671264648 1.03502357006073
13.3294095993042 10.457387924194336 1.0395781993865967
13.368753433227539 10.356675148010254 1.0426164865493774
13.405011177062988 10.254072189331055 1.0461065769195557
13.44209098815918 10.152603149414062 1.0492912530899048
13.478432655334473 10.051063537597656 1.0524733066558838
13.515628814697266 9.950631141662598 1.0553492307662964
13.544106483459473 9.844307899475098 1.0597426891326904
13.577412605285645 9.74204158782959 1.0630707740783691
13.616426467895508 9.644305229187012 1.0651792287826538
13.65394401550293 9.545890808105469 1.0674368143081665
13.693208694458008 9.449060440063477 1.069233775138855
13.731800079345703 9.352107048034668 1.0710275173187256
13.769718170166016 9.255033493041992 1.0728179216384888
13.80284595489502 9.155113220214844 1.0753684043884277
13.839402198791504 9.057840347290039 1.0771526098251343
13.874454498291016 8.959925651550293 1.0790866613388062
13.912996292114258 8.864574432373047 1.0802528858184814
13.94754409790039 8.766983985900879 1.0820276737213135
13.982258796691895 8.669819831848145 1.0836464166641235
14.020523071289062 8.575138092041016 1.084495186805725
14.06322956085205 8.48337459564209 1.0844197273254395
14.107035636901855 8.392416954040527 1.084031581878662
14.142585754394531 8.29673957824707 1.0850212574005127
14.18690013885498 8.20638370513916 1.0843160152435303
14.229782104492188 8.115304946899414 1.0837587118148804
14.255716323852539 8.01480484008789 1.0861222743988037
14.420088768005371 7.9914093017578125 1.0636719465255737
14.707825660705566 8.033557891845703 1.0192859172821045
15.254108428955078 8.211105346679688 0.9291494488716125
19.243438720703125 0.7768140435218811 0.44757264852523804
15.739328384399414 0.538472592830658 1.026522159576416
19.278310775756836 0.5414955019950867 0.43798238039016724
12.863840103149414 -0.7446377277374268 1.4748942852020264
12.854815483093262 -0.8232672214508057 1.473872184753418
16.183820724487305 -2.7487809658050537 0.8433876633644104
16.22768211364746 -2.961588144302368 0.8253543972969055
16.263093948364258 -3.0712976455688477 0.8138039708137512
16.259063720703125 -3.1740028858184814 0.8089680075645447
16.074649810791016 -3.2405576705932617 0.8354347348213196
16.21913719177246 -3.373394012451172 0.8045103549957275
16.136089324951172 -3.459583044052124 0.8131565451622009
16.25087547302246 -3.5886518955230713 0.7870713472366333
16.202238082885742 -3.6823558807373047 0.7894817590713501
16.09259796142578 -3.761472225189209 0.8025444746017456
16.0631046295166 -3.8587167263031006 0.8014310002326965
19.000198364257812 -5.945647239685059 0.1913197636604309
18.870006561279297 -6.032365798950195 0.20568323135375977
18.790987014770508 -6.1345295906066895 0.21068651974201202
16.187536239624023 -5.39499568939209 0.6769471168518066
16.168682098388672 -5.499246597290039 0.6720588803291321
16.28691864013672 -5.651262283325195 0.6418507695198059
16.41131591796875 -5.8075642585754395 0.6102355122566223
16.45747184753418 -5.937857627868652 0.5928024649620056
16.007017135620117 -5.8867082595825195 0.6672478914260864
15.972989082336426 -5.985805034637451 0.6646003127098083
18.80995750427246 -7.180747032165527 0.12626270949840546
16.06102180480957 -6.244805335998535 0.6297613382339478
16.29796028137207 -7.277481555938721 0.5040571093559265
16.309112548828125 -7.402941703796387 0.49098190665245056
16.377466201782227 -7.555628776550293 0.4666496813297272
16.2117919921875 -7.600332260131836 0.4874846339225769
16.16267967224121 -7.698767185211182 0.48565807938575745
16.594499588012695 -8.410730361938477 0.3529665768146515
16.55092430114746 -8.516850471496582 0.34899869561195374
16.305042266845703 -8.517441749572754 0.38522475957870483
16.466962814331055 -8.731203079223633 0.34003016352653503
16.384050369262695 -8.816631317138672 0.3435642719268799
16.151195526123047 -8.819740295410156 0.37727242708206177
16.182498931884766 -8.96634292602539 0.3576527535915375
16.367107391357422 -9.20050048828125 0.30659493803977966
16.102933883666992 -9.182682037353516 0.346662312746048
16.152416229248047 -9.34288215637207 0.32264187932014465
16.226858139038086 -9.519476890563965 0.29317712783813477
16.092416763305664 -9.574015617370605 0.3065648078918457
12.569334030151367 12.776917457580566 0.8285704851150513
12.601808547973633 12.65408706665039 0.8370895981788635
12.63184928894043 12.529948234558105 0.8459187746047974
12.674955368041992 12.419744491577148 0.8516495227813721
12.71789836883545 12.31017017364502 0.8572231531143188
12.757121086120605 12.19780445098877 0.8634145259857178
12.794729232788086 12.084741592407227 0.8697596192359924
12.829266548156738 11.969651222229004 0.8765694499015808
12.868685722351074 11.859950065612793 0.8821357488632202
12.901402473449707 11.744893074035645 0.8889438509941101
12.928053855895996 11.62525463104248 0.8968406319618225
12.967759132385254 11.518197059631348 0.9017810821533203
13.003667831420898 11.408483505249023 0.9073421955108643
13.05812931060791 11.315581321716309 0.9088497161865234
13.081927299499512 11.196743965148926 0.9165893793106079
13.113059043884277 11.085053443908691 0.922614336013794
13.166817665100098 10.993030548095703 0.9237982034683228
13.184890747070312 10.87185287475586 0.9321631193161011
13.228014945983887 10.772074699401855 0.9352154731750488
13.261946678161621 10.665366172790527 0.9399852156639099
13.298935890197754 10.561715126037598 0.9439707398414612
13.34370231628418 10.464717864990234 0.946231484413147
13.374507904052734 10.357285499572754 0.9511522054672241
13.398223876953125 10.24506664276123 0.9573265910148621
13.440773963928223 10.147825241088867 0.9595792889595032
13.480259895324707 10.048675537109375 0.9622991681098938
13.514265060424805 9.945907592773438 0.9659585952758789
13.545920372009277 9.841938018798828 0.9699302911758423
13.580021858215332 9.740256309509277 0.9732717275619507
13.627893447875977 9.648798942565918 0.9737776517868042
13.694981575012207 9.446712493896484 0.9799744486808777
13.731927871704102 9.348649024963379 0.9822022318840027
13.775564193725586 9.255444526672363 0.9830069541931152
13.79141902923584 9.144043922424316 0.989017903804779
13.835346221923828 9.05172061920166 0.9895004034042358
13.876172065734863 8.95759391784668 0.990452229976654
13.915532112121582 8.862773895263672 0.9915581345558167
13.9525785446167 8.766756057739258 0.9929766654968262
13.977224349975586 8.663331985473633 0.996609628200531
14.027239799499512 8.575901985168457 0.9953277707099915
14.064873695373535 8.481043815612793 0.996259868144989
14.108660697937012 8.390082359313965 0.9959182739257812
14.16037654876709 8.3038969039917 0.9939826130867004
14.190199851989746 8.205032348632812 0.9960138201713562
14.227919578552246 8.111003875732422 0.9964516758918762
14.286537170410156 8.028913497924805 0.992906391620636
14.41203498840332 7.983728885650635 0.9769268035888672
14.689133644104004 8.020112037658691 0.9330262541770935
15.234071731567383 8.197025299072266 0.840092122554779
15.979660987854004 8.47253704071045 0.7107930779457092
19.234455108642578 0.7736304402351379 0.34543219208717346
15.737330436706543 0.5359497666358948 0.9420918822288513
19.262340545654297 0.5382271409034729 0.33688095211982727
12.887335777282715 -0.6688566207885742 1.4038827419281006
12.85909652709961 -0.7465161085128784 1.406288743019104
12.852022171020508 -0.8252418041229248 1.4049466848373413
16.290334701538086 -1.5483568906784058 0.7903385758399963
16.32325553894043 -1.7538347244262695 0.7766300439834595
16.325525283813477 -1.8554686307907104 0.7720834612846375
16.28901481628418 -1.952630639076233 0.7742345333099365
16.294931411743164 -2.0548343658447266 0.768827497959137
16.24844741821289 -2.150343179702759 0.7725359797477722
16.31068992614746 -2.260493040084839 0.7569690942764282
16.268850326538086 -2.356534004211426 0.7596486806869507
16.2264461517334 -2.4521491527557373 0.7623367309570312
16.1854305267334 -2.5476412773132324 0.7646881937980652
16.342540740966797 -2.7783055305480957 0.726552426815033
16.38689613342285 -2.889420747756958 0.7133299112319946
16.20183563232422 -2.95944881439209 0.7409405708312988
16.188810348510742 -3.0598556995391846 0.7377647757530212
16.229291915893555 -3.1707851886749268 0.7248824238777161
16.17633628845215 -3.263641834259033 0.7286389470100403
16.16817283630371 -3.3653972148895264 0.7242468595504761
16.244102478027344 -3.4853475093841553 0.7045652270317078
16.065298080444336 -3.5502893924713135 0.7307573556900024
16.216650009155273 -3.6882576942443848 0.6971442699432373
16.08978271484375 -3.7634363174438477 0.7138038873672485
