# .PCD v0.7 - Point Cloud Data file format
VERSION 0.7
FIELDS x y z
SIZE 4 4 4
TYPE F F F
COUNT 1 1 1
WIDTH 847
HEIGHT 1
VIEWPOINT 0 0 0 1 0 0 0
POINTS 847
DATA ascii
28.3226261138916 -13.953364372253418 -0.37234529852867126
28.298973083496094 -14.1583251953125 -0.3850935995578766
28.269437789916992 -14.36127758026123 -0.3972185552120209
28.202329635620117 -14.545759201049805 -0.40417250990867615
28.10501480102539 -14.714777946472168 -0.40695181488990784
27.61074447631836 -14.67276382446289 -0.35254478454589844
27.5004940032959 -14.831473350524902 -0.35347408056259155
27.385852813720703 -14.987482070922852 -0.35387980937957764
27.257326126098633 -15.13542366027832 -0.3523663580417633
20.8432559967041 -13.130938529968262 0.45811647176742554
20.514476776123047 -13.10053825378418 0.4931833744049072
20.204357147216797 -13.077923774719238 0.5256365537643433
19.932621002197266 -13.076482772827148 0.5523915886878967
19.69636344909668 -13.095270156860352 0.5738180875778198
19.522327423095703 -13.153212547302246 0.5856630206108093
19.334402084350586 -13.20001220703125 0.5997276902198792
19.261642456054688 -13.324551582336426 0.595689594745636
19.231937408447266 -13.4794282913208 0.5847044587135315
19.205902099609375 -13.637889862060547 0.5729416012763977
19.22372055053711 -13.828964233398438 0.553949236869812
19.215068817138672 -14.002669334411621 0.538941502571106
19.21058464050293 -14.180909156799316 0.5230185389518738
19.194305419921875 -14.351902961730957 0.5087649822235107
19.197988510131836 -14.539392471313477 0.4910076856613159
19.226051330566406 -14.747382164001465 0.46896085143089294
19.225650787353516 -14.935578346252441 0.4513009786605835
19.225215911865234 -15.125554084777832 0.43336793780326843
19.227815628051758 -15.31978988647461 0.4146416187286377
19.224891662597656 -15.511514663696289 0.3965502083301544
19.234920501708984 -15.7156982421875 0.3759738802909851
19.211071014404297 -15.89404296875 0.36084723472595215
19.316476821899414 -16.18219566345215 0.32330459356307983
19.24817657470703 -16.327295303344727 0.31518474221229553
19.26380729675293 -16.5451602935791 0.2923232913017273
19.265514373779297 -16.753419876098633 0.2715316712856293
12.828067779541016 12.099082946777344 1.7187222242355347
12.880711555480957 12.000523567199707 1.7202755212783813
13.871062278747559 12.765581130981445 1.5830241441726685
12.916889190673828 11.741974830627441 1.7332199811935425
14.073447227478027 12.636987686157227 1.5726529359817505
12.98735523223877 11.518658638000488 1.7405387163162231
14.486344337463379 12.6907377243042 1.531496286392212
13.08512020111084 11.32205581665039 1.7433996200561523
13.120084762573242 11.212522506713867 1.7466715574264526
13.164073944091797 11.111321449279785 1.7485278844833374
13.210370063781738 11.012548446655273 1.749944806098938
13.23753547668457 10.898458480834961 1.7539739608764648
13.269969940185547 10.789468765258789 1.7571309804916382
13.314743041992188 10.691070556640625 1.7584306001663208
13.340118408203125 10.577704429626465 1.762349247932434
13.379474639892578 10.476073265075684 1.7641899585723877
13.423592567443848 10.378613471984863 1.7652618885040283
13.466228485107422 10.280402183532715 1.7664391994476318
13.488324165344238 10.167098999023438 1.7703547477722168
13.516716003417969 10.05925178527832 1.7732839584350586
13.564316749572754 9.966154098510742 1.7734651565551758
13.594389915466309 9.860590934753418 1.7759512662887573
13.635802268981934 9.763715744018555 1.7767850160598755
13.678159713745117 9.667848587036133 1.7773945331573486
13.71822738647461 9.570691108703613 1.7782204151153564
13.755979537963867 9.472278594970703 1.7792633771896362
13.788932800292969 9.370967864990234 1.7808558940887451
13.824464797973633 9.271822929382324 1.7820041179656982
13.863442420959473 9.175336837768555 1.7825955152511597
13.88594913482666 9.068392753601074 1.7852892875671387
13.923540115356445 8.971748352050781 1.7858760356903076
13.961305618286133 8.875515937805176 1.7863483428955078
14.01020336151123 8.78654956817627 1.7852611541748047
14.039942741394043 8.685811042785645 1.7866147756576538
14.082547187805176 8.593321800231934 1.7861851453781128
14.114326477050781 8.494484901428223 1.7870880365371704
14.157389640808105 8.40268325805664 1.7864267826080322
14.198143005371094 8.309666633605957 1.7859835624694824
14.23398494720459 8.213982582092285 1.7860946655273438
14.269186973571777 8.118169784545898 1.7862019538879395
14.306350708007812 8.023691177368164 1.7859699726104736
14.43506908416748 7.980032920837402 1.7738516330718994
14.799365043640137 8.063486099243164 1.7314112186431885
15.868152618408203 8.520305633544922 1.5986957550048828
27.4803466796875 14.540804862976074 0.11683797091245651
27.50602149963379 14.33936595916748 0.12135356664657593
27.53203010559082 14.139065742492676 0.12564674019813538
27.540658950805664 13.930910110473633 0.1319727897644043
27.52287483215332 13.710772514343262 0.14146599173545837
27.584604263305664 13.531201362609863 0.14069069921970367
27.70869255065918 13.382068634033203 0.13187964260578156
27.978242874145508 13.301467895507812 0.1045922189950943
19.28156852722168 0.7556204199790955 1.275827169418335
19.240896224975586 0.6358628869056702 1.2787827253341675
19.32549476623535 0.520035445690155 1.2663071155548096
12.87593936920166 -0.6816441416740417 2.0328152179718018
12.865367889404297 -0.7602551579475403 2.0318706035614014
12.864219665527344 -0.8394080400466919 2.0296921730041504
12.705368041992188 -1.457810640335083 2.0289273262023926
12.609298706054688 -1.5252400636672974 2.0382320880889893
20.2242431640625 -6.354197025299072 0.886864423751831
20.186418533325195 -6.478725910186768 0.883919894695282
20.16101837158203 -6.607354640960693 0.8791762590408325
20.13292121887207 -6.735288143157959 0.874690592288971
18.970308303833008 -6.476226806640625 1.026086688041687
18.966411590576172 -6.6051716804504395 1.0185250043869019
18.947628021240234 -6.729337692260742 1.01289701461792
18.93082618713379 -6.8545355796813965 1.0068796873092651
19.143911361694336 -7.0648980140686035 0.9687345623970032
19.098939895629883 -7.181832790374756 0.9663130044937134
19.03103256225586 -7.289972305297852 0.9670107364654541
18.968982696533203 -7.400074005126953 0.966810941696167
18.933025360107422 -7.520303726196289 0.9628490805625916
18.869138717651367 -8.312052726745605 0.9149425029754639
18.938692092895508 -8.481914520263672 0.8948779702186584
18.999643325805664 -8.649657249450684 0.8758357167243958
19.205001831054688 -8.885891914367676 0.8355250358581543
19.320234298706055 -9.083640098571777 0.8080143928527832
20.686342239379883 -13.036213874816895 0.3384699821472168
20.39174461364746 -13.02628231048584 0.3699006736278534
20.10055923461914 -13.014850616455078 0.40099766850471497
19.87327003479004 -13.041662216186523 0.42198246717453003
19.623313903808594 -13.050816535949707 0.44676947593688965
19.467689514160156 -13.12053108215332 0.45631837844848633
19.302133560180664 -13.18212604522705 0.467507928609848
19.22701644897461 -13.304771423339844 0.46381422877311707
19.173839569091797 -13.44291877746582 0.4563627541065216
19.436382293701172 -13.805828094482422 0.3961499333381653
19.33562469482422 -13.913778305053711 0.39606815576553345
19.208650588989258 -14.002338409423828 0.40031564235687256
19.215242385864258 -14.188741683959961 0.38191601634025574
19.201215744018555 -14.361509323120117 0.36674249172210693
19.220539093017578 -14.560961723327637 0.3456129729747772
19.224763870239258 -14.750938415527344 0.3267640471458435
19.21329116821289 -14.930572509765625 0.3103369474411011
19.21590232849121 -15.122876167297363 0.2911894917488098
19.22384262084961 -15.321329116821289 0.2708071768283844
19.237003326416016 -15.526046752929688 0.24918745458126068
19.21307373046875 -15.702664375305176 0.23379577696323395
19.196855545043945 -15.887152671813965 0.2167649269104004
19.215539932250977 -16.10257339477539 0.1931964010000229
19.231536865234375 -16.318180084228516 0.16974404454231262
19.282424926757812 -16.56621742248535 0.13959817588329315
12.769194602966309 12.213662147521973 1.6105326414108276
12.835676193237305 12.127612113952637 1.6102124452590942
12.966225624084473 12.101531028747559 1.599739670753479
12.878527641296387 11.872963905334473 1.623349905014038
12.942049026489258 11.785726547241211 1.623129963874817
12.949586868286133 11.648330688476562 1.6314712762832642
12.971527099609375 11.525139808654785 1.6374170780181885
13.017833709716797 11.424398422241211 1.6394742727279663
13.084413528442383 11.3417387008667 1.6383211612701416
13.096134185791016 11.212176322937012 1.645411729812622
13.152278900146484 11.121381759643555 1.6456239223480225
13.197888374328613 11.022041320800781 1.6473222970962524
13.238178253173828 10.918766021728516 1.6497055292129517
13.267685890197754 10.807254791259766 1.6535817384719849
13.30716323852539 10.704508781433105 1.655846357345581
13.326435089111328 10.586238861083984 1.6609876155853271
13.370552062988281 10.488365173339844 1.6623270511627197
13.412400245666504 10.389131546020508 1.663893461227417
13.450379371643066 10.287365913391113 1.6659181118011475
13.48206901550293 10.181331634521484 1.668749213218689
13.51296329498291 10.075296401977539 1.671579360961914
13.559866905212402 9.981630325317383 1.671977162361145
13.582828521728516 9.870831489562988 1.6757302284240723
13.630767822265625 9.778654098510742 1.6757729053497314
13.665119171142578 9.677074432373047 1.6776673793792725
13.707695007324219 9.581701278686523 1.6782820224761963
13.743892669677734 9.482218742370605 1.679706335067749
13.76953411102295 9.375944137573242 1.6825244426727295
13.807581901550293 9.278573989868164 1.683478593826294
13.855714797973633 9.188223838806152 1.6829134225845337
13.881650924682617 9.08349323272705 1.6853768825531006
13.90932846069336 8.980406761169434 1.6874895095825195
13.956369400024414 8.890125274658203 1.6867951154708862
13.990213394165039 8.79167652130127 1.6878505945205688
14.02928352355957 8.696809768676758 1.6880828142166138
14.057550430297852 8.595576286315918 1.689718246459961
14.10721492767334 8.50765609741211 1.6883018016815186
14.15291690826416 8.417418479919434 1.6873480081558228
14.19118881225586 8.322919845581055 1.687328815460205
14.226256370544434 8.226775169372559 1.6876583099365234
14.259815216064453 8.130021095275879 1.6881023645401
14.304842948913574 8.039974212646484 1.6868932247161865
14.360595703125 7.955935955047607 1.6841444969177246
14.820256233215332 8.092314720153809 1.6265946626663208
15.888089179992676 8.549407005310059 1.487024188041687
19.25372314453125 0.7720533609390259 1.1634596586227417
19.241918563842773 0.6534091830253601 1.1629904508590698
19.28391456604004 0.5364528894424438 1.155514121055603
12.89564037322998 -0.6701119542121887 1.9529324769973755
12.871273040771484 -0.7480425238609314 1.9538304805755615
12.866230010986328 -0.8269733786582947 1.9521454572677612
19.714746475219727 -6.042087078094482 0.8405418395996094
19.448110580444336 -6.091212272644043 0.8704499006271362
19.24297523498535 -6.156927108764648 0.891678512096405
19.221445083618164 -6.280374050140381 0.8866972327232361
18.96601104736328 -6.326033115386963 0.9151415824890137
18.940568923950195 -6.447027206420898 0.9105951189994812
18.91903305053711 -6.569575309753418 0.9053745269775391
18.91258430480957 -6.697727203369141 0.8978551030158997
18.89594841003418 -6.822682857513428 0.891684353351593
18.894298553466797 -6.9535064697265625 0.8832089900970459
18.903812408447266 -7.089090347290039 0.8729656934738159
18.898483276367188 -7.219749927520752 0.864747941493988
18.880258560180664 -7.345942497253418 0.8582898378372192
18.921062469482422 -7.495904445648193 0.8429957628250122
18.942354202270508 -7.639232158660889 0.8304046392440796
18.898441314697266 -7.756772041320801 0.8273305296897888
18.90498924255371 -7.895442962646484 0.8166297674179077
18.916011810302734 -8.036812782287598 0.8051013946533203
18.884185791015625 -8.298524856567383 0.789664626121521
18.785526275634766 -8.393176078796387 0.7942489385604858
18.986759185791016 -8.623346328735352 0.7532716989517212
18.968204498291016 -8.75582504272461 0.7453861236572266
18.9666748046875 -8.896817207336426 0.7347546815872192
18.963228225708008 -9.037694931030273 0.7242527604103088
18.981943130493164 -9.190089225769043 0.7101715207099915
19.185264587402344 -9.434410095214844 0.6673445105552673
20.480762481689453 -13.058107376098633 0.2110646665096283
20.12289810180664 -13.004495620727539 0.2548084259033203
19.88907241821289 -13.027292251586914 0.2779468894004822
19.629335403442383 -13.030193328857422 0.3056131899356842
19.464807510375977 -13.093962669372559 0.31723523139953613
19.303512573242188 -13.158440589904785 0.3283291459083557
19.219558715820312 -13.274895668029785 0.32613110542297363
19.20223045349121 -13.437934875488281 0.3122940957546234
19.21188735961914 -13.621307373046875 0.29353320598602295
19.197494506835938 -13.789129257202148 0.27869275212287903
19.235393524169922 -13.996318817138672 0.25441774725914
19.2340087890625 -14.17688274383545 0.23673655092716217
19.225570678710938 -14.35380744934082 0.22002865374088287
19.21725845336914 -14.53235912322998 0.20302806794643402
19.226333618164062 -14.72579574584961 0.18262934684753418
19.207155227661133 -14.899258613586426 0.16701610386371613
19.225488662719727 -15.103619575500488 0.14432775974273682
19.24202537536621 -15.308767318725586 0.12161993235349655
19.24982261657715 -15.509093284606934 0.10016780346632004
13.299402236938477 13.027453422546387 1.3835009336471558
12.738117218017578 12.325709342956543 1.4897456169128418
12.786662101745605 12.221972465515137 1.4926257133483887
12.786054611206055 12.072440147399902 1.5035631656646729
12.95615291595459 12.08384895324707 1.485973596572876
13.067728042602539 12.039137840270996 1.4781100749969482
12.9868803024292 11.818453788757324 1.5018181800842285
12.987251281738281 11.67420768737793 1.5119189023971558
13.981030464172363 12.413590431213379 1.3602073192596436
14.087973594665527 12.355098724365234 1.353401780128479
13.048261642456055 11.302651405334473 1.5313829183578491
13.104260444641113 11.211441993713379 1.5318244695663452
13.152050018310547 11.11356258392334 1.5334705114364624
13.201419830322266 11.017423629760742 1.5347486734390259
13.228659629821777 10.903419494628906 1.5394190549850464
13.278093338012695 10.808295249938965 1.5404473543167114
13.299009323120117 10.690585136413574 1.5458450317382812
13.338418960571289 10.588452339172363 1.5482044219970703
13.373953819274902 10.48378849029541 1.5510475635528564
13.411847114562988 10.381518363952637 1.5534021854400635
13.445836067199707 10.276762962341309 1.5562418699264526
13.48300838470459 10.174970626831055 1.5584697723388672
13.527398109436035 10.079038619995117 1.5594743490219116
13.543136596679688 9.962359428405762 1.564751386642456
13.592488288879395 9.870944023132324 1.5647724866867065
13.622675895690918 9.765995979309082 1.5676027536392212
13.669913291931152 9.673661231994629 1.5677375793457031
13.699444770812988 9.569178581237793 1.5704411268234253
13.740466117858887 9.473146438598633 1.571303367614746
13.78410816192627 9.379202842712402 1.571670651435852
13.804046630859375 9.269588470458984 1.5754741430282593
13.852943420410156 9.179815292358398 1.5748509168624878
13.885476112365723 9.079471588134766 1.5765607357025146
13.903958320617676 8.970464706420898 1.5802396535873413
13.943394660949707 8.87542724609375 1.5807137489318848
13.995634078979492 8.78868579864502 1.5792092084884644
14.030464172363281 8.691184997558594 1.5801678895950317
14.056156158447266 8.588411331176758 1.582359790802002
14.09981632232666 8.496916770935059 1.5818290710449219
14.147147178649902 8.407745361328125 1.5806734561920166
14.187066078186035 8.314295768737793 1.580503225326538
14.226371765136719 8.220670700073242 1.580328345298767
14.256441116333008 8.121964454650879 1.5813908576965332
14.303139686584473 8.032915115356445 1.5799657106399536
14.399630546569824 7.971469879150391 1.5713191032409668
14.829493522644043 8.091161727905273 1.5149692296981812
15.240364074707031 8.194594383239746 1.4615066051483154
19.24357795715332 0.7659494280815125 1.0382335186004639
19.23668670654297 0.6475399136543274 1.0372000932693481
19.264728546142578 0.5302241444587708 1.0313482284545898
12.900185585021973 -0.6744322180747986 1.8674123287200928
12.870851516723633 -0.7520970702171326 1.8691160678863525
12.868738174438477 -0.8312160968780518 1.8670237064361572
27.78725814819336 -5.973351955413818 -0.3518655598163605
27.72347068786621 -6.137887477874756 -0.3517829477787018
27.65291976928711 -6.300549507141113 -0.3508540987968445
19.85662841796875 -5.958883285522461 0.6916038990020752
19.503185272216797 -5.9835734367370605 0.735956072807312
19.22200584411621 -6.026667594909668 0.7696950435638428
19.038164138793945 -6.097643852233887 0.7889862656593323
19.04143714904785 -6.227835655212402 0.7802492380142212
18.87667465209961 -6.302495002746582 0.7966362833976746
18.84572410583496 -6.421024799346924 0.7928534746170044
18.856109619140625 -6.55403995513916 0.7827083468437195
18.846906661987305 -6.680809497833252 0.775385320186615
18.848026275634766 -6.8117523193359375 0.7663581371307373
18.835241317749023 -6.938172340393066 0.7593092322349548
18.83087921142578 -7.068171501159668 0.7508377432823181
18.83394432067871 -7.201561450958252 0.7410825490951538
18.830547332763672 -7.333101749420166 0.7321723103523254
18.859365463256836 -7.478005886077881 0.7181332111358643
18.859575271606445 -7.612427711486816 0.7083520889282227
18.869823455810547 -7.751647472381592 0.6968533992767334
18.862632751464844 -7.884410858154297 0.6879120469093323
18.867271423339844 -8.02280044555664 0.6769661903381348
18.873641967773438 -8.162723541259766 0.6655833721160889
18.87447166442871 -8.30103588104248 0.6549055576324463
18.887863159179688 -8.44572639465332 0.6420726180076599
18.929014205932617 -8.603999137878418 0.6246435642242432
18.919511795043945 -8.740269660949707 0.6150818467140198
18.92337989807129 -8.883476257324219 0.6032180786132812
18.9333438873291 -9.030468940734863 0.5901958346366882
18.92618179321289 -9.170151710510254 0.5797505974769592
18.92600440979004 -9.314020156860352 0.5680034756660461
19.001781463623047 -9.496720314025879 0.5437195897102356
16.593708038330078 -8.421032905578613 0.9248024225234985
16.459579467773438 -8.480499267578125 0.9359869956970215
16.72519302368164 -8.747756958007812 0.8813754916191101
16.618515014648438 -8.953655242919922 0.8764503002166748
16.639324188232422 -9.097179412841797 0.8614796996116638
16.357881546020508 -9.07426929473877 0.896893322467804
16.308454513549805 -9.178305625915527 0.8935306668281555
16.248912811279297 -9.27668285369873 0.8917680978775024
16.232444763183594 -9.399962425231934 0.8826091885566711
16.282470703125 -9.562973022460938 0.8619685173034668
16.18829345703125 -9.641897201538086 0.8657327890396118
19.955101013183594 -13.079259872436523 0.10878682881593704
19.606229782104492 -13.02351188659668 0.15363410115242004
19.458227157592773 -13.098217010498047 0.16298319399356842
19.28961944580078 -13.157665252685547 0.17602357268333435
19.212980270385742 -13.279095649719238 0.17252711951732635
19.18013572692871 -13.431289672851562 0.1609671413898468
19.23004722595215 -13.643105506896973 0.13413001596927643
19.208993911743164 -13.806392669677734 0.11990665644407272
19.217041015625 -13.992056846618652 0.10008690506219864
12.822759628295898 12.876383781433105 1.331138014793396
12.70401668548584 12.60186767578125 1.3648003339767456
12.695769309997559 12.440393447875977 1.3783509731292725
12.730931282043457 12.322966575622559 1.3839725255966187
12.686981201171875 12.130844116210938 1.4033392667770386
12.735633850097656 12.028964042663574 1.406193494796753
12.93074893951416 12.064325332641602 1.383407473564148
13.007143020629883 11.987483024597168 1.381306767463684
13.028801918029785 11.860735893249512 1.3885538578033447
13.049392700195312 11.44827651977539 1.416774034500122
13.035138130187988 11.295270919799805 1.4293640851974487
13.094857215881348 11.207371711730957 1.4292724132537842
13.14490032196045 11.111479759216309 1.4306977987289429
13.194262504577637 11.015393257141113 1.4321181774139404
13.222277641296387 10.902081489562988 1.4369680881500244
13.254015922546387 10.792596817016602 1.4410544633865356
13.285685539245605 10.683755874633789 1.4450129270553589
13.328171730041504 10.584181785583496 1.4470583200454712
13.36213207244873 10.478368759155273 1.450376033782959
13.404707908630371 10.379822731018066 1.4521602392196655
13.441852569580078 10.277533531188965 1.454707145690918
13.475873947143555 10.173384666442871 1.457635521888733
13.507533073425293 10.06801986694336 1.4608180522918701
13.547995567321777 9.969700813293457 1.4624625444412231
13.582144737243652 9.867182731628418 1.4650007486343384
13.614741325378418 9.764042854309082 1.4676653146743774
13.656299591064453 9.667749404907227 1.4687881469726562
13.696375846862793 9.570745468139648 1.4700349569320679
13.734145164489746 9.472485542297363 1.4715356826782227
13.770404815673828 9.373563766479492 1.4731616973876953
13.805145263671875 9.273999214172363 1.4749140739440918
13.84249210357666 9.176548957824707 1.476148009300232
13.87999153137207 9.079533576965332 1.4772495031356812
13.909326553344727 8.977561950683594 1.4795103073120117
13.929569244384766 8.870244979858398 1.4830611944198608
13.986804962158203 8.786754608154297 1.480794072151184
14.019939422607422 8.688268661499023 1.4821420907974243
14.042243003845215 8.583498001098633 1.4850419759750366
14.102001190185547 8.501819610595703 1.4821085929870605
14.145092010498047 8.410100936889648 1.481630802154541
14.179035186767578 8.313156127929688 1.482446312904358
14.211463928222656 8.215614318847656 1.4833887815475464
14.242369651794434 8.1174955368042 1.4844584465026855
14.29162311553955 8.029991149902344 1.4826620817184448
14.364622116088867 7.955636978149414 1.4772108793258667
14.816662788391113 8.087830543518066 1.4148989915847778
15.251625061035156 8.204432487487793 1.355348825454712
19.235614776611328 0.7697968482971191 0.923040509223938
19.235668182373047 0.6516696810722351 0.9210955500602722
19.250831604003906 0.5340092182159424 0.9169138669967651
12.870214462280273 -0.7495318651199341 1.791359782218933
12.844393730163574 -0.8271209597587585 1.7926504611968994
19.77927017211914 -5.93100118637085 0.5783173441886902
19.476360321044922 -5.970744609832764 0.6168730854988098
19.210538864135742 -6.018531799316406 0.6497822403907776
19.085254669189453 -6.108205318450928 0.6608827710151672
18.863698959350586 -6.165234565734863 0.686997652053833
18.818574905395508 -6.278622627258301 0.6855189204216003
18.819589614868164 -6.407628059387207 0.6766871809959412
18.830001831054688 -6.5404534339904785 0.6662287712097168
18.815248489379883 -6.665063381195068 0.6595940589904785
18.809906005859375 -6.793436050415039 0.6513342261314392
18.812973022460938 -6.925411224365234 0.6415917873382568
18.818830490112305 -7.059071063995361 0.6312515139579773
18.824674606323242 -7.193417549133301 0.6207546591758728
18.815746307373047 -7.322723865509033 0.6124702095985413
18.816974639892578 -7.456563949584961 0.6024032235145569
18.826435089111328 -7.594396114349365 0.5908454060554504
18.8431396484375 -7.73600435256958 0.5779421925544739
18.845123291015625 -7.87238883972168 0.5672553181648254
18.847959518432617 -8.00986385345459 0.5562634468078613
18.841644287109375 -8.144140243530273 0.5466017127037048
18.87150001525879 -8.294954299926758 0.5308292508125305
18.879446029663086 -8.437163352966309 0.5184686183929443
18.854841232299805 -8.565471649169922 0.5113177299499512
18.896699905395508 -8.724879264831543 0.4929704964160919
18.899707794189453 -8.867487907409668 0.4808783233165741
19.197111129760742 -9.151276588439941 0.4192904829978943
19.166004180908203 -9.28133773803711 0.41237738728523254
18.935283660888672 -9.313623428344727 0.4390060603618622
16.623615264892578 -8.303948402404785 0.818313717842102
16.57200050354004 -8.405746459960938 0.8160813450813293
16.423072814941406 -8.457440376281738 0.8303660750389099
16.23996925354004 -8.489768028259277 0.8505414724349976
16.721710205078125 -8.872770309448242 0.7563526630401611
16.24094009399414 -8.745972633361816 0.8276748061180115
15.9411039352417 -8.711271286010742 0.8681007027626038
16.12650489807129 -8.941645622253418 0.8242145776748657
16.158010482788086 -9.08932876586914 0.8068113923072815
16.210630416870117 -9.250472068786621 0.785467267036438
16.200267791748047 -9.376952171325684 0.774974524974823
16.10285758972168 -9.453113555908203 0.7797428965568542
16.10535430908203 -9.588098526000977 0.7666783332824707
15.998475074768066 -9.658088684082031 0.7729815244674683
12.630997657775879 12.670392990112305 1.2619589567184448
12.651150703430176 12.536166191101074 1.2710644006729126
12.702720642089844 12.43406867980957 1.2741169929504395
12.747102737426758 12.325607299804688 1.278351068496704
12.755514144897461 12.183515548706055 1.2890418767929077
12.785737037658691 12.063556671142578 1.2955174446105957
12.856300354003906 11.982211112976074 1.2944691181182861
12.873845100402832 11.852108001708984 1.3029223680496216
12.9203462600708 11.74958610534668 1.3059592247009277
12.952804565429688 11.635013580322266 1.3113738298416138
13.00510311126709 11.538907051086426 1.3130817413330078
13.0455322265625 11.432795524597168 1.316771149635315
13.059672355651855 11.30456256866455 1.3249648809432983
13.095332145690918 11.195910453796387 1.329183578491211
13.146056175231934 11.100677490234375 1.3306132555007935
13.187732696533203 10.99825668334961 1.3334987163543701
13.220234870910645 10.888809204101562 1.337843656539917
13.259581565856934 10.78563117980957 1.3408572673797607
13.291207313537598 10.676793098449707 1.345066785812378
13.325881958007812 10.571051597595215 1.348609209060669
13.366002082824707 10.470174789428711 1.351083755493164
13.403036117553711 10.36738395690918 1.3539555072784424
13.439312934875488 10.264531135559082 1.3568247556686401
13.473254203796387 10.160428047180176 1.3599592447280884
13.508013725280762 10.057479858398438 1.3628246784210205
13.54521369934082 9.956831932067871 1.3651529550552368
13.578479766845703 9.853778839111328 1.3680140972137451
13.615022659301758 9.753575325012207 1.3702033758163452
13.650036811828613 9.652721405029297 1.3725244998931885
13.694080352783203 9.558611869812012 1.3732327222824097
13.728507041931152 9.458138465881348 1.3754137754440308
13.770411491394043 9.363173484802246 1.3762483596801758
13.811668395996094 9.268049240112305 1.3770787715911865
13.83906078338623 9.164013862609863 1.3800585269927979
13.870674133300781 9.063243865966797 1.3822295665740967
13.911565780639648 8.968873023986816 1.382780909538269
13.952658653259277 8.874872207641602 1.383192777633667
13.978856086730957 8.771747589111328 1.3858959674835205
14.015266418457031 8.675416946411133 1.3868416547775269
14.062015533447266 8.585680961608887 1.3860260248184204
14.10055160522461 8.491095542907715 1.3864223957061768
14.141014099121094 8.397876739501953 1.3864082098007202
14.179152488708496 8.303476333618164 1.3866605758666992
14.196076393127441 8.19703197479248 1.390164852142334
14.23719596862793 8.10490894317627 1.3897329568862915
14.282904624938965 8.015497207641602 1.3884806632995605
14.419072151184082 7.976190567016602 1.3729432821273804
14.765769004821777 8.050299644470215 1.3244394063949585
15.292786598205566 8.216590881347656 1.2479304075241089
19.22692108154297 0.7601177096366882 0.8110646605491638
19.236793518066406 0.6423782110214233 0.8076901435852051
19.256820678710938 0.5248417258262634 0.8027124404907227
12.866572380065918 -0.6766644716262817 1.718320369720459
12.860947608947754 -0.7555080056190491 1.716784119606018
12.853853225708008 -0.8342455625534058 1.7153949737548828
20.041217803955078 -5.886224269866943 0.4225585460662842
19.63324737548828 -5.897604942321777 0.4795345664024353
19.37993049621582 -5.9514875411987305 0.5117952823638916
19.127647399902344 -6.0027852058410645 0.5439646244049072
18.932893753051758 -6.069615840911865 0.5668923854827881
18.827280044555664 -6.163488864898682 0.5753658413887024
18.785911560058594 -6.277903079986572 0.5733204483985901
18.770036697387695 -6.400973796844482 0.5669994950294495
18.826160430908203 -6.549407482147217 0.5487419962882996
18.780574798583984 -6.663095951080322 0.5470017790794373
18.792848587036133 -6.797644138336182 0.5356119275093079
18.78470230102539 -6.925418853759766 0.5274332165718079
18.784942626953125 -7.056825637817383 0.5177151560783386
18.808269500732422 -7.1976776123046875 0.5039955973625183
18.791900634765625 -7.3240156173706055 0.4967209994792938
18.80499267578125 -7.462449073791504 0.4843658208847046
18.799684524536133 -7.594292163848877 0.47492536902427673
18.830928802490234 -7.741750717163086 0.45916080474853516
18.808197021484375 -7.867771148681641 0.4523264765739441
18.830991744995117 -8.013531684875488 0.4376179575920105
18.8182430267334 -8.144959449768066 0.42876654863357544
16.545635223388672 -7.282560348510742 0.8061114549636841
16.489463806152344 -7.379056930541992 0.8057540059089661
16.43453025817871 -7.475959300994873 0.8050950169563293
16.36467933654785 -7.565836429595947 0.8069227933883667
16.325641632080078 -7.669839859008789 0.8033344745635986
16.399173736572266 -7.827682018280029 0.7800381183624268
18.959484100341797 -9.19282054901123 0.32195723056793213
16.621105194091797 -8.185762405395508 0.7195296883583069
16.51188850402832 -8.258389472961426 0.7275660037994385
16.394485473632812 -8.325963020324707 0.7370247840881348
16.449844360351562 -8.481568336486816 0.7158148884773254
16.418134689331055 -8.593287467956543 0.7098619937896729
16.194625854492188 -8.603471755981445 0.7380814552307129
16.10291290283203 -8.682010650634766 0.7427740693092346
15.99698543548584 -8.752167701721191 0.7499833106994629
16.208616256713867 -8.997733116149902 0.6996622681617737
16.292160034179688 -9.175472259521484 0.6721253395080566
15.95302677154541 -9.114060401916504 0.7214574813842773
15.97249984741211 -9.255791664123535 0.7053571939468384
16.12281036376953 -9.475655555725098 0.6649316549301147
16.070783615112305 -9.578402519226074 0.6614999771118164
16.107702255249023 -9.735007286071777 0.6414233446121216
12.611279487609863 12.668366432189941 1.1562339067459106
12.646251678466797 12.548924446105957 1.1629316806793213
12.685894012451172 12.435077667236328 1.1685285568237305
12.726040840148926 12.322593688964844 1.1738488674163818
12.758132934570312 12.203237533569336 1.180544137954712
12.790679931640625 12.085311889648438 1.1869643926620483
12.82516098022461 11.970148086547852 1.1928330659866333
12.863083839416504 11.859044075012207 1.1978732347488403
12.905986785888672 11.75325870513916 1.2018077373504639
12.93776798248291 11.638118743896484 1.20767343044281
12.975289344787598 11.528952598571777 1.2122948169708252
13.014195442199707 11.421722412109375 1.2164995670318604
13.04179859161377 11.305365562438965 1.2226402759552002
13.08276081085205 11.201336860656738 1.2261499166488647
13.128988265991211 11.102346420288086 1.2285479307174683
13.166135787963867 10.996225357055664 1.232467770576477
13.199419975280762 10.887544631958008 1.2369407415390015
13.235709190368652 10.781996726989746 1.2407182455062866
13.27428913116455 10.67889404296875 1.2439380884170532
13.298145294189453 10.564635276794434 1.2496589422225952
13.340581893920898 10.465765953063965 1.2519012689590454
13.37761116027832 10.36313247680664 1.2549759149551392
13.412310600280762 10.259234428405762 1.258326768875122
13.45177173614502 10.159477233886719 1.260699987411499
13.486547470092773 10.056661605834961 1.2637676000595093
13.52296257019043 9.955561637878418 1.2664144039154053
13.557844161987305 9.853809356689453 1.2691987752914429
13.594402313232422 9.75373363494873 1.2715610265731812
13.63105297088623 9.654151916503906 1.2737805843353271
13.67024040222168 9.556756019592285 1.275437593460083
13.709561347961426 9.459802627563477 1.2769508361816406
13.744118690490723 9.359939575195312 1.2791619300842285
13.778787612915039 9.260558128356934 1.281230092048645
13.81523323059082 9.16274356842041 1.2828747034072876
13.8543119430542 9.066998481750488 1.2839534282684326
13.882756233215332 8.96467399597168 1.2867169380187988
13.92215633392334 8.86978530883789 1.287508249282837
13.961755752563477 8.775277137756348 1.2881546020507812
14.002402305603027 8.681656837463379 1.2885150909423828
14.03989315032959 8.586318969726562 1.2892943620681763
14.080132484436035 8.492891311645508 1.289504885673523
14.119755744934082 8.399290084838867 1.2897109985351562
14.160467147827148 8.306524276733398 1.2896299362182617
14.201430320739746 8.214069366455078 1.2894024848937988
14.240931510925293 8.120930671691895 1.2893117666244507
14.285866737365723 8.031011581420898 1.288224458694458
14.39257526397705 7.975387096405029 1.276917576789856
14.750205993652344 8.055868148803711 1.2245594263076782
15.266237258911133 8.216691970825195 1.1465420722961426
19.231061935424805 0.7744503617286682 0.6939801573753357
19.240999221801758 0.6566895842552185 0.6905696392059326
19.287763595581055 0.5398840308189392 0.6814063787460327
12.858880996704102 -0.7450736165046692 1.639290690422058
12.876495361328125 -0.8253804445266724 1.6340826749801636
19.49822425842285 -5.841619491577148 0.37854501605033875
19.227458953857422 -5.889370918273926 0.41516780853271484
19.035076141357422 -5.958510875701904 0.43872305750846863
18.874549865722656 -6.035743236541748 0.4569390118122101
18.799219131469727 -6.139127731323242 0.46077021956443787
18.775781631469727 -6.259305953979492 0.4557330906391144
16.527915954589844 -5.622875213623047 0.8283230662345886
18.846923828125 -6.541257858276367 0.4251663386821747
16.68870735168457 -5.907214641571045 0.7843419909477234
16.523637771606445 -5.963204860687256 0.8040761947631836
18.779560089111328 -6.908025741577148 0.4077812731266022
18.790952682495117 -7.043517112731934 0.39587679505348206
18.81798553466797 -7.185749053955078 0.3810918927192688
18.838455200195312 -7.3264312744140625 0.36725059151649475
18.85331153869629 -7.465819835662842 0.3541949391365051
18.83969497680664 -7.594594955444336 0.34592410922050476
18.85899543762207 -7.737349987030029 0.33173051476478577
18.861759185791016 -7.874163627624512 0.3202461898326874
18.869909286499023 -8.014005661010742 0.30763229727745056
18.86164665222168 -8.147590637207031 0.29773399233818054
18.865100860595703 -8.286934852600098 0.28558382391929626
16.33963966369629 -7.297553539276123 0.7238363027572632
16.29149627685547 -7.3964033126831055 0.7221307754516602
16.273221969604492 -7.508999824523926 0.7149637937545776
16.22022247314453 -7.605729579925537 0.7139100432395935
16.220996856689453 -7.727987766265869 0.7030389308929443
16.156028747558594 -7.819156169891357 0.7039260268211365
16.761001586914062 -8.239421844482422 0.5827237367630005
16.569360733032227 -8.271970748901367 0.6061388254165649
16.46510124206543 -8.346659660339355 0.6136059761047363
16.423728942871094 -8.452902793884277 0.6094543933868408
16.539979934692383 -8.641670227050781 0.576026201248169
16.387752532958984 -8.69070053100586 0.5920953750610352
16.119983673095703 -8.675990104675293 0.6297435760498047
16.310287475585938 -8.908080101013184 0.5818567276000977
16.19538688659668 -8.97493839263916 0.5908553600311279
16.33229637145996 -9.18242073059082 0.5523070693016052
16.594104766845703 -9.464268684387207 0.48966819047927856
16.034849166870117 -9.276312828063965 0.582705020904541
16.062347412109375 -9.42441177368164 0.5642727017402649
16.024187088012695 -9.5348539352417 0.5581974983215332
16.035110473632812 -9.675257682800293 0.5425114035606384
12.60973834991455 12.671248435974121 1.041662573814392
12.647568702697754 12.554635047912598 1.0481585264205933
12.687271118164062 12.440804481506348 1.0540788173675537
12.721081733703613 12.322138786315918 1.0610042810440063
12.75534725189209 12.204894065856934 1.0676418542861938
12.80375862121582 12.10196590423584 1.071254849433899
12.837647438049316 11.986072540283203 1.0776017904281616
12.874235153198242 11.873570442199707 1.0832276344299316
12.899687767028809 11.751742362976074 1.090871810913086
12.93884563446045 11.64328384399414 1.095630168914795
12.987515449523926 11.54399299621582 1.0983644723892212
13.024299621582031 11.434745788574219 1.1032626628875732
13.062479972839355 11.32742691040039 1.1077253818511963
13.089314460754395 11.211057662963867 1.114212155342102
13.113704681396484 11.093504905700684 1.1209899187088013
13.15613079071045 10.991936683654785 1.1241456270217896
13.193992614746094 10.887114524841309 1.1280235052108765
13.231063842773438 10.78223991394043 1.131899118423462
13.264263153076172 10.674838066101074 1.136353611946106
13.299744606018066 10.569896697998047 1.1402257680892944
13.336774826049805 10.466752052307129 1.1436599493026733
13.371479034423828 10.362337112426758 1.1473824977874756
13.406975746154785 10.259092330932617 1.1508128643035889
13.441712379455566 10.155800819396973 1.1542408466339111
13.477272987365723 10.053650856018066 1.157375454902649
13.51368236541748 9.952618598937988 1.160215973854065
13.549360275268555 9.851517677307129 1.16305410861969
13.582700729370117 9.749197006225586 1.1661823987960815
13.621756553649902 9.651413917541504 1.168138861656189
13.659313201904297 9.552947044372559 1.1702384948730469
13.693734169006348 9.452698707580566 1.1727747917175293
13.727438926696777 9.352384567260742 1.1753082275390625
13.767000198364258 9.256425857543945 1.1766669750213623
13.807547569274902 9.161428451538086 1.1777284145355225
13.843311309814453 9.063569068908691 1.1795200109481812
13.880889892578125 8.967226028442383 1.1808677911758423
13.913634300231934 8.868102073669434 1.1829472780227661
13.953225135803223 8.773651123046875 1.183700442314148
13.992181777954102 8.679046630859375 1.184449315071106
14.029659271240234 8.58377742767334 1.1853419542312622
14.070730209350586 8.490927696228027 1.1854933500289917
14.112038612365723 8.39840030670166 1.1854926347732544
14.15188980102539 8.30518627166748 1.1856348514556885
14.192841529846191 8.212785720825195 1.1854768991470337
14.231473922729492 8.119214057922363 1.1856099367141724
14.277251243591309 8.029839515686035 1.184407114982605
14.38560676574707 7.975213050842285 1.1723881959915161
14.757651329040527 8.063718795776367 1.115300178527832
15.241876602172852 8.207503318786621 1.039290428161621
19.23579216003418 0.7789650559425354 0.5695022940635681
15.739089965820312 0.5406244993209839 1.1252574920654297
19.263839721679688 0.5435460805892944 0.561185896396637
12.872934341430664 -0.7432517409324646 1.5542405843734741
12.87082290649414 -0.8223782777786255 1.5520769357681274
16.491138458251953 -3.216987371444702 0.8741859197616577
16.557798385620117 -3.335604667663574 0.8574047088623047
16.468074798583984 -3.422837734222412 0.8667500615119934
16.445446014404297 -3.523566961288452 0.8647379875183105
16.43183708190918 -3.6262757778167725 0.8611012697219849
16.54651641845703 -3.758232355117798 0.8356512188911438
19.923498153686523 -5.831118106842041 0.18277347087860107
19.583560943603516 -5.862400054931641 0.23283179104328156
19.27419662475586 -5.898974418640137 0.2777163088321686
19.063995361328125 -5.962897300720215 0.30541226267814636
18.82837677001953 -6.016361713409424 0.3376007080078125
18.79068946838379 -6.131723403930664 0.3350982964038849
16.21915054321289 -5.403060436248779 0.7787284255027771
16.419721603393555 -5.582109451293945 0.7351738214492798
16.29534149169922 -5.6516828536987305 0.7488341927528381
16.104713439941406 -5.696595191955566 0.7742501497268677
16.431852340698242 -5.926074028015137 0.7074726819992065
18.795072555541992 -6.9090094566345215 0.2763349413871765
18.824861526489258 -7.051476955413818 0.2607516646385193
18.833335876464844 -7.186837673187256 0.2487984597682953
18.826143264770508 -7.316853046417236 0.23948901891708374
18.845569610595703 -7.457939147949219 0.2251969277858734
18.845674514770508 -7.592169761657715 0.21421325206756592
18.849397659301758 -7.728555679321289 0.20239192247390747
18.85488510131836 -7.866413116455078 0.19006279110908508
18.867549896240234 -8.008097648620605 0.17622749507427216
18.859268188476562 -8.141637802124023 0.16604451835155487
18.872623443603516 -8.285287857055664 0.1516903042793274
16.38275909423828 -7.312613010406494 0.6007750034332275
18.905132293701172 -8.578069686889648 0.12127778679132462
16.242679595947266 -7.4907097816467285 0.6054126024246216
16.195140838623047 -7.589766025543213 0.6034037470817566
16.346391677856445 -7.783462047576904 0.5639359951019287
16.15061378479004 -7.812305450439453 0.5895272493362427
16.808977127075195 -8.646658897399902 0.4169118404388428
16.569076538085938 -8.652393341064453 0.45042866468429565
16.461275100708008 -8.725224494934082 0.4586220383644104
16.20823097229004 -8.719078063964844 0.4949246942996979
16.225847244262695 -8.85751724243164 0.4787737727165222
16.171661376953125 -8.9573392868042 0.4764206111431122
16.116003036499023 -9.056349754333496 0.47424256801605225
16.11539649963379 -9.186745643615723 0.4611082375049591
16.068567276000977 -9.291326522827148 0.4569101929664612
15.987051010131836 -9.375736236572266 0.45947232842445374
15.967793464660645 -9.496781349182129 0.4495407044887543
16.708934783935547 -10.077049255371094 0.2870590388774872
12.55420970916748 12.766345024108887 0.9273618459701538
12.601250648498535 12.658279418945312 0.9324040412902832
12.643930435180664 12.546634674072266 0.9381919503211975
12.677950859069824 12.427327156066895 0.9456250071525574
12.708146095275879 12.305322647094727 0.9536579847335815
12.750185012817383 12.195716857910156 0.9589918255805969
12.785612106323242 12.0806245803833 0.9655240774154663
12.830950736999512 11.975675582885742 0.9698031544685364
12.862401962280273 11.858561515808105 0.9767834544181824
12.888517379760742 11.737515449523926 0.9846658110618591
12.940093994140625 11.640398979187012 0.9871349334716797
12.974708557128906 11.528643608093262 0.9929096698760986
12.998039245605469 11.407770156860352 1.0007920265197754
13.0487642288208 11.311649322509766 1.0029500722885132
13.074771881103516 11.194761276245117 1.0099281072616577
13.111915588378906 11.088191032409668 1.0144931077957153
13.145971298217773 10.97968578338623 1.019509196281433
13.186054229736328 10.876839637756348 1.0231648683547974
13.228437423706055 10.776410102844238 1.0262129306793213
13.260844230651855 10.66843318939209 1.0310726165771484
13.292427062988281 10.560463905334473 1.0359315872192383
13.332520484924316 10.45982837677002 1.03897225856781
13.370315551757812 10.357887268066406 1.0423132181167603
13.40579605102539 10.25467300415039 1.0459550619125366
13.436569213867188 10.148432731628418 1.0503532886505127
13.47288703918457 10.046927452087402 1.0535361766815186
13.504486083984375 9.942426681518555 1.057476282119751
13.540908813476562 9.8419828414917 1.0603508949279785
13.57660961151123 9.74146556854248 1.063223123550415
13.615620613098145 9.6437349319458 1.0653313398361206
13.657994270324707 9.548722267150879 1.066674828529358
13.69727611541748 9.45186710357666 1.068471908569336
13.735067367553711 9.35433292388916 1.0704177618026733
13.760696411132812 9.248969078063965 1.0744969844818115
13.801199913024902 9.154021263122559 1.0756741762161255
13.834441184997559 9.05459213256836 1.0780699253082275
13.874454498291016 8.959925651550293 1.0790866613388062
13.914663314819336 8.865636825561523 1.079946756362915
13.94754409790039 8.766983985900879 1.0820276737213135
13.983938217163086 8.670862197875977 1.083339810371399
14.023052215576172 8.576685905456543 1.0840353965759277
14.064075469970703 8.48388385772705 1.0842660665512085
14.104488372802734 8.390901565551758 1.084492564201355
14.1451416015625 8.298239707946777 1.0845602750778198
14.187755584716797 8.206878662109375 1.0841619968414307
14.228065490722656 8.114325523376465 1.084066390991211
14.253131866455078 8.013351440429688 1.0865843296051025
14.420088768005371 7.9914093017578125 1.0636719465255737
14.722565650939941 8.041610717773438 1.0166640281677246
15.221050262451172 8.193306922912598 0.9350141882896423
19.240480422973633 0.7766944766044617 0.4480624496936798
19.227712631225586 0.658100962638855 0.44833624362945557
19.25760269165039 0.5409124493598938 0.4414169490337372
12.85202407836914 -0.7439549565315247 1.4768785238265991
12.854815483093262 -0.8232672214508057 1.473872184753418
16.185762405395508 -2.7491111755371094 0.8430522680282593
16.242229461669922 -2.9642417430877686 0.8228359222412109
16.240812301635742 -3.067091941833496 0.8176692724227905
16.26873779296875 -3.1758906841278076 0.8072860240936279
16.114269256591797 -3.2485413551330566 0.8285338282585144
16.236509323120117 -3.3770055770874023 0.8014786839485168
16.171751022338867 -3.4672257900238037 0.8069198727607727
16.255687713623047 -3.5897140502929688 0.7862277030944824
16.182052612304688 -3.6777701377868652 0.7930269837379456
16.05612564086914 -3.7529501914978027 0.8089644908905029
16.051605224609375 -3.855954885482788 0.803459644317627
19.00113868713379 -5.94594144821167 0.19114939868450165
18.858741760253906 -6.02876615524292 0.20773009955883026
18.778810501098633 -6.130555152893066 0.2129054218530655
16.18379783630371 -5.393749713897705 0.6776308417320251
16.24144172668457 -5.523987770080566 0.6587243676185608
16.313913345336914 -5.660626411437988 0.6368892788887024
16.445680618286133 -5.819722652435303 0.6039010286331177
16.45284080505371 -5.936185836791992 0.5936588644981384
16.019039154052734 -5.891127586364746 0.6650194525718689
15.959152221679688 -5.98061990737915 0.6671736836433411
18.802593231201172 -7.177937030792236 0.1276365965604782
18.81100845336914 -7.31381893157959 0.11516297608613968
16.30211639404297 -7.1595683097839355 0.5140140652656555
16.321346282958984 -7.28792142868042 0.49956467747688293
16.27951431274414 -7.389509677886963 0.49668794870376587
16.38819694519043 -7.560579299926758 0.4645730257034302
16.2207088470459 -7.6045122146606445 0.48575326800346375
16.150230407714844 -7.692838668823242 0.4880841076374054
16.599769592285156 -8.413402557373047 0.3519240617752075
16.560558319091797 -8.521805763244629 0.34708645939826965
16.268381118774414 -8.49829387664795 0.3925324082374573
16.466093063354492 -8.730742454528809 0.3402040898799896
16.38751792907715 -8.818497657775879 0.3428674638271332
16.176258087158203 -8.83342456817627 0.37221667170524597
16.186805725097656 -8.968729019165039 0.35678043961524963
16.388566970825195 -9.212562561035156 0.302230566740036
16.134580612182617 -9.200727462768555 0.3401990234851837
16.142189025878906 -9.336966514587402 0.32473957538604736
16.145328521728516 -9.471653938293457 0.3099685609340668
16.133031845092773 -9.598176002502441 0.29816365242004395
12.558942794799805 12.766352653503418 0.8308910131454468
12.600414276123047 12.652687072753906 0.8373991250991821
12.63184928894043 12.529948234558105 0.8459187746047974
12.670016288757324 12.41490364074707 0.8527342677116394
12.716479301452637 12.308794975280762 0.8575329184532166
12.748553276062012 12.189610481262207 0.865276038646698
12.783239364624023 12.07388687133789 0.872243344783783
12.827820777893066 11.968303680419922 0.8768801093101501
12.868685722351074 11.859950065612793 0.8821357488632202
12.902132987976074 11.74555778503418 0.8887880444526672
12.936867713928223 11.633182525634766 0.8949738144874573
12.96997356414795 11.52016544342041 0.9013140201568604
13.006637573242188 11.411089897155762 0.9067191481590271
13.051411628723145 11.309758186340332 0.9102523922920227
13.076674461364746 11.192246437072754 0.917681097984314
13.122864723205566 11.093344688415527 0.9205855131149292
13.168334007263184 10.994296073913574 0.9234859943389893
13.196320533752441 10.881279945373535 0.9298195242881775
13.224185943603516 10.76895523071289 0.9359971284866333
13.258098602294922 10.662270545959473 0.940767228603363
13.2912015914917 10.555572509765625 0.9455357789993286
13.33981704711914 10.461669921875 0.9470145106315613
13.36904239654541 10.35305118560791 0.9522492289543152
13.409991264343262 10.25406551361084 0.9549744725227356
