# .PCD v0.7 - Point Cloud Data file format
VERSION 0.7
FIELDS x y z
SIZE 4 4 4
TYPE F F F
COUNT 1 1 1
WIDTH 846
HEIGHT 1
VIEWPOINT 0 0 0 1 0 0 0
POINTS 846
DATA ascii
33.16691207885742 13.588749885559082 0.170366108417511
33.19749450683594 13.364245414733887 0.171535924077034
33.06922149658203 13.077651023864746 0.18909890949726105
33.1057014465332 12.85799503326416 0.18932487070560455
33.473670959472656 12.765344619750977 0.15494439005851746
33.612422943115234 12.582818031311035 0.144287109375
33.64368438720703 12.359940528869629 0.14464886486530304
33.642581939697266 12.126014709472656 0.1482122242450714
33.65864181518555 11.899200439453125 0.14984053373336792
33.67977523803711 11.674925804138184 0.15079230070114136
33.67586898803711 11.442832946777344 0.15418018400669098
33.690216064453125 11.217825889587402 0.15552878379821777
33.70496368408203 10.993690490722656 0.15668554604053497
33.71443557739258 10.76858139038086 0.15823622047901154
33.72812271118164 10.545550346374512 0.1592043936252594
33.73177719116211 10.320133209228516 0.16105708479881287
33.72631072998047 10.092784881591797 0.1637009233236313
33.731746673583984 9.869522094726562 0.16507475078105927
33.75006866455078 9.650673866271973 0.16497819125652313
33.765052795410156 9.431434631347656 0.165079727768898
33.774784088134766 9.211325645446777 0.1655777245759964
33.785011291503906 8.991961479187012 0.16588109731674194
33.79960250854492 8.77431583404541 0.16559457778930664
33.80314636230469 8.554387092590332 0.16629865765571594
33.813961029052734 8.336885452270508 0.1661161184310913
33.81854248046875 8.118409156799316 0.16643044352531433
33.817840576171875 7.899282932281494 0.1671466827392578
33.83319854736328 7.6844353675842285 0.1660771667957306
33.83552932739258 7.467121601104736 0.1662033051252365
33.85593032836914 7.254234313964844 0.16433897614479065
33.8662223815918 7.039553642272949 0.16337132453918457
33.873207092285156 6.824623107910156 0.1626051366329193
33.88371276855469 6.610822677612305 0.16134069859981537
33.90167236328125 6.398808002471924 0.1591751128435135
33.90753936767578 6.184855937957764 0.1581122726202011
33.91695785522461 5.971932888031006 0.15654867887496948
33.92307662963867 5.758790493011475 0.15518735349178314
33.93571472167969 5.547079563140869 0.1530212014913559
33.94703674316406 5.335427761077881 0.15085431933403015
33.959983825683594 5.1242876052856445 0.14838498830795288
33.94306945800781 4.909058094024658 0.14884649217128754
33.95830154418945 4.698862552642822 0.1458720713853836
33.968284606933594 4.48814058303833 0.1433017998933792
33.98090744018555 4.27796745300293 0.14032499492168427
33.97148895263672 4.065323829650879 0.1394815295934677
32.45332336425781 3.6819498538970947 0.2937999963760376
32.40859603881836 3.475717067718506 0.2964192032814026
32.356624603271484 3.269569158554077 0.29966408014297485
32.35980224609375 3.0695409774780273 0.29710134863853455
32.343902587890625 2.868013381958008 0.29637977480888367
32.34657669067383 2.668428659439087 0.2936151325702667
32.34504318237305 2.4686899185180664 0.2911580204963684
32.382965087890625 2.271921157836914 0.2844933569431305
32.40678024291992 2.0739519596099854 0.27915534377098083
15.763323783874512 0.911973774433136 2.0008010864257812
15.780332565307617 0.8158860802650452 1.9975152015686035
15.792781829833984 0.7194417715072632 1.9946374893188477
15.805635452270508 0.6229132413864136 1.9916527271270752
15.800002098083496 0.5256580710411072 1.9905261993408203
15.815645217895508 0.4290870130062103 1.9871225357055664
15.822742462158203 0.33217576146125793 1.984544038772583
15.824271202087402 0.235118567943573 1.9824823141098022
32.50872039794922 0.28319957852363586 0.23688752949237823
32.68345642089844 0.08424461632966995 0.2144366353750229
32.59440231323242 -0.1159091666340828 0.2194463014602661
32.522029876708984 -0.3151436746120453 0.22260048985481262
32.41065216064453 -0.5128989219665527 0.22974061965942383
32.43330001831055 -0.7122737765312195 0.22268430888652802
32.43583297729492 -0.9114174246788025 0.21760976314544678
32.4093132019043 -1.1096683740615845 0.2154674530029297
12.898805618286133 -0.5206539630889893 2.2715744972229004
32.530460357666016 -1.513573408126831 0.1923840492963791
13.07481861114502 -0.6885235905647278 2.248732089996338
12.847805976867676 -0.7556220293045044 2.270622730255127
12.863595008850098 -0.8357659578323364 2.2667253017425537
12.868963241577148 -0.9154271483421326 2.26387882232666
12.861940383911133 -0.9942666292190552 2.262298822402954
13.230988502502441 -1.1045001745224 2.22048282623291
11.994711875915527 -1.0754005908966064 2.3503124713897705
12.817819595336914 -1.8669673204421997 2.2378857135772705
12.813811302185059 -1.946746587753296 2.2353408336639404
29.249515533447266 -5.181607246398926 0.41244417428970337
19.616464614868164 -6.961910247802734 1.3038212060928345
19.486183166503906 -7.050649166107178 1.3115679025650024
19.40217399597168 -7.155249118804932 1.3137668371200562
19.33064079284668 -7.263979911804199 1.3144184350967407
19.277992248535156 -7.379565715789795 1.3127353191375732
19.250581741333008 -7.504887580871582 1.307926058769226
19.248212814331055 -7.640418529510498 1.299980878829956
19.247671127319336 -7.777320384979248 1.291692852973938
19.16437530517578 -7.880867958068848 1.2933882474899292
33.57353210449219 -17.575023651123047 -0.7167367935180664
20.68002700805664 -13.203484535217285 0.7765317559242249
20.34394073486328 -13.16547679901123 0.8090538382530212
20.014930725097656 -13.127662658691406 0.8408430218696594
19.836885452270508 -13.185842514038086 0.8517076373100281
19.604516983032227 -13.205711364746094 0.8702733516693115
19.46782112121582 -13.288187026977539 0.875403881072998
19.390485763549805 -13.410727500915527 0.8720646500587463
19.341659545898438 -13.553342819213867 0.8645405173301697
19.33230209350586 -13.72461223602295 0.8511878252029419
19.315919876098633 -13.892216682434082 0.8386417627334595
19.304624557495117 -14.06481647491455 0.8251528739929199
19.304718017578125 -14.247234344482422 0.8097831010818481
19.30170249938965 -14.428996086120605 0.7946343421936035
19.287673950195312 -14.604061126708984 0.7808783650398254
19.29349708557129 -14.795814514160156 0.7639473676681519
19.28513526916504 -14.97844123840332 0.7488783001899719
19.286182403564453 -15.17011833190918 0.732153594493866
19.283262252807617 -15.360513687133789 0.7157671451568604
19.30500602722168 -15.572643280029297 0.6953660845756531
19.303327560424805 -15.768024444580078 0.678242564201355
19.306856155395508 -15.969667434692383 0.6600441932678223
19.314722061157227 -16.177047729492188 0.6408857703208923
19.329090118408203 -16.392189025878906 0.6204115748405457
19.404064178466797 -16.661806106567383 0.5901080965995789
20.794200897216797 -18.532203674316406 0.3102134168148041
20.566904067993164 -18.5576171875 0.32550522685050964
20.30123519897461 -18.545448303222656 0.34713315963745117
20.02848243713379 -18.523311614990234 0.37012356519699097
19.84012794494629 -18.57657814025879 0.37949761748313904
19.649715423583984 -18.62618637084961 0.38926321268081665
19.44583511352539 -18.661102294921875 0.4013262391090393
23.731857299804688 23.23866844177246 0.4273792505264282
23.623870849609375 22.851154327392578 0.45803070068359375
23.71929931640625 22.66388511657715 0.46099549531936646
23.788711547851562 22.453073501586914 0.46722841262817383
15.504043579101562 14.454926490783691 1.5801061391830444
12.903007507324219 11.882946968078613 1.9328086376190186
12.954092025756836 11.784161567687988 1.9340181350708008
14.347417831420898 12.891947746276855 1.759758710861206
14.394729614257812 12.775956153869629 1.7620515823364258
14.480826377868652 12.694644927978516 1.7592048645019531
14.521320343017578 12.573665618896484 1.7621651887893677
13.127533912658691 11.226821899414062 1.949123501777649
13.170092582702637 11.12425708770752 1.950800895690918
13.22105884552002 11.029244422912598 1.951307773590088
13.266746520996094 10.93022632598877 1.9523934125900269
13.296278953552246 10.818499565124512 1.9554247856140137
13.331925392150879 10.712430953979492 1.9575775861740112
13.365212440490723 10.605096817016602 1.959924340248108
13.394553184509277 10.495298385620117 1.962660789489746
13.441943168640137 10.400158882141113 1.9630482196807861
13.487878799438477 10.304224014282227 1.9635287523269653
13.506926536560059 10.188342094421387 1.9672409296035767
13.549803733825684 10.091039657592773 1.9679120779037476
13.584782600402832 9.988287925720215 1.96946382522583
13.615790367126465 9.883147239685059 1.9714066982269287
13.654109954833984 9.783799171447754 1.9723637104034424
13.688474655151367 9.682053565979004 1.9737123250961304
13.731081008911133 9.586519241333008 1.9739735126495361
13.771393775939941 9.489696502685547 1.9744277000427246
13.806921005249023 9.389942169189453 1.9753726720809937
13.838438987731934 9.28788948059082 1.9767109155654907
13.875033378601074 9.189648628234863 1.9773539304733276
13.910943984985352 9.091307640075684 1.9779937267303467
13.948681831359863 8.994488716125488 1.9783331155776978
13.97903823852539 8.893275260925293 1.979464054107666
14.018792152404785 8.798375129699707 1.9793992042541504
14.064677238464355 8.707510948181152 1.9785337448120117
14.08449935913086 8.600855827331543 1.9806535243988037
14.131670951843262 8.511226654052734 1.9794803857803345
14.17485237121582 8.419307708740234 1.9787006378173828
14.215720176696777 8.326172828674316 1.9781156778335571
14.254255294799805 8.231856346130371 1.9777264595031738
14.293035507202148 8.137873649597168 1.977232575416565
14.339874267578125 8.048592567443848 1.9757307767868042
14.730033874511719 8.149298667907715 1.9345403909683228
15.86262035369873 8.523714065551758 1.8120098114013672
27.470439910888672 14.545165061950684 0.4852927327156067
27.521696090698242 14.357073783874512 0.48605775833129883
27.48761749267578 14.125699043273926 0.4964158236980438
27.514768600463867 13.927181243896484 0.49961134791374207
27.474632263183594 13.69601821899414 0.5103010535240173
27.668468475341797 13.581603050231934 0.4942532181739807
27.78937530517578 13.430255889892578 0.486383855342865
28.081945419311523 13.359993934631348 0.45898953080177307
28.421531677246094 13.308579444885254 0.4262416660785675
32.247920989990234 3.4607133865356445 0.1012728288769722
15.766366958618164 0.9128230214118958 1.897438406944275
15.776412010192871 0.8163584470748901 1.894841194152832
19.294729232788086 0.7613489031791687 1.5030230283737183
19.263002395629883 0.6417964696884155 1.504465937614441
12.904064178466797 -0.5997598767280579 2.184642791748047
13.024004936218262 -0.6854206323623657 2.1689980030059814
12.883462905883789 -0.7573073506355286 2.182607889175415
12.886323928833008 -0.8368296027183533 2.180026054382324
12.869860649108887 -0.9150781631469727 2.1795709133148193
12.711729049682617 -1.0607398748397827 2.1927073001861572
12.811687469482422 -1.1482644081115723 2.1788980960845947
12.827957153320312 -1.2290977239608765 2.174516439437866
12.790797233581543 -1.3841190338134766 2.173520088195801
12.784841537475586 -1.462884783744812 2.171501874923706
12.776426315307617 -1.5413929224014282 2.1697096824645996
12.745816230773926 -1.856069564819336 2.1616363525390625
29.24446678161621 -5.1786909103393555 0.21896524727344513
19.941020965576172 -6.529315948486328 1.1585973501205444
19.517868041992188 -6.5236945152282715 1.2035709619522095
19.221511840820312 -6.556089401245117 1.2329157590866089
19.14685821533203 -6.662112712860107 1.23458993434906
19.126846313476562 -6.7870612144470215 1.2293343544006348
19.119094848632812 -6.916745662689209 1.2224286794662476
19.09090232849121 -7.0393781661987305 1.2179946899414062
19.100034713745117 -7.176245212554932 1.2087211608886719
19.087799072265625 -7.3056817054748535 1.2020385265350342
19.115400314331055 -7.451106071472168 1.1901469230651855
20.37252426147461 -8.23065185546875 1.0111427307128906
19.11461067199707 -7.859318733215332 1.1643537282943726
19.126176834106445 -8.001699447631836 1.153960108757019
19.11935043334961 -8.13713264465332 1.1458147764205933
28.36282730102539 -16.20336151123047 -0.35348179936408997
28.426420211791992 -16.47206687927246 -0.38047370314598083
28.41674041748047 -16.700420379638672 -0.39742138981819153
28.391679763793945 -16.921146392822266 -0.4124370217323303
28.262184143066406 -17.080074310302734 -0.4127422869205475
27.96847152709961 -17.137968063354492 -0.38952842354774475
27.784727096557617 -17.260997772216797 -0.38209524750709534
27.6744384765625 -17.428972244262695 -0.3853638172149658
20.499868392944336 -13.087172508239746 0.6423056125640869
20.21549415588379 -13.081097602844238 0.669352114200592
19.939451217651367 -13.076931953430176 0.6953626275062561
19.7377986907959 -13.118773460388184 0.7105379104614258
19.533924102783203 -13.156974792480469 0.7261236906051636
19.400007247924805 -13.240729331970215 0.7313253283500671
19.313962936401367 -13.35664176940918 0.7293073534965515
19.254859924316406 -13.491362571716309 0.7231219410896301
19.255521774291992 -13.6689453125 0.7077153921127319
19.220077514648438 -13.822131156921387 0.6975894570350647
19.252456665039062 -14.02564811706543 0.6768636107444763
19.234344482421875 -14.194137573242188 0.6636387705802917
19.228395462036133 -14.373034477233887 0.6483073830604553
19.22808837890625 -14.557781219482422 0.6318522691726685
19.229381561279297 -14.745481491088867 0.6148888468742371
19.24633026123047 -14.947134017944336 0.5951891541481018
19.242799758911133 -15.134827613830566 0.578443706035614
19.229145050048828 -15.316238403320312 0.5630487203598022
19.2425594329834 -15.521100044250488 0.5430517792701721
19.242645263671875 -15.717286109924316 0.524900496006012
19.2479248046875 -15.919748306274414 0.5056155323982239
19.218725204467773 -16.095474243164062 0.49166303873062134
19.24030113220215 -16.315715789794922 0.4691133499145508
19.271183013916016 -16.546524047851562 0.4446733891963959
20.823638916015625 -18.55708122253418 0.12289351969957352
20.56236457824707 -18.55218505859375 0.1449124813079834
20.29754638671875 -18.5407772064209 0.16773590445518494
20.078815460205078 -18.568588256835938 0.18285205960273743
19.857620239257812 -18.591707229614258 0.19851194322109222
19.636905670166016 -18.61281967163086 0.21421560645103455
19.438161849975586 -18.652538299560547 0.22619664669036865
23.70015525817871 23.200349807739258 0.2333965301513672
23.64065170288086 22.860233306884766 0.2591705918312073
23.7584285736084 22.69419288635254 0.25932592153549194
23.795473098754883 22.452470779418945 0.27071744203567505
12.856610298156738 11.9823579788208 1.8258646726608276
12.930375099182129 11.903951644897461 1.82417631149292
12.91829776763916 11.747454643249512 1.8343725204467773
12.938091278076172 11.621469497680664 1.8399609327316284
14.336258888244629 12.719697952270508 1.6550976037979126
14.449670791625977 12.662999153137207 1.6483888626098633
13.110723495483398 11.348252296447754 1.840381383895874
13.118626594543457 11.2152681350708 1.8471006155014038
13.170232772827148 11.120477676391602 1.8477429151535034
13.219642639160156 11.024200439453125 1.848585844039917
13.251477241516113 10.913822174072266 1.8516963720321655
13.290946006774902 10.810372352600098 1.8536689281463623
13.32111644744873 10.699995040893555 1.856777310371399
13.356668472290039 10.59460163116455 1.8590565919876099
13.396910667419434 10.4934663772583 1.8606085777282715
13.431696891784668 10.388583183288574 1.862780213356018
13.471233367919922 10.287894248962402 1.864222764968872
13.490191459655762 10.172139167785645 1.8682619333267212
13.532170295715332 10.074357986450195 1.8691807985305786
13.574258804321289 9.977033615112305 1.8699920177459717
13.612444877624512 9.87723159790039 1.8712164163589478
13.643450736999512 9.772704124450684 1.8732727766036987
13.685054779052734 9.676206588745117 1.8738654851913452
13.722728729248047 9.577287673950195 1.8748725652694702
13.756428718566895 9.476014137268066 1.8762950897216797
13.795161247253418 9.378600120544434 1.8769822120666504
13.829915046691895 9.278850555419922 1.8780854940414429
13.864792823791504 9.179574966430664 1.879081130027771
13.905635833740234 9.084572792053223 1.879233956336975
13.949177742004395 8.991568565368652 1.8789615631103516
13.971125602722168 8.885027885437012 1.8813165426254272
14.033567428588867 8.804454803466797 1.8785072565078735
14.025365829467773 8.680008888244629 1.884445309638977
14.09425163269043 8.603667259216309 1.8806747198104858
14.118430137634277 8.500129699707031 1.8823902606964111
14.162389755249023 8.408805847167969 1.8815653324127197
14.205760955810547 8.3172607421875 1.8807350397109985
14.24595832824707 8.224006652832031 1.8802175521850586
14.28209114074707 8.1286039352417 1.8801199197769165
14.332329750061035 8.041339874267578 1.8782120943069458
14.466434478759766 8.000445365905762 1.8659796714782715
14.962873458862305 8.15571403503418 1.8095309734344482
27.459888458251953 14.750933647155762 0.29293912649154663
27.475614547729492 14.543155670166016 0.29843175411224365
27.492473602294922 14.337118148803711 0.3036092519760132
27.485734939575195 14.120061874389648 0.3114650845527649
27.57052230834961 13.950763702392578 0.3080935478210449
27.52434730529785 13.716204643249512 0.3203528821468353
27.620037078857422 13.553258895874023 0.3153647482395172
27.734458923339844 13.399168014526367 0.30799946188926697
27.94050407409668 13.288165092468262 0.28954261541366577
28.241662979125977 13.219815254211426 0.25963732600212097
28.706459045410156 13.223557472229004 0.21016818284988403
44.85693359375 8.18016242980957 -1.5358283519744873
19.287811279296875 0.7585045695304871 1.387799620628357
19.244159698486328 0.6386035680770874 1.390844464302063
12.898964881896973 -0.6808291077613831 2.105423927307129
12.867584228515625 -0.7583575248718262 2.1069133281707764
12.866460800170898 -0.8375245928764343 2.104757308959961
12.788219451904297 -1.3065040111541748 2.099156618118286
12.726462364196777 -1.3791447877883911 2.103889226913452
12.68896198272705 -1.4539015293121338 2.1056649684906006
12.655951499938965 -1.5288465023040771 2.10685396194458
12.637276649475098 -1.6053178310394287 2.1062629222869873
12.631916999816895 -1.6834536790847778 2.104005813598633
12.63099193572998 -1.7622709274291992 2.10115122795105
12.61188793182373 -1.8385649919509888 2.1004459857940674
12.566805839538574 -1.9108144044876099 2.102854013442993
20.12743377685547 -6.4567766189575195 1.0157731771469116
20.115402221679688 -6.589371204376221 1.0094057321548462
19.039386749267578 -6.627613067626953 1.1265718936920166
19.0120792388916 -6.749243259429932 1.1221836805343628
20.160640716552734 -7.296567916870117 0.9618141055107117
19.059091567993164 -7.297668933868408 1.0826798677444458
19.018260955810547 -7.416230201721191 1.0795164108276367
20.394407272338867 -8.535470962524414 0.8561847805976868
18.91350746154785 -8.190135955810547 1.0392582416534424
19.03691864013672 -8.382742881774902 1.0127182006835938
19.064489364624023 -8.535017013549805 0.9991554617881775
28.286815643310547 -13.720508575439453 -0.3514280617237091
28.308387756347656 -13.94635009765625 -0.3703309893608093
28.272356033325195 -14.145010948181152 -0.3813132047653198
28.202220916748047 -14.327132225036621 -0.3876321315765381
28.1926326751709 -14.540757179260254 -0.40278369188308716
28.09886360168457 -14.711557388305664 -0.4060671329498291
27.692211151123047 -14.716052055358887 -0.36430859565734863
27.553752899169922 -14.860194206237793 -0.36119669675827026
27.408477783203125 -14.999862670898438 -0.3571748435497284
27.27293586730957 -15.14409065246582 -0.35464975237846375
20.550418853759766 -13.123490333557129 0.48767969012260437
20.210186004638672 -13.081695556640625 0.5247399806976318
19.935108184814453 -13.078115463256836 0.5520070791244507
19.713708877563477 -13.106800079345703 0.5711233019828796
19.51985740661621 -13.15155029296875 0.5860484838485718
19.337678909301758 -13.202248573303223 0.5992138385772705
19.257564544677734 -13.321730613708496 0.5963329672813416
19.225439071655273 -13.474875450134277 0.5857346653938293
19.221263885498047 -13.648797988891602 0.5704928040504456
19.189105987548828 -13.804065704345703 0.5594961643218994
19.20865821838379 -13.997997283935547 0.5399745106697083
19.207393646240234 -14.178553581237793 0.523535430431366
19.2324275970459 -14.380403518676758 0.5025575160980225
19.211429595947266 -14.549568176269531 0.4888070523738861
19.226051330566406 -14.747382164001465 0.46896085143089294
19.21468734741211 -14.92706298828125 0.4531163275241852
19.202613830566406 -15.107775688171387 0.43713074922561646
19.235570907592773 -15.325968742370605 0.41334298253059387
19.245725631713867 -15.528325080871582 0.3930411636829376
19.22724151611328 -15.70942497253418 0.37727460265159607
19.198081970214844 -15.883298873901367 0.36306050419807434
19.30963706970215 -16.17646598815918 0.3244767487049103
19.236831665039062 -16.317676544189453 0.3171404302120209
19.26380729675293 -16.5451602935791 0.2923232913017273
19.278230667114258 -16.76447868347168 0.26931124925613403
12.820113182067871 12.091578483581543 1.7199102640151978
12.879984855651855 11.999845504760742 1.7203837633132935
13.809622764587402 12.709026336669922 1.592111587524414
12.919831275939941 11.744650840759277 1.7327871322631836
14.068269729614258 12.63233757019043 1.573411464691162
14.322969436645508 12.703484535217285 1.5457514524459839
14.447464942932129 12.656670570373535 1.5371406078338623
13.107669830322266 11.341572761535645 1.740140438079834
13.111017227172852 11.204771995544434 1.747976541519165
13.161794662475586 11.109396934509277 1.7488545179367065
13.207316398620605 11.010003089904785 1.750380516052246
13.24290657043457 10.90288257598877 1.7532107830047607
13.281538009643555 10.798876762390137 1.7554941177368164
13.303117752075195 10.681733131408691 1.7600685358047485
13.339339256286621 10.57708740234375 1.7624585628509521
13.377909660339355 10.474847793579102 1.764409065246582
13.413371086120605 10.370709419250488 1.7666854858398438
13.450428009033203 10.268338203430176 1.768631100654602
13.488324165344238 10.167098999023438 1.7703547477722168
13.516716003417969 10.05925178527832 1.7732839584350586
13.568321228027344 9.969096183776855 1.7729157209396362
13.595193862915039 9.861173629760742 1.775841236114502
13.637417793273926 9.764872550964355 1.7765648365020752
13.674914360046387 9.66555404663086 1.7778351306915283
13.713336944580078 9.567279815673828 1.7788821458816528
13.751887321472168 9.469460487365723 1.779815435409546
13.78317928314209 9.367056846618652 1.7816293239593506
13.816211700439453 9.266286849975586 1.7831101417541504
13.865928649902344 9.176982879638672 1.7822635173797607
13.886780738830566 9.068937301635742 1.785178780555725
13.921869277954102 8.970670700073242 1.7860978841781616
13.969691276550293 8.880847930908203 1.7852380275726318
14.0026273727417 8.7817964553833 1.7862613201141357
14.035717010498047 8.683196067810059 1.787170648574829
14.062188148498535 8.580896377563477 1.788857340812683
14.108366966247559 8.490898132324219 1.7878680229187012
14.154827117919922 8.401161193847656 1.7867614030838013
14.197285652160645 8.309165954589844 1.786095380783081
14.240009307861328 8.217459678649902 1.7853121757507324
14.265732765197754 8.116204261779785 1.7866493463516235
14.30721664428711 8.024177551269531 1.785857915878296
14.448983192443848 7.98772668838501 1.772058129310608
15.005279541015625 8.17570972442627 1.7049310207366943
15.876908302307129 8.525007247924805 1.5975724458694458
27.468050003051758 14.534297943115234 0.11841198801994324
27.496328353881836 14.334312438964844 0.12259148061275482
27.52407455444336 14.134979248046875 0.12666055560112
27.53090476989746 13.925975799560547 0.13321293890476227
27.544218063354492 13.721406936645508 0.1387568563222885
27.596200942993164 13.536890983581543 0.1392221748828888
27.70869255065918 13.382068634033203 0.13187964260578156
27.99618911743164 13.3100004196167 0.10232807695865631
19.268674850463867 0.7551137208938599 1.277404546737671
19.2379207611084 0.6357642412185669 1.2791472673416138
19.3145809173584 0.5197405219078064 1.2676447629928589
12.88783073425293 -0.6822716593742371 2.0313358306884766
12.862396240234375 -0.7600800395011902 2.032240867614746
12.876102447509766 -0.8401814699172974 2.028209686279297
12.689595222473145 -1.4560035467147827 2.0309205055236816
12.610283851623535 -1.525359034538269 2.038107395172119
20.112600326538086 -6.319131851196289 0.9020318984985352
20.155256271362305 -6.468728065490723 0.8881656527519226
20.151596069335938 -6.604267120361328 0.8804641366004944
20.156431198120117 -6.743151664733887 0.8714680075645447
18.982507705688477 -6.480390548706055 1.0244090557098389
18.949554443359375 -6.599303245544434 1.0208500623703003
18.95323371887207 -6.73132848739624 1.012121558189392
18.963459014892578 -6.866347789764404 1.0023503303527832
19.118432998657227 -7.189159393310547 0.9635897278785706
19.0069580078125 -7.280753135681152 0.9703851342201233
18.960668563842773 -7.396831512451172 0.967979907989502
18.914690017700195 -7.647802829742432 0.9562869668006897
18.875490188598633 -8.314850807189941 0.9140271544456482
18.840063095092773 -8.43775463104248 0.9091451168060303
18.988815307617188 -8.644729614257812 0.8774077296257019
19.172609329223633 -8.870908737182617 0.8402458429336548
19.406362533569336 -9.124125480651855 0.7954142093658447
20.669574737548828 -13.02564811706543 0.3411416709423065
20.38589859008789 -13.02254867553711 0.3708369731903076
20.10887908935547 -13.02023696899414 0.3996594548225403
19.8376407623291 -13.018284797668457 0.4277415871620178
19.64971923828125 -13.068375587463379 0.44247984886169434
19.448787689208984 -13.107793807983398 0.45940402150154114
19.303770065307617 -13.183243751525879 0.467239648103714
19.2262020111084 -13.304207801818848 0.46394893527030945
19.173839569091797 -13.44291877746582 0.4563627541065216
19.419416427612305 -13.793779373168945 0.3989763855934143
19.324363708496094 -13.90567684173584 0.3979541063308716
19.202245712280273 -13.99767017364502 0.4013940691947937
19.22002410888672 -14.192273139953613 0.38110658526420593
19.215497970581055 -14.372190475463867 0.36431166529655457
19.207111358642578 -14.55079174041748 0.3479105532169342
19.227909088134766 -14.753350257873535 0.32622310519218445
19.206249237060547 -14.925102233886719 0.31155499815940857
19.223690032958984 -15.129002571105957 0.2898348867893219
19.226167678833008 -15.323182106018066 0.2704005539417267
19.23546028137207 -15.524803161621094 0.24945878982543945
19.210771560668945 -15.700783729553223 0.2342027872800827
19.19609260559082 -15.886520385742188 0.21690088510513306
19.231487274169922 -16.115934371948242 0.19034092128276825
19.23607063293457 -16.322025299072266 0.16892729699611664
19.303468704223633 -16.584291458129883 0.135784313082695
19.24651527404785 -16.742023468017578 0.12482519447803497
12.767757415771484 12.212287902832031 1.61076021194458
12.837841987609863 12.129658699035645 1.6098707914352417
12.993099212646484 12.12661075592041 1.595522403717041
12.882180213928223 11.876330375671387 1.622779369354248
12.947924613952637 11.791077613830566 1.6222167015075684
12.973222732543945 11.66958999633789 1.6278152465820312
13.019801139831543 11.568028450012207 1.629984736442566
13.060395240783691 11.461747169494629 1.6329516172409058
13.129454612731934 11.380779266357422 1.631449580192566
13.099153518676758 11.214760780334473 1.6449531316757202
13.144692420959473 11.114967346191406 1.64677095413208
13.194075584411621 11.0188570022583 1.6478960514068604
13.238944053649902 10.919397354125977 1.6495908498764038
13.266145706176758 10.806000709533691 1.6538115739822388
13.29787540435791 10.697037696838379 1.6572271585464478
13.331879615783691 10.590563774108887 1.6601815223693848
13.368988990783691 10.487139701843262 1.6625577211380005
13.406118392944336 10.384265899658203 1.6648163795471191
13.442489624023438 10.281330108642578 1.6670727729797363
13.482861518859863 10.181930541992188 1.6686335802078247
13.52013111114502 10.08064079284668 1.670538067817688
13.55666732788086 9.97927474975586 1.6724399328231812
13.58443546295166 9.871999740600586 1.675498366355896
13.625118255615234 9.774601936340332 1.6765848398208618
13.663498878479004 9.67592716217041 1.6778994798660278
13.701995849609375 9.577717781066895 1.6790955066680908
13.745527267456055 9.483345985412598 1.6794737577438354
13.773638725280762 9.378739356994629 1.6819424629211426
13.814176559448242 9.283005714416504 1.6825464963912964
13.855714797973633 9.188223838806152 1.6829134225845337
13.873340606689453 9.078055381774902 1.6865439414978027
13.913500785827637 8.983098983764648 1.6869055032730103
13.958882331848145 8.891725540161133 1.686444640159607
13.986849784851074 8.789563179016113 1.6883182525634766
14.039412498474121 8.70308780670166 1.6866776943206787
14.06687068939209 8.601274490356445 1.6884289979934692
14.110617637634277 8.5097074508667 1.6878324747085571
14.15291690826416 8.417418479919434 1.6873480081558228
14.19118881225586 8.322919845581055 1.687328815460205
14.219378471374512 8.222798347473145 1.6885995864868164
14.258952140808105 8.129528999328613 1.6882203817367554
14.30224609375 8.038515090942383 1.6872467994689941
14.371888160705566 7.962191581726074 1.6826106309890747
14.996310234069824 8.18843936920166 1.6027412414550781
15.882841110229492 8.546584129333496 1.4877333641052246
19.256694793701172 0.7721725106239319 1.1630778312683105
19.237951278686523 0.6532745957374573 1.1635000705718994
19.291847229003906 0.536673367023468 1.1544945240020752
12.861970901489258 -0.6683613061904907 1.9573233127593994
12.859394073486328 -0.7473517656326294 1.9553815126419067
12.867219924926758 -0.82703697681427 1.952015995979309
19.71000862121582 -6.040635108947754 0.8412131071090698
19.436763763427734 -6.087657451629639 0.872062623500824
19.202392578125 -6.143941879272461 0.8974634408950806
19.131025314331055 -6.250828266143799 0.8996243476867676
18.96413230895996 -6.325405597686768 0.915411114692688
18.943382263183594 -6.4479851722717285 0.9101905226707458
18.9152889251709 -6.568275451660156 0.9059144854545593
18.90230941772461 -6.694088459014893 0.8993417620658875
18.9024715423584 -6.825038433074951 0.890736997127533
18.89708709716797 -6.954532623291016 0.8828027248382568
18.891752243041992 -7.084567546844482 0.874727725982666
18.909591674804688 -7.223993301391602 0.8631201982498169
18.880258560180664 -7.345942497253418 0.8582898378372192
18.95237922668457 -7.508311748504639 0.838375449180603
18.923059463500977 -7.631450653076172 0.8332613706588745
18.936933517456055 -7.772571563720703 0.821612536907196
18.92875862121582 -7.905369758605957 0.8130868673324585
18.911455154418945 -8.034875869750977 0.8057832717895508
18.866901397705078 -8.153070449829102 0.8024356961250305
18.85607147216797 -8.286169052124023 0.7939000725746155
18.78643035888672 -8.393579483032227 0.7941122651100159
18.987659454345703 -8.62375545501709 0.7531347274780273
18.963708877563477 -8.75374984741211 0.7460711598396301
18.949636459350586 -8.888824462890625 0.7373599410057068
18.974853515625 -9.043235778808594 0.7224684357643127
19.003339767456055 -9.200448989868164 0.7068749070167542
19.185264587402344 -9.434410095214844 0.6673445105552673
20.490781784057617 -13.064496040344238 0.20938962697982788
20.127887725830078 -13.007720947265625 0.2539703845977783
19.88410186767578 -13.024036407470703 0.2787855565547943
19.641712188720703 -13.038407325744629 0.30351459980010986
19.45412826538086 -13.08677864074707 0.31905558705329895
19.29778480529785 -13.154536247253418 0.3293101191520691
19.217927932739258 -13.27376937866211 0.3264116942882538
19.205474853515625 -13.440205574035645 0.31173279881477356
19.21188735961914 -13.621307373046875 0.29353320598602295
19.205535888671875 -13.794905662536621 0.2772867977619171
19.224987030029297 -13.98874568939209 0.2562462091445923
19.237995147705078 -14.179819107055664 0.23603233695030212
19.210498809814453 -14.34255313873291 0.22270572185516357
19.21567726135254 -14.53116512298584 0.20331014692783356
19.225547790527344 -14.72519302368164 0.18277044594287872
19.21184730529785 -14.902898788452148 0.16616879403591156
19.226266860961914 -15.104231834411621 0.144186332821846
19.232728958129883 -15.301371574401855 0.12331745028495789
17.02547836303711 -16.521623611450195 0.20520353317260742
13.291601181030273 13.019811630249023 1.3848214149475098
12.729557037353516 12.317423820495605 1.4911872148513794
12.803885459899902 12.238435745239258 1.4897404909133911
12.751407623291016 12.039725303649902 1.5093379020690918
12.871214866638184 12.004627227783203 1.5000604391098022
12.897615432739258 11.88241195678711 1.5061838626861572
12.974398612976074 11.80709457397461 1.5038681030273438
12.956244468688965 11.646334648132324 1.5169872045516968
14.041899681091309 12.467636108398438 1.3503049612045288
13.077463150024414 11.468865394592285 1.5170369148254395
13.13154411315918 11.374794960021973 1.5179580450057983
13.098980903625488 11.206924438476562 1.5326714515686035
13.148259162902832 11.110358238220215 1.5340760946273804
13.196084976196289 11.012971878051758 1.5355972051620483
13.215638160705566 10.892687797546387 1.541481375694275
13.27347469329834 10.804534912109375 1.5411757230758667
13.292046546936035 10.684988021850586 1.5469385385513306
13.333754539489746 10.584750175476074 1.5489341020584106
13.366141319274902 10.477664947509766 1.552264928817749
13.410277366638184 10.380302429199219 1.5536457300186157
13.445836067199707 10.276762962341309 1.5562418699264526
13.486176490783691 10.177361488342285 1.5579816102981567
13.528194427490234 10.079630851745605 1.559352159500122
13.547933578491211 9.965888023376465 1.5640182495117188
13.59570026397705 9.873276710510254 1.5642833709716797
13.622675895690918 9.765995979309082 1.5676027536392212
13.66505241394043 9.670222282409668 1.5684723854064941
13.698630332946777 9.568611145019531 1.5705636739730835
13.739649772644043 9.472582817077637 1.5714260339736938
13.780826568603516 9.376970291137695 1.5721616744995117
13.808990478515625 9.272907257080078 1.5747367143630981
13.852943420410156 9.179815292358398 1.5748509168624878
13.887137413024902 9.080557823181152 1.5763144493103027
13.921469688415527 8.98176383972168 1.5776523351669312
13.965160369873047 8.8892822265625 1.577507495880127
13.996475219726562 8.789214134216309 1.5790858268737793
14.037212371826172 8.695365905761719 1.5791794061660767
14.077325820922852 8.601346015930176 1.5792691707611084
14.108314514160156 8.502038955688477 1.5805914402008057
14.149706840515137 8.409265518188477 1.5803017616271973
14.188777923583984 8.315299034118652 1.580255150794983
14.223793983459473 8.219181060791016 1.5807006359100342
14.257303237915039 8.122454643249512 1.5812667608261108
14.297948837280273 8.029998779296875 1.5807112455368042
14.400498390197754 7.971950531005859 1.5711947679519653
15.04463005065918 8.208548545837402 1.4842171669006348
15.246480941772461 8.197883605957031 1.460634469985962
19.252490997314453 0.7663043737411499 1.0370312929153442
19.24064826965332 0.6476733684539795 1.0366649627685547
19.264728546142578 0.5302241444587708 1.0313482284545898
12.900185585021973 -0.6744322180747986 1.8674123287200928
12.869863510131836 -0.75203937292099 1.8692518472671509
12.870715141296387 -0.8313437104225159 1.866752028465271
27.892724990844727 -5.81716251373291 -0.3580445647239685
27.835668563842773 -5.983757019042969 -0.3588111400604248
19.885074615478516 -5.967419624328613 0.6873869299888611
19.502239227294922 -5.983283042907715 0.7360969185829163
19.222949981689453 -6.026963710784912 0.7695538997650146
19.06267738342285 -6.105494499206543 0.7853217124938965
18.985919952392578 -6.20967960357666 0.7885714769363403
18.87291717529297 -6.301240921020508 0.7972009778022766
18.841039657592773 -6.419428825378418 0.793560266494751
18.848630905151367 -6.5514397621154785 0.783839762210846
18.84317398071289 -6.6794867515563965 0.775951623916626
18.850818634033203 -6.812761306762695 0.7659333348274231
18.84824562072754 -6.942962169647217 0.7573239803314209
18.834585189819336 -7.069562911987305 0.7502701878547668
18.8311710357666 -7.200500965118408 0.7415084838867188
18.825014114379883 -7.330946922302246 0.7330255508422852
18.848325729370117 -7.473628520965576 0.7198410034179688
18.848560333251953 -7.6079816818237305 0.7100614905357361
18.861583709716797 -7.748262405395508 0.6981363892555237
18.857152938842773 -7.882120609283447 0.688768208026886
18.877288818359375 -8.027060508728027 0.6753959059715271
18.871826171875 -8.161938667297363 0.6658692359924316
18.871753692626953 -8.299839973449707 0.6553347706794739
18.89328384399414 -8.448149681091309 0.6412138342857361
18.915496826171875 -8.597856521606445 0.6267923712730408
18.923105239868164 -8.741929054260254 0.6145083904266357
18.920692443847656 -8.882214546203613 0.6036487817764282
18.923519134521484 -9.025782585144043 0.5917761325836182
18.918167114257812 -9.166268348693848 0.5810443162918091
18.935771942138672 -9.318826675415039 0.5664206147193909
18.969913482666016 -9.480794906616211 0.5489033460617065
16.551349639892578 -8.39953899383545 0.9317195415496826
16.470134735107422 -8.485937118530273 0.9342562556266785
16.702396392822266 -8.735834121704102 0.8851284384727478
16.618515014648438 -8.953655242919922 0.8764503002166748
16.638456344604492 -9.096704483032227 0.8616248369216919
16.35701560974121 -9.0737886428833 0.8970381617546082
16.308454513549805 -9.178305625915527 0.8935306668281555
16.24461555480957 -9.274230003356934 0.8924935460090637
16.226451873779297 -9.396492004394531 0.8836255669593811
16.292707443237305 -9.568984985351562 0.8602250814437866
16.17809295654297 -9.635821342468262 0.8674777150154114
20.075288772583008 -12.98241138458252 0.10448767244815826
19.909595489501953 -13.049434661865234 0.1168278306722641
19.635892868041992 -13.043216705322266 0.1483669877052307
19.455764770507812 -13.096559524536133 0.16342267394065857
19.294523239135742 -13.161009788513184 0.17514458298683167
19.20240020751953 -13.271784782409668 0.17443318665027618
19.20201301574707 -13.446609497070312 0.15700486302375793
19.19293785095215 -13.616777420043945 0.14088577032089233
19.17766761779785 -13.783878326416016 0.12563849985599518
19.212244033813477 -13.988564491271973 0.10096924751996994
12.82345962524414 12.877086639404297 1.33101224899292
12.728666305541992 12.626320838928223 1.3603956699371338
12.696477890014648 12.44108772277832 1.3782250881195068
12.74803638458252 12.33952522277832 1.3809481859207153
12.679094314575195 12.12330150604248 1.4047266244888306
12.759430885314941 12.051443099975586 1.402029037475586
12.842263221740723 11.981760025024414 1.3988144397735596
12.875849723815918 11.86646842956543 1.4040544033050537
12.962786674499512 11.80063247680664 1.3999354839324951
12.966790199279785 11.659884452819824 1.4099775552749634
13.004416465759277 11.550494194030762 1.4140735864639282
13.068778991699219 11.465286254882812 1.4134788513183594
13.074865341186523 11.329700469970703 1.4226417541503906
13.094103813171387 11.206727027893066 1.4293991327285767
13.14490032196045 11.111479759216309 1.4306977987289429
13.182841300964355 11.005857467651367 1.434024691581726
13.230694770812988 10.909022331237793 1.4355685710906982
13.260169982910156 10.797607421875 1.4400360584259033
13.281821250915527 10.680647850036621 1.4456501007080078
13.32972526550293 10.585415840148926 1.446803331375122
13.365254402160645 10.480816841125488 1.449865698814392
13.401572227478027 10.377392768859863 1.4526708126068115
13.431611061096191 10.26970100402832 1.456368088722229
13.479830741882324 10.176372528076172 1.456995964050293
13.513099670410156 10.072168350219727 1.459922194480896
13.559977531433105 9.97851848602295 1.4605413675308228
13.582144737243652 9.867182731628418 1.4650007486343384
13.615547180175781 9.764620780944824 1.4675371646881104
13.657108306884766 9.668322563171387 1.4686596393585205
13.693937301635742 9.56904125213623 1.4704205989837646
13.732511520385742 9.471359252929688 1.4717929363250732
13.77204418182373 9.374679565429688 1.4729042053222656
13.807615280151367 9.275657653808594 1.474527359008789
13.840839385986328 9.175453186035156 1.4764058589935303
13.880821228027344 9.080077171325684 1.4771206378936768
13.910992622375488 8.9786376953125 1.4792518615722656
13.95466136932373 8.886225700378418 1.479184865951538
13.98764419555664 8.787282943725586 1.480664849281311
14.017411231994629 8.686700820922852 1.4825303554534912
14.06000804901123 8.594359397888184 1.4823219776153564
14.098605155944824 8.499771118164062 1.482627272605896
14.144240379333496 8.409594535827637 1.4817606210708618
14.179889678955078 8.313657760620117 1.482316493988037
14.212322235107422 8.216111183166504 1.483258605003357
14.246676445007324 8.119950294494629 1.4838080406188965
14.29162311553955 8.029991149902344 1.4826620817184448
14.365490913391113 7.956117630004883 1.4770807027816772
14.881059646606445 8.122986793518066 1.4052505493164062
15.244640350341797 8.200674057006836 1.356392741203308
19.248477935791016 0.7703124284744263 0.9212273955345154
19.23072052001953 0.6515018343925476 0.9217934608459473
19.260730743408203 0.5342843532562256 0.9155163168907166
12.856378555297852 -0.7487274408340454 1.7933416366577148
12.858223915100098 -0.8280102014541626 1.7906668186187744
19.78116798400879 -5.9315690994262695 0.5780245661735535
19.487709045410156 -5.9742231369018555 0.6151142120361328
19.221866607666016 -6.022079944610596 0.6480224132537842
19.10127067565918 -6.113330364227295 0.658387303352356
18.85429573059082 -6.162161827087402 0.6884667873382568
18.82326889038086 -6.280187606811523 0.684783399105072
18.822397232055664 -6.408584117889404 0.6762454509735107
18.80477523803711 -6.531692981719971 0.6702059507369995
18.798465728759766 -6.659119606018066 0.6622479557991028
18.812694549560547 -6.7944440841674805 0.6508914828300476
18.815757751464844 -6.926436424255371 0.6411490440368652
18.812347412109375 -7.056640148162842 0.632286012172699
18.80896759033203 -7.187417030334473 0.623269259929657
18.81667137145996 -7.323082447052002 0.6123221516609192
18.819732666015625 -7.457656383514404 0.6019584536552429
18.833772659301758 -7.597354888916016 0.5896589756011963
18.841310501098633 -7.73525333404541 0.5782390236854553
18.841474533081055 -7.870864391326904 0.5678495764732361
18.84067726135254 -8.006769180297852 0.5574525594711304
18.857072830200195 -8.150809288024902 0.5440725088119507
18.863351821899414 -8.291373252868652 0.5321695804595947
18.876737594604492 -8.435954093933105 0.518915593624115
18.885452270507812 -8.579375267028809 0.5062468647956848
18.885927200317383 -8.719905853271484 0.49476194381713867
18.888967514038086 -8.862447738647461 0.4826706349849701
19.186399459838867 -9.146170616149902 0.42108452320098877
19.19181251525879 -9.29383373260498 0.4080381691455841
18.93439483642578 -9.313188552856445 0.4391558766365051
16.612117767333984 -8.29820442199707 0.8202617764472961
16.556129455566406 -8.397697448730469 0.8187808394432068
16.493391036987305 -8.493647575378418 0.8183583617210388
16.257492065429688 -8.498927116394043 0.8475372195243835
16.71210289001465 -8.867673873901367 0.7580062747001648
16.18871307373047 -8.717852592468262 0.8367021679878235
15.954984664916992 -8.718853950500488 0.8656917214393616
16.129962921142578 -8.943563461303711 0.8236117362976074
16.168352127075195 -9.095144271850586 0.8050013780593872
16.223508834838867 -9.257820129394531 0.783203661441803
16.20112419128418 -9.377446174621582 0.7748236656188965
16.080692291259766 -9.440103530883789 0.7836726307868958
16.106203079223633 -9.588604927062988 0.7665272951126099
16.019630432128906 -9.670858383178711 0.7691971063613892
12.639394760131836 12.678817749023438 1.2603809833526611
12.653263092041016 12.538259506225586 1.2706698179244995
12.70059585571289 12.431987762451172 1.2745121717453003
12.747102737426758 12.325607299804688 1.278351068496704
12.781316757202148 12.20816707611084 1.2842960357666016
12.76627254486084 12.045186996459961 1.2990790605545044
12.837448120117188 11.964637756347656 1.2979015111923218
12.884053230285645 11.861509323120117 1.3010730743408203
12.925479888916016 11.754254341125488 1.3050340414047241
12.963127136230469 11.644289016723633 1.309522032737732
12.995465278625488 11.530354499816895 1.3148024082183838
13.03136920928955 11.420381546020508 1.319287896156311
13.051429748535156 11.297425270080566 1.326423168182373
13.098345756530762 11.198487281799316 1.3286529779434204
13.136213302612305 11.092362403869629 1.3323386907577515
13.187732696533203 10.99825668334961 1.3334987163543701
13.220999717712402 10.889439582824707 1.3377107381820679
13.25496768951416 10.781877517700195 1.3416557312011719
13.29429817199707 10.679276466369629 1.3445345163345337
13.33053970336914 10.574747085571289 1.3478100299835205
13.366002082824707 10.470174789428711 1.351083755493164
13.399900436401367 10.364958763122559 1.3544890880584717
13.44010066986084 10.26513385772705 1.3566912412643433
13.478001594543457 10.164009094238281 1.359157681465149
13.510398864746094 10.059255599975586 1.3624235391616821
13.541221618652344 9.953897476196289 1.3658218383789062
13.578479766845703 9.853778839111328 1.3680140972137451
13.619855880737305 9.757038116455078 1.3693994283676147
13.659745216369629 9.659588813781738 1.370915174484253
13.69083023071289 9.556342124938965 1.3737694025039673
13.728507041931152 9.458138465881348 1.3754137754440308
13.767952919006348 9.36150074005127 1.376651406288147
13.805910110473633 9.264183044433594 1.3780200481414795
13.847322463989258 9.169486045837402 1.3787124156951904
13.870674133300781 9.063243865966797 1.3822295665740967
13.914896965026855 8.971020698547363 1.3822414875030518
13.948478698730469 8.872212409973145 1.383867621421814
13.983052253723145 8.774381637573242 1.3852208852767944
14.022849082946777 8.680110931396484 1.3856256008148193
14.057787895202637 8.583098411560059 1.386702299118042
14.102250099182129 8.492117881774902 1.386151671409607
14.137606620788574 8.395852088928223 1.3869500160217285
14.172313690185547 8.299470901489258 1.3877450227737427
14.209803581237793 8.204960823059082 1.3879941701889038
14.245805740356445 8.109810829162598 1.3883750438690186
14.291543960571289 8.020346641540527 1.3871217966079712
14.419072151184082 7.976190567016602 1.3729432821273804
14.781425476074219 8.058837890625 1.3219897747039795
15.304131507873535 8.222686767578125 1.2461596727371216
19.229888916015625 0.7602353096008301 0.8106290102005005
19.233827590942383 0.6422788500785828 0.808125913143158
19.24297523498535 0.524462878704071 0.8047488331794739
12.88731575012207 -0.6777519583702087 1.7152307033538818
12.873784065246582 -0.7562599182128906 1.7148696184158325
12.865696907043457 -0.8350123167037964 1.7136261463165283
19.996644973754883 -5.873137474060059 0.4297027885913849
19.643659591674805 -5.900732040405273 0.47786083817481995
19.40449333190918 -5.959028720855713 0.5078363418579102
19.111616134643555 -5.997756004333496 0.5465550422668457
18.960187911987305 -6.078362941741943 0.5624696016311646
18.823524475097656 -6.162259578704834 0.5759761929512024
18.794347763061523 -6.280721664428711 0.5719459652900696
18.76442527770996 -6.39906120300293 0.5679169297218323
18.852296829223633 -6.558496475219727 0.5444580316543579
18.811309814453125 -6.673996925354004 0.5419485569000244
18.81236457824707 -6.804701328277588 0.5323933362960815
18.797683715820312 -6.930202960968018 0.5252861976623535
18.79511833190918 -7.060647010803223 0.5160266757011414
18.79719352722168 -7.1934404373168945 0.5058391690254211
18.786375045776367 -7.321863174438477 0.49764353036880493
18.80499267578125 -7.462449073791504 0.4843658208847046
18.824420928955078 -7.604281902313232 0.470767617225647
18.803512573242188 -7.730483055114746 0.4637843370437622
18.821870803833008 -7.873488903045654 0.45001286268234253
18.840991973876953 -8.017786026000977 0.4359198212623596
18.81189727783203 -8.1422119140625 0.4298478662967682
16.501323699951172 -7.263062477111816 0.8136870861053467
16.45970344543457 -7.365743160247803 0.8108598589897156
