# .PCD v0.7 - Point Cloud Data file format
VERSION 0.7
FIELDS x y z
SIZE 4 4 4
TYPE F F F
COUNT 1 1 1
WIDTH 854
HEIGHT 1
VIEWPOINT 0 0 0 1 0 0 0
POINTS 854
DATA ascii
34.47536849975586 -17.046009063720703 1.5750433206558228
34.418968200683594 -17.28180503845215 1.5674694776535034
34.34406661987305 -17.50893211364746 1.560914397239685
34.293392181396484 -17.749101638793945 1.5528032779693604
34.24812698364258 -17.993022918701172 1.5442578792572021
34.228477478027344 -18.25162124633789 1.5340325832366943
34.39925765991211 -18.614723205566406 1.5119354724884033
34.18524169921875 -18.771072387695312 1.5134387016296387
34.50445556640625 -19.2228946685791 1.481693983078003
34.418643951416016 -19.452850341796875 1.4749747514724731
34.517547607421875 -19.78924560546875 1.4565157890319824
34.50225830078125 -20.06283950805664 1.445072889328003
34.52618408203125 -20.3613338470459 1.430983304977417
34.52117919921875 -20.64499282836914 1.4185720682144165
34.57545471191406 -20.966623306274414 1.4021762609481812
34.5198974609375 -21.22381019592285 1.3927026987075806
34.53196334838867 -21.5244083404541 1.378687858581543
34.456382751464844 -21.7720890045166 1.3702486753463745
34.52031326293945 -22.110116958618164 1.352477788925171
34.552066802978516 -22.43071746826172 1.3366167545318604
34.57700729370117 -22.74979591369629 1.3210058212280273
34.50877380371094 -23.009647369384766 1.3114584684371948
34.655399322509766 -23.415966033935547 1.2872357368469238
34.716766357421875 -23.769105911254883 1.2685067653656006
34.73981475830078 -24.099403381347656 1.25215744972229
34.74213790893555 -24.418249130249023 1.2370190620422363
34.80609130859375 -24.78377342224121 1.217397689819336
34.79479217529297 -25.099018096923828 1.2027696371078491
34.81398391723633 -25.439199447631836 1.1857982873916626
34.81504821777344 -25.76927947998047 1.169876217842102
34.84691619873047 -26.125473022460938 1.1515414714813232
34.84628677368164 -26.4606876373291 1.1352823972702026
34.858680725097656 -26.80904769897461 1.1178570985794067
34.8775520324707 -27.16591453552246 1.099716305732727
34.89177703857422 -27.52277946472168 1.0816606283187866
34.88108444213867 -27.86338996887207 1.0651835203170776
34.77980422973633 -28.13395881652832 1.055185079574585
34.78464126586914 -28.492895126342773 1.037117838859558
34.924686431884766 -28.96766471862793 1.0086287260055542
34.90500259399414 -29.314882278442383 0.991818368434906
34.888450622558594 -29.668123245239258 0.9745222926139832
34.92485427856445 -30.070459365844727 0.9529072046279907
34.89440155029297 -30.419252395629883 0.9361395239830017
34.89091873168945 -30.79522132873535 0.9170207381248474
34.945167541503906 -31.22683334350586 0.8930885791778564
34.99097442626953 -31.656246185302734 0.8694640398025513
34.96213912963867 -32.02265930175781 0.8514201641082764
34.982826232910156 -32.43877410888672 0.8291287422180176
35.01862716674805 -32.87411117553711 0.8052747249603271
30.27956199645996 -28.777210235595703 1.169548749923706
32.37267303466797 30.837329864501953 2.051833391189575
32.38490676879883 30.472431182861328 2.05642032623291
32.3411865234375 30.059558868408203 2.0635828971862793
32.48576354980469 29.82478904724121 2.0614802837371826
32.51023483276367 29.481956481933594 2.065075159072876
32.4788818359375 29.092607498168945 2.071225643157959
32.417789459228516 28.681577682495117 2.078659772872925
32.58088684082031 28.471660614013672 2.0752243995666504
32.589820861816406 28.128915786743164 2.0790560245513916
32.5904541015625 27.7825984954834 2.0831573009490967
32.5980110168457 27.44570541381836 2.086806058883667
32.62418746948242 27.12765884399414 2.089451789855957
32.60444641113281 26.77480697631836 2.0941522121429443
32.652244567871094 26.48050880432129 2.0955488681793213
32.660221099853516 26.15665054321289 2.098710298538208
32.685054779052734 25.84918785095215 2.100968837738037
32.67900085449219 25.520265579223633 2.104564666748047
32.71129608154297 25.2241268157959 2.1062586307525635
32.71416091918945 24.90797233581543 2.109220266342163
32.72477340698242 24.600542068481445 2.111715793609619
32.73284912109375 24.29391860961914 2.114225387573242
32.55220031738281 23.851682662963867 2.1253740787506104
32.4459114074707 23.469398498535156 2.13295316696167
32.47360610961914 23.18746566772461 2.1342294216156006
32.51784896850586 22.91931915283203 2.134648561477661
32.552650451660156 22.64636993408203 2.1354124546051025
32.5589714050293 22.35575294494629 2.1373937129974365
32.56709289550781 22.06871795654297 2.1391983032226562
32.68339157104492 21.85630989074707 2.1359546184539795
32.420509338378906 21.39396858215332 2.1499826908111572
32.44795227050781 21.12762451171875 2.1506223678588867
32.48680877685547 20.870391845703125 2.150655508041382
32.5659294128418 20.64022445678711 2.148768424987793
32.55195236206055 20.352659225463867 2.151042938232422
32.51185607910156 20.051353454589844 2.1544175148010254
32.56491470336914 19.809478759765625 2.153470516204834
32.632511138916016 19.577472686767578 2.1517844200134277
32.6038932800293 19.289409637451172 2.154385805130005
32.42193603515625 18.914316177368164 2.1638524532318115
32.65929412841797 18.78533363342285 2.154236316680908
32.67551040649414 18.52894401550293 2.1545627117156982
32.72383117675781 18.292078018188477 2.153359889984131
32.8133659362793 18.078947067260742 2.150219202041626
32.95331573486328 17.893537521362305 2.144726514816284
33.019107818603516 17.667959213256836 2.142512559890747
33.035640716552734 17.41707992553711 2.1424479484558105
33.04236602783203 17.162519454956055 2.1427502632141113
33.04010009765625 16.904890060424805 2.143383502960205
33.0724983215332 16.66637420654297 2.1423795223236084
33.08084487915039 16.416990280151367 2.1423861980438232
33.08378982543945 16.1663761138916 2.142563819885254
33.08671188354492 15.91721248626709 2.1426706314086914
33.10498046875 15.676745414733887 2.142014503479004
33.11701965332031 15.434545516967773 2.1415672302246094
33.12370681762695 15.191121101379395 2.141291379928589
33.13502883911133 14.951072692871094 2.1407365798950195
33.167484283447266 14.721590995788574 2.139160633087158
33.15167999267578 14.471884727478027 2.1396899223327637
33.175376892089844 14.240665435791016 2.1383702754974365
33.17447280883789 13.999985694885254 2.138092279434204
33.187557220458984 13.766362190246582 2.137115955352783
33.196250915527344 13.531972885131836 2.136270761489868
33.21630859375 13.303196907043457 2.134845495223999
33.09813690185547 13.020909309387207 2.1395928859710693
33.13433074951172 12.801070213317871 2.1373093128204346
33.577293395996094 12.73614501953125 2.1165852546691895
33.678009033203125 12.538655281066895 2.111243724822998
33.71562194824219 12.317774772644043 2.1086843013763428
33.71982192993164 12.085441589355469 2.107571601867676
33.738460540771484 11.859152793884277 2.105739116668701
33.75843048095703 11.634068489074707 2.103781223297119
33.7523078918457 11.40086841583252 2.1029417514801025
33.75786590576172 11.172577857971191 2.101508617401123
33.776153564453125 10.949270248413086 2.099433183670044
33.79297637939453 10.726157188415527 2.0973610877990723
33.799747467041016 10.500580787658691 2.0956814289093018
33.80024719238281 10.273872375488281 2.094224214553833
33.80881118774414 10.050398826599121 2.092336654663086
33.81974792480469 9.828323364257812 2.090278148651123
33.835960388183594 9.608400344848633 2.087916135787964
33.84882354736328 9.388113021850586 2.085643768310547
33.858333587646484 9.167508125305176 2.0834617614746094
33.870269775390625 8.948158264160156 2.081106185913086
33.87595748901367 8.727761268615723 2.0789740085601807
33.8928108215332 8.510793685913086 2.076268196105957
33.89372634887695 8.290385246276855 2.0742321014404297
33.91361999511719 8.075146675109863 2.071260929107666
33.90782165527344 7.854336261749268 2.069411039352417
33.91228485107422 7.636535167694092 2.0670278072357178
33.923160552978516 7.420682430267334 2.064286470413208
33.94927978515625 7.208510875701904 2.060776710510254
33.936893463134766 6.988638401031494 2.0589895248413086
33.94953536987305 6.774468421936035 2.055980920791626
33.96181106567383 6.560594081878662 2.052926540374756
33.96684646606445 6.345722198486328 2.050147533416748
33.98232650756836 6.133164405822754 2.0468196868896484
34.00138854980469 5.921511650085449 2.0432612895965576
34.004364013671875 5.70737361907959 2.040393114089966
34.006980895996094 5.493579864501953 2.0374810695648193
34.022064208984375 5.282114505767822 2.033921241760254
34.013118743896484 5.067282676696777 2.03143048286438
34.02556228637695 4.856005668640137 2.0278713703155518
34.043617248535156 4.645711898803711 2.0239834785461426
34.050472259521484 4.43408727645874 2.0205624103546143
34.05997085571289 4.223044395446777 2.016953468322754
34.07809066772461 4.013219356536865 2.0128722190856934
33.550899505615234 3.742612600326538 2.034708023071289
33.50547790527344 3.5296168327331543 2.0335841178894043
33.572017669677734 3.3285608291625977 2.0270519256591797
33.62541961669922 3.1257095336914062 2.021076202392578
33.649723052978516 2.919907331466675 2.0164265632629395
33.66480255126953 2.7132813930511475 2.0121543407440186
33.66566848754883 2.5056138038635254 2.0085039138793945
33.673221588134766 2.298581838607788 2.004467487335205
11.94892692565918 0.7407220602035522 3.0539798736572266
33.63465118408203 1.8817336559295654 1.9988144636154175
12.131550788879395 0.6027811169624329 3.0423686504364014
12.280634880065918 0.5347213745117188 3.033677101135254
12.183799743652344 0.45563122630119324 3.036964178085327
12.84817123413086 0.40168458223342896 3.002903461456299
33.712432861328125 0.8503607511520386 1.975100040435791
33.74077224731445 0.6440085768699646 1.9695262908935547
33.744873046875 0.43704062700271606 1.9650790691375732
33.746707916259766 0.23003846406936646 1.9606802463531494
33.7652473449707 0.023042304441332817 1.9553860425949097
33.76054382324219 -0.18405549228191376 1.951180100440979
12.810083389282227 -0.1496986746788025 2.9933199882507324
12.743935585021973 -0.227127805352211 2.994899034500122
33.788734436035156 -0.8061619997024536 1.9360519647598267
33.79191970825195 -1.0136785507202148 1.9311847686767578
11.789188385009766 -0.4273856282234192 3.0377981662750244
12.26124095916748 -0.5197475552558899 3.012197732925415
12.95203971862793 -0.6285314559936523 2.9753239154815674
12.68957805633545 -0.6938872337341309 2.986788034439087
12.843504905700684 -0.7813301682472229 2.9770283699035645
12.852339744567871 -0.8610309958457947 2.9746317863464355
11.800894737243652 -0.8635075688362122 3.026705503463745
13.108454704284668 -1.0398393869400024 2.9574577808380127
12.619141578674316 -1.0790406465530396 2.9806969165802
12.255175590515137 -1.1237492561340332 2.997562885284424
33.888755798339844 -3.313577890396118 1.8698714971542358
12.746896743774414 -1.3266513347625732 2.967904806137085
13.075936317443848 -1.4419821500778198 2.9485585689544678
13.334588050842285 -1.5533210039138794 2.932771682739258
13.361395835876465 -1.6395819187164307 2.9290871620178223
33.92556381225586 -4.371253967285156 1.8394297361373901
12.3366060256958 -1.667873501777649 2.9788126945495605
13.75289249420166 -1.9451000690460205 2.9012434482574463
33.98489761352539 -5.016354560852051 1.818249225616455
33.97694778442383 -5.22836971282959 1.812507152557373
33.979496002197266 -5.442370414733887 1.8061262369155884
33.99448776245117 -5.658895492553711 1.7989935874938965
33.98841857910156 -5.872412204742432 1.792916178703308
34.00263595581055 -6.089939117431641 1.7856600284576416
34.01643371582031 -6.308044910430908 1.7783401012420654
34.041587829589844 -6.528994560241699 1.7703115940093994
34.018287658691406 -6.741177082061768 1.7648518085479736
33.90268325805664 -6.934716701507568 1.7644075155258179
33.87392044067383 -7.145637035369873 1.7591198682785034
33.87897491455078 -7.364099979400635 1.751882791519165
33.92354202270508 -7.5920515060424805 1.7423555850982666
33.93447494506836 -7.813436508178711 1.7346049547195435
33.91967010498047 -8.029492378234863 1.7282072305679321
33.99372100830078 -8.267602920532227 1.7167192697525024
34.0322151184082 -8.498458862304688 1.7071220874786377
34.028526306152344 -8.719691276550293 1.6998142004013062
34.08326721191406 -8.956929206848145 1.689083456993103
34.091064453125 -9.182964324951172 1.6809241771697998
34.07715606689453 -9.40385627746582 1.6739164590835571
34.0935173034668 -9.633882522583008 1.6650723218917847
34.094913482666016 -9.860581398010254 1.656992793083191
34.09193420410156 -10.086810111999512 1.6490700244903564
34.10179138183594 -10.31771183013916 1.6403003931045532
34.12822341918945 -10.554718971252441 1.6304552555084229
34.14825439453125 -10.790933609008789 1.6208723783493042
34.12866973876953 -11.01552677154541 1.6135234832763672
34.11993408203125 -11.244349479675293 1.605436086654663
34.12386703491211 -11.478253364562988 1.5964933633804321
34.169647216796875 -11.727535247802734 1.584934115409851
34.151458740234375 -11.95604133605957 1.5770964622497559
34.11575698852539 -12.179062843322754 1.5702176094055176
34.0992431640625 -12.409605979919434 1.562084436416626
34.256229400634766 -12.705318450927734 1.543263554573059
34.30438995361328 -12.963193893432617 1.530913233757019
34.296630859375 -13.201342582702637 1.5218647718429565
34.3114013671875 -13.449355125427246 1.5113102197647095
34.304935455322266 -13.690277099609375 1.5019502639770508
34.32917785644531 -13.94477367401123 1.4905575513839722
34.34143829345703 -14.19588851928711 1.4797824621200562
34.35374069213867 -14.448451042175293 1.4688737392425537
34.33577346801758 -14.689528465270996 1.4597501754760742
29.61632537841797 -12.886343955993652 1.7495434284210205
29.541955947875977 -13.0701904296875 1.745231032371521
34.39748764038086 -15.471161842346191 1.4242554903030396
34.401519775390625 -15.727516174316406 1.4132044315338135
34.40460205078125 -15.984923362731934 1.4020791053771973
34.42296600341797 -16.251054763793945 1.3898204565048218
34.424949645996094 -16.511106491088867 1.3784846067428589
34.443885803222656 -16.780975341796875 1.3658918142318726
34.454524993896484 -17.04859733581543 1.3536930084228516
34.441768646240234 -17.30622673034668 1.342899203300476
34.36489486694336 -17.5325870513916 1.3362531661987305
34.34326934814453 -17.788036346435547 1.3257997035980225
34.32951354980469 -18.04899024963379 1.3146790266036987
34.374610900878906 -18.34286880493164 1.2994189262390137
34.42353057861328 -18.64130210876465 1.2837109565734863
30.799213409423828 -16.924158096313477 1.5198599100112915
30.784347534179688 -17.16282081604004 1.5095174312591553
34.559444427490234 -19.546234130859375 1.2361630201339722
34.51044464111328 -19.799074172973633 1.2264935970306396
34.522621154785156 -20.088695526123047 1.2124019861221313
34.52479553222656 -20.374645233154297 1.1988346576690674
34.52475357055664 -20.661375045776367 1.1852470636367798
34.587337493896484 -20.98822021484375 1.1670167446136475
34.55879211425781 -21.262216567993164 1.1550898551940918
34.531558990478516 -21.538766860961914 1.1429060697555542
34.51825714111328 -21.825916290283203 1.1295472383499146
34.51533126831055 -22.121788024902344 1.1152526140213013
34.575355529785156 -22.460853576660156 1.0961469411849976
34.5708122253418 -22.760873794555664 1.081558108329773
34.50991439819336 -23.02567481994629 1.0709563493728638
34.67610549926758 -23.4454288482666 1.04324209690094
34.68526840209961 -23.763168334960938 1.0269700288772583
34.7451286315918 -24.1188907623291 1.0066434144973755
34.72843933105469 -24.42456817626953 0.9918677806854248
34.79789733886719 -24.794069290161133 0.970292866230011
34.7613410949707 -25.091157913208008 0.9565907716751099
34.78044891357422 -25.43114471435547 0.9383800625801086
34.79347610473633 -25.769926071166992 0.9203920364379883
34.81960678100586 -26.121801376342773 0.9011221528053284
34.8435173034668 -26.475568771362305 0.8817589282989502
34.8311653137207 -26.80504608154297 0.8650047183036804
34.857791900634766 -27.167879104614258 0.8448914885520935
34.87108612060547 -27.524005889892578 0.8255655765533447
34.877410888671875 -27.878196716308594 0.8065271973609924
34.76432800292969 -28.139324188232422 0.7969547510147095
34.762813568115234 -28.493104934692383 0.7780666947364807
34.898033142089844 -28.96391487121582 0.7475961446762085
34.85837936401367 -29.294275283813477 0.7312467694282532
34.88210678100586 -29.681501388549805 0.7093371748924255
34.922035217285156 -30.08704948425293 0.6857351064682007
34.87782287597656 -30.424013137817383 0.6689328551292419
34.85919952392578 -30.786664962768555 0.6496813297271729
34.93860626220703 -31.240690231323242 0.6216853260993958
34.97970962524414 -31.666034698486328 0.5965932607650757
34.938167572021484 -32.020912170410156 0.5783436894416809
34.95795822143555 -32.43619155883789 0.5544060468673706
35.01322937011719 -32.88981246948242 0.5269479155540466
34.9615478515625 -33.247676849365234 0.5086219906806946
32.35319519042969 30.86817741394043 1.7707895040512085
32.3875617980957 30.523866653442383 1.7756447792053223
32.32239532470703 30.090438842773438 1.7860300540924072
32.46274948120117 29.85170555114746 1.784513235092163
32.51338195800781 29.53244400024414 1.787977695465088
32.5018310546875 29.16031265258789 1.7948144674301147
32.4091796875 28.720523834228516 1.8060585260391235
32.56497573852539 28.50407600402832 1.8031471967697144
32.563636779785156 28.152193069458008 1.8089401721954346
32.60252380371094 27.8383846282959 1.812333345413208
32.59602355957031 27.489091873168945 1.8181170225143433
32.62101745605469 27.16970443725586 1.8220030069351196
32.610145568847656 26.823755264282227 1.8277382850646973
32.6606330871582 26.53125 1.829939365386963
32.65420913696289 26.19537353515625 1.8351500034332275
32.65743637084961 25.870506286621094 1.8396916389465332
32.69253158569336 25.573671340942383 1.8423539400100708
32.69281005859375 25.252344131469727 1.8467957973480225
32.702293395996094 24.941064834594727 1.8506040573120117
32.72515869140625 24.642641067504883 1.8535594940185547
32.75843048095703 24.35441780090332 1.8558293581008911
32.65087127685547 23.965038299560547 1.8656079769134521
32.548683166503906 23.5843505859375 1.874948501586914
32.5413818359375 23.276145935058594 1.8790299892425537
32.666194915771484 23.06399917602539 1.8758834600448608
32.64209747314453 22.74837875366211 1.8806439638137817
32.6663932800293 22.46902847290039 1.8826900720596313
32.486812591552734 22.053329467773438 1.8955349922180176
32.57478713989258 21.82250213623047 1.893945574760437
32.63948440551758 21.57710075378418 1.8935050964355469
32.70240020751953 21.33172607421875 1.8930624723434448
32.71397399902344 21.05449676513672 1.8952513933181763
32.52181625366211 20.649948120117188 1.9081445932388306
32.51389694213867 20.366283416748047 1.9111449718475342
32.66859436035156 20.185361862182617 1.9054402112960815
32.73784637451172 19.95183753967285 1.9041697978973389
32.56571960449219 19.574129104614258 1.9155423641204834
32.546607971191406 19.291994094848633 1.9187321662902832
32.68568420410156 19.104589462280273 1.9134982824325562
32.80290985107422 18.904232025146484 1.9093338251113892
32.81989669799805 18.646900177001953 1.910351276397705
32.81055450439453 18.37640380859375 1.912656307220459
32.87434768676758 18.148242950439453 1.9110355377197266
32.986595153808594 17.947200775146484 1.906793236732483
33.01309585571289 17.70015525817871 1.9069538116455078
33.02897262573242 17.448789596557617 1.9075814485549927
33.03504180908203 17.19374656677246 1.9086332321166992
33.051673889160156 16.945667266845703 1.9090447425842285
33.0584831237793 16.693979263305664 1.9098830223083496
33.0723991394043 16.44729232788086 1.9102635383605957
33.09709167480469 16.207212448120117 1.9099984169006348
33.09219741821289 15.95400333404541 1.9111887216567993
33.11161422729492 15.713883399963379 1.9110302925109863
33.12118911743164 15.470320701599121 1.9112999439239502
33.13719177246094 15.230987548828125 1.9111536741256714
33.159706115722656 14.995743751525879 1.9105867147445679
33.11669158935547 14.732378005981445 1.9133435487747192
33.12112045288086 14.491724014282227 1.9135537147521973
33.14036178588867 14.258678436279297 1.9129157066345215
33.156150817871094 14.025161743164062 1.9123780727386475
33.18785095214844 13.799274444580078 1.9109351634979248
33.19491195678711 13.564079284667969 1.9106926918029785
33.22722244262695 13.340109825134277 1.9090631008148193
33.08985137939453 13.049927711486816 1.9161616563796997
33.11410903930664 12.825423240661621 1.9147961139678955
33.502838134765625 12.740277290344238 1.8944367170333862
33.69242858886719 12.576441764831543 1.8843334913253784
33.72089385986328 12.35201358795166 1.882516860961914
33.74504852294922 12.12669563293457 1.8808470964431763
33.73945236206055 11.891585350036621 1.8806482553482056
33.75867462158203 11.666132926940918 1.8790839910507202
33.76127243041992 11.435765266418457 1.8783090114593506
33.76894760131836 11.208006858825684 1.8771958351135254
33.770355224609375 10.979039192199707 1.8763346672058105
33.78640365600586 10.755626678466797 1.8746380805969238
33.800987243652344 10.532428741455078 1.8729448318481445
33.813148498535156 10.309165000915527 1.8713030815124512
33.808528900146484 10.081582069396973 1.8704638481140137
33.827327728271484 9.861709594726562 1.868331789970398
33.842777252197266 9.641438484191895 1.8663002252578735
33.8471794128418 9.418669700622559 1.8647739887237549
33.85205078125 9.196733474731445 1.8631513118743896
33.86705780029297 8.97816276550293 1.860926866531372
33.876792907714844 8.758750915527344 1.8589060306549072
33.882205963134766 8.538825035095215 1.8570414781570435
33.88134765625 8.317972183227539 1.8554339408874512
33.92082595825195 8.107431411743164 1.8516381978988647
33.91619110107422 7.886765956878662 1.8500880002975464
33.913055419921875 7.6671223640441895 1.8483892679214478
33.92995834350586 7.452526569366455 1.8455644845962524
33.95039367675781 7.239051818847656 1.8424826860427856
33.96459197998047 7.024594306945801 1.8396581411361694
33.9686279296875 6.808467388153076 1.8372998237609863
33.970314025878906 6.59236478805542 1.8349953889846802
33.95983123779297 6.37446928024292 1.833267331123352
33.98430633544922 6.163543224334717 1.8296147584915161
34.002559661865234 5.951694011688232 1.8262213468551636
34.01161193847656 5.738523006439209 1.8232457637786865
34.02031326293945 5.525623321533203 1.8202180862426758
34.02571105957031 5.312524318695068 1.8172961473464966
34.024837493896484 5.098825454711914 1.8146390914916992
34.03053283691406 4.886471271514893 1.8115615844726562
34.04776382446289 4.676003932952881 1.8077956438064575
34.063697814941406 4.465507507324219 1.8040273189544678
34.06643295288086 4.253506183624268 1.8008962869644165
34.080745697021484 4.043167591094971 1.7970722913742065
33.54103469848633 3.7706809043884277 1.8230777978897095
33.52656555175781 3.5609657764434814 1.8207178115844727
33.5862922668457 3.3591206073760986 1.8142714500427246
33.645809173583984 3.1567680835723877 1.8077576160430908
33.66231155395508 2.9501492977142334 1.8034995794296265
33.6676025390625 2.7426350116729736 1.7997809648513794
33.65468215942383 2.533890962600708 1.7969847917556763
13.081151008605957 0.9044818878173828 2.918246030807495
33.67679214477539 2.1204545497894287 1.7885661125183105
33.664005279541016 1.9124243259429932 1.7855561971664429
33.67287063598633 1.7057909965515137 1.781288743019104
13.162891387939453 0.5861217975616455 2.9079205989837646
12.394890785217285 0.4757881462574005 2.948808193206787
19.31032943725586 0.622427761554718 2.5645430088043213
12.876731872558594 0.33613353967666626 2.9191131591796875
12.469176292419434 0.2489810585975647 2.9401910305023193
33.748348236083984 0.4661354422569275 1.7529094219207764
12.483101844787598 0.09608445316553116 2.9362711906433105
12.539283752441406 0.01959630660712719 2.931513547897339
12.631933212280273 -0.057747986167669296 2.9246675968170166
12.73009204864502 -0.13629302382469177 2.9174602031707764
12.719943046569824 -0.21422582864761353 2.91630482673645
33.81206512451172 -0.777596652507782 1.7224833965301514
33.8114013671875 -0.985131561756134 1.7177830934524536
33.81245803833008 -1.192794680595398 1.7129104137420654
12.484064102172852 -0.5168456435203552 2.9225523471832275
12.572317123413086 -0.597778856754303 2.915681838989258
13.152527809143066 -0.7062749862670898 2.8805971145629883
12.839912414550781 -0.7684993743896484 2.8965489864349365
11.824732780456543 -0.780534565448761 2.952996015548706
12.257771492004395 -0.8846888542175293 2.9261667728424072
12.603362083435059 -0.9873978495597839 2.9042327404022217
12.403990745544434 -1.048371434211731 2.9137778282165527
12.395247459411621 -1.1242576837539673 2.9122672080993652
12.734816551208496 -1.2338804006576538 2.8904073238372803
33.91848373413086 -3.497191905975342 1.6487113237380981
13.291146278381348 -1.4526139497756958 2.8534624576568604
33.94293212890625 -3.9211668968200684 1.6356648206710815
12.477374076843262 -1.5187915563583374 2.8968889713287354
33.94225311279297 -4.343738555908203 1.6237595081329346
33.963191986083984 -4.558365821838379 1.6164188385009766
33.96596908569336 -4.771053791046143 1.6100682020187378
33.976295471191406 -4.98525333404541 1.6031808853149414
33.987247467041016 -5.2000627517700195 1.5961666107177734
33.9948616027832 -5.414881229400635 1.5892622470855713
34.00801467895508 -5.631131649017334 1.5819342136383057
34.004051208496094 -5.8450422286987305 1.5755490064620972
29.257055282592773 -5.214018821716309 1.8570590019226074
34.03624725341797 -6.2815022468566895 1.5600725412368774
34.05662155151367 -6.501580715179443 1.5519288778305054
34.0354118347168 -6.7142252922058105 1.546233892440796
33.96788787841797 -6.9176926612854 1.5433073043823242
33.91477584838867 -7.123868942260742 1.539426326751709
33.93455505371094 -7.345705986022949 1.5309579372406006
33.957759857177734 -7.569141387939453 1.5221734046936035
33.99797821044922 -7.797377586364746 1.5122220516204834
34.03860855102539 -8.026851654052734 1.5021308660507202
34.056358337402344 -8.251946449279785 1.4933620691299438
34.0435676574707 -8.470332145690918 1.4864118099212646
34.087398529052734 -8.703689575195312 1.475784182548523
34.0987434387207 -8.92981243133545 1.4670995473861694
34.14812088012695 -9.167013168334961 1.4558827877044678
34.118873596191406 -9.383980751037598 1.449570894241333
34.10457992553711 -9.605536460876465 1.4422086477279663
34.092681884765625 -9.828374862670898 1.4345932006835938
34.1386833190918 -10.068938255310059 1.4231280088424683
34.1237678527832 -10.29256534576416 1.4154925346374512
34.140769958496094 -10.526681900024414 1.4056718349456787
34.14094924926758 -10.756596565246582 1.396834373474121
34.15668487548828 -10.992414474487305 1.3868615627288818
34.13762664794922 -11.217926025390625 1.3790653944015503
34.1293830871582 -11.44774341583252 1.370448350906372
34.18475341796875 -11.700182914733887 1.3574843406677246
34.161041259765625 -11.9267578125 1.3496589660644531
34.15275192260742 -12.159507751464844 1.3406931161880493
34.14195251464844 -12.392265319824219 1.3317806720733643
34.277469635009766 -12.68005657196045 1.3128471374511719
34.29959487915039 -12.92809009552002 1.3014211654663086
34.30784606933594 -13.172221183776855 1.2908045053482056
34.328338623046875 -13.422391891479492 1.2792161703109741
34.334983825683594 -13.668511390686035 1.2684403657913208
34.34822463989258 -13.91858959197998 1.257073998451233
34.354148864746094 -14.167064666748047 1.2460753917694092
34.36750793457031 -14.41999626159668 1.234419345855713
34.369876861572266 -14.669707298278809 1.2233893871307373
34.35857009887695 -14.914824485778809 1.2131836414337158
29.540821075439453 -13.039451599121094 1.5429794788360596
34.430023193359375 -15.450824737548828 1.1856834888458252
34.41871643066406 -15.700241088867188 1.1750432252883911
34.431888580322266 -15.962270736694336 1.1625066995620728
34.45125961303711 -16.2288818359375 1.1493661403656006
34.43984603881836 -16.4825439453125 1.1382914781570435
34.45981216430664 -16.75282096862793 1.1247872114181519
34.48759841918945 -17.028823852539062 1.110541582107544
34.4758186340332 -17.287010192871094 1.0990276336669922
34.4150390625 -17.521697998046875 1.0909819602966309
34.3588752746582 -17.759498596191406 1.0824756622314453
34.44246292114258 -18.07145118713379 1.0634187459945679
34.40019989013672 -18.319429397583008 1.0535690784454346
34.44221115112305 -18.61406135559082 1.0372295379638672
34.41627883911133 -18.87391471862793 1.0258327722549438
30.816255569458008 -17.146482467651367 1.286487340927124
34.58897399902344 -19.524734497070312 0.9853792786598206
34.58163833618164 -19.801483154296875 0.9719878435134888
34.5523567199707 -20.067350387573242 0.9601156115531921
34.57698440551758 -20.36651611328125 0.943885087966919
34.57268524169922 -20.650880813598633 0.929706871509552
34.563629150390625 -20.934404373168945 0.9157114028930664
34.57109069824219 -21.230079650878906 0.9002201557159424
34.5262451171875 -21.49552345275879 0.8886794447898865
34.558746337890625 -21.811269760131836 0.870790958404541
34.57438278198242 -22.119081497192383 0.8540222644805908
34.61347579956055 -22.444732666015625 0.8351315259933472
34.626522064208984 -22.756351470947266 0.818107008934021
34.563133239746094 -23.019750595092773 0.8071004748344421
34.73183822631836 -23.44118309020996 0.7768419981002808
34.74348068237305 -23.76078987121582 0.7591872811317444
34.75168228149414 -24.08085060119629 0.7415761351585388
34.749908447265625 -24.396743774414062 0.7245556712150574
34.81953048706055 -24.766141891479492 0.7012827396392822
34.79850387573242 -25.07431983947754 0.6853737831115723
34.83784866333008 -25.429048538208008 0.6640897393226624
34.833229064941406 -25.75494956970215 0.6462806463241577
34.819522857666016 -26.076967239379883 0.6289995908737183
34.84370422363281 -26.430530548095703 0.608178973197937
34.855350494384766 -26.778076171875 0.5881571173667908
34.87348556518555 -27.13410758972168 0.5672756433486938
34.876792907714844 -27.482105255126953 0.547403872013092
34.894290924072266 -27.844850540161133 0.5259789228439331
34.81863021850586 -28.136106491088867 0.5125900506973267
34.77621841430664 -28.456544876098633 0.4959920644760132
34.879425048828125 -28.900360107421875 0.46591559052467346
34.87913131713867 -29.263151168823242 0.4448661506175995
34.916744232177734 -29.661897659301758 0.4200121760368347
34.9371452331543 -30.05049705505371 0.3963814079761505
34.90744400024414 -30.39983558654785 0.3770676553249359
34.884483337402344 -30.758516311645508 0.3568207323551178
34.926143646240234 -31.178508758544922 0.3301464021205902
34.73157501220703 -31.39014434814453 0.3255636692047119
34.964027404785156 -31.992475509643555 0.27992409467697144
34.90790939331055 -32.33716583251953 0.26147589087486267
35.044586181640625 -32.86592102050781 0.2239711880683899
34.94386672973633 -33.17709732055664 0.20915383100509644
32.34104919433594 30.8583984375 1.4900999069213867
32.3775520324707 30.516252517700195 1.4961446523666382
32.32992935180664 30.099279403686523 1.5075364112854004
32.449729919433594 29.841581344604492 1.507737398147583
32.50548553466797 29.527130126953125 1.5119825601577759
32.4664192199707 29.13040542602539 1.5222282409667969
32.40652847290039 28.720041275024414 1.533617615699768
32.56154251098633 28.502958297729492 1.530918836593628
32.56248474121094 28.153093338012695 1.5380222797393799
32.57936096191406 27.820507049560547 1.5439268350601196
32.589569091796875 27.48556137084961 1.5500894784927368
32.61301803588867 27.164960861206055 1.555241346359253
32.626827239990234 26.839399337768555 1.5608466863632202
32.626251220703125 26.505250930786133 1.5672030448913574
32.64851379394531 26.192745208740234 1.5719531774520874
32.641563415527344 25.859880447387695 1.5783923864364624
32.677391052246094 25.56378173828125 1.5819854736328125
32.68236541748047 25.24623680114746 1.5873684883117676
32.70294952392578 24.943527221679688 1.5916271209716797
32.7242431640625 24.643924713134766 1.5956977605819702
32.72627258300781 24.332481384277344 1.6008261442184448
32.71041488647461 24.010717391967773 1.6069175004959106
32.52040100097656 23.565824508666992 1.6236261129379272
32.5658073425293 23.295589447021484 1.6256229877471924
32.6580810546875 23.060251235961914 1.6246129274368286
32.60120391845703 22.721866607666016 1.6326467990875244
32.71503448486328 22.504484176635742 1.6300781965255737
32.702659606933594 22.20184898376465 1.6351206302642822
32.71021270751953 21.915225982666016 1.6388145685195923
32.70881652832031 21.62493896484375 1.6429277658462524
32.711788177490234 21.339862823486328 1.6466487646102905
32.77632522583008 21.09664535522461 1.6465142965316772
32.78852844238281 20.82131576538086 1.6494390964508057
32.770660400390625 20.529138565063477 1.6540619134902954
32.77339172363281 20.25213623046875 1.6573196649551392
32.654571533203125 19.903108596801758 1.6677768230438232
32.6088981628418 19.60209846496582 1.6736996173858643
32.80989456176758 19.450088500976562 1.6646969318389893
32.83522415161133 19.194034576416016 1.6661436557769775
32.87163543701172 18.94588279724121 1.6668204069137573
32.87063980102539 18.677780151367188 1.66962730884552
32.81532287597656 18.381120681762695 1.6755661964416504
32.87913131713867 18.152938842773438 1.6742901802062988
32.98523712158203 17.94852638244629 1.67039954662323
33.027584075927734 17.709993362426758 1.6702086925506592
33.03028106689453 17.45155143737793 1.672273874282837
33.04168701171875 17.199277877807617 1.6737189292907715
33.042354583740234 16.94296646118164 1.6756988763809204
33.05539321899414 16.69449806213379 1.6768465042114258
33.075565338134766 16.450950622558594 1.6774723529815674
33.08592987060547 16.203832626342773 1.678581714630127
33.09361267089844 15.956772804260254 1.6797515153884888
33.10673141479492 15.713654518127441 1.6805051565170288
33.116302490234375 15.470131874084473 1.6813715696334839
33.127769470214844 15.22874927520752 1.6820322275161743
33.15116882324219 14.99398136138916 1.681897521018982
33.08991622924805 14.722559928894043 1.6866507530212402
33.13179016113281 14.498492240905762 1.6852428913116455
33.12079620361328 14.252361297607422 1.6868529319763184
33.155860900878906 14.027141571044922 1.6856658458709717
33.170963287353516 13.794358253479004 1.685562014579773
33.20018005371094 13.568341255187988 1.6845401525497437
33.215824127197266 13.337644577026367 1.6842273473739624
33.093345642089844 13.053407669067383 1.691929578781128
33.126930236816406 12.832493782043457 1.6903877258300781
33.50062561035156 12.741576194763184 1.668812870979309
33.67799758911133 12.573212623596191 1.6586703062057495
33.70642852783203 12.348875999450684 1.6571754217147827
33.73337173461914 12.124664306640625 1.655681848526001
33.7503662109375 11.89759635925293 1.6546860933303833
33.75545883178711 11.66718864440918 1.6543021202087402
33.758056640625 11.436844825744629 1.6539788246154785
33.777103424072266 11.212884902954102 1.6526076793670654
33.79277801513672 10.988502502441406 1.6513487100601196
33.786991119384766 10.757987022399902 1.651266098022461
33.80062484741211 10.534492492675781 1.6499601602554321
33.80801010131836 10.30977725982666 1.6489384174346924
33.79095458984375 10.078518867492676 1.6492695808410645
33.817386627197266 9.860993385314941 1.6469650268554688
33.832820892333984 9.640785217285156 1.645222783088684
33.85163497924805 9.422096252441406 1.6432009935379028
33.854591369628906 9.199610710144043 1.6420303583145142
33.858985900878906 8.97821044921875 1.6406937837600708
33.87160873413086 8.759601593017578 1.6387921571731567
33.88185501098633 8.540928840637207 1.6369496583938599
33.891666412353516 8.322698593139648 1.6350524425506592
33.89619445800781 8.103738784790039 1.6333872079849243
33.90416717529297 7.886167526245117 1.6314377784729004
33.89809799194336 7.665938377380371 1.6302400827407837
33.92180252075195 7.452935218811035 1.6272021532058716
33.94514846801758 7.240137100219727 1.6241053342819214
33.95249557495117 7.02429723739624 1.6218737363815308
33.95945358276367 6.808835029602051 1.6195883750915527
33.970924377441406 6.594691276550293 1.6169545650482178
33.96240234375 6.377161979675293 1.6154296398162842
33.992767333984375 6.167290687561035 1.6115144491195679
34.00315475463867 5.954013347625732 1.608707308769226
34.01219940185547 5.74083948135376 1.6059010028839111
34.017940521240234 5.527457237243652 1.6032122373580933
34.021366119384766 5.314064979553223 1.6005845069885254
34.008636474609375 5.0986175537109375 1.5988438129425049
34.02814483642578 4.888350963592529 1.5950965881347656
34.04635238647461 4.678035259246826 1.5913466215133667
34.05534362792969 4.466640472412109 1.5880706310272217
34.06302261352539 4.25531005859375 1.5847933292388916
34.07929992675781 4.045228004455566 1.580918550491333
33.52787780761719 3.7713866233825684 1.6112059354782104
33.51736831665039 3.562173843383789 1.6088389158248901
33.580047607421875 3.360687017440796 1.6019694805145264
33.637535095214844 3.1581902503967285 1.5953257083892822
33.65402603149414 2.9516239166259766 1.591082215309143
33.6652717590332 2.744647979736328 1.5870764255523682
33.6722526550293 2.5374186038970947 1.583250641822815
33.6719856262207 2.329792022705078 1.5797879695892334
33.67143630981445 2.1223254203796387 1.5762643814086914
33.66163635253906 1.9144980907440186 1.5732297897338867
33.672481536865234 1.707982063293457 1.568852424621582
13.034461975097656 0.580759584903717 2.8328373432159424
13.014740943908691 0.4999133050441742 2.8325531482696533
13.017462730407715 0.4200715124607086 2.8308589458465576
33.7351188659668 0.8822045922279358 1.5493426322937012
33.74262237548828 0.6753174066543579 1.5447628498077393
12.830078125 0.17779143154621124 2.8377180099487305
12.7589693069458 0.098531074821949 2.8405117988586426
33.76649475097656 0.05433838069438934 1.5304467678070068
12.659215927124023 -0.057549361139535904 2.8434126377105713
12.665513038635254 -0.13527420163154602 2.8413236141204834
33.785919189453125 -0.5674222111701965 1.5156632661819458
12.781437873840332 -0.293362021446228 2.830556869506836
33.812782287597656 -0.9829264283180237 1.5045135021209717
33.81980895996094 -1.190806269645691 1.4992132186889648
33.827545166015625 -1.398893117904663 1.493782639503479
12.575601577758789 -0.5976141691207886 2.8362009525299072
12.991150856018066 -0.6972452402114868 2.807891368865967
12.843073844909668 -0.7683422565460205 2.8153302669525146
12.885815620422363 -0.8502593636512756 2.810596227645874
33.877845764160156 -2.4435153007507324 1.4645863771438599
12.54190731048584 -0.9822605848312378 2.828549385070801
33.887516021728516 -2.862544059753418 1.4529582262039185
33.897865295410156 -3.072967529296875 1.446656346321106
12.762775421142578 -1.2362477779388428 2.8080062866210938
33.91859817504883 -3.4949238300323486 1.4337738752365112
13.347604751586914 -1.458389163017273 2.7655651569366455
13.776464462280273 -1.5908182859420776 2.7352418899536133
33.94873046875 -4.130753517150879 1.4138154983520508
13.196433067321777 -1.6881781816482544 2.76829195022583
33.958221435546875 -4.555403232574463 1.4007339477539062
33.95998764038086 -4.767916202545166 1.3942489624023438
33.972267150878906 -4.98236083984375 1.3869743347167969
33.988121032714844 -5.1978912353515625 1.3793638944625854
33.98684310913086 -5.411295413970947 1.3727924823760986
33.997013092041016 -5.626998424530029 1.3653615713119507
34.00090026855469 -5.84218692779541 1.3582502603530884
34.01717758178711 -6.060086250305176 1.3502095937728882
34.02322769165039 -6.276777267456055 1.3427519798278809
34.051414489746094 -6.498260974884033 1.33369779586792
34.029212951660156 -6.710675239562988 1.327945590019226
33.96854019165039 -6.915499687194824 1.3247172832489014
33.92517852783203 -7.123730182647705 1.3202323913574219
33.92832946777344 -7.342031002044678 1.3124831914901733
33.937862396240234 -7.562376022338867 1.304190754890442
33.99556350708008 -7.7944865226745605 1.2924723625183105
34.03712463378906 -8.024155616760254 1.2817370891571045
34.07229232788086 -8.25345516204834 1.271319031715393
34.077842712402344 -8.476505279541016 1.2628368139266968
34.09740447998047 -8.703883171081543 1.2532652616500854
34.090354919433594 -8.925251960754395 1.2454370260238647
34.11656188964844 -9.156171798706055 1.2351635694503784
34.11043167114258 -9.379286766052246 1.2270451784133911
34.100921630859375 -9.602130889892578 1.2190556526184082
34.118717193603516 -9.833500862121582 1.2090157270431519
34.13494873046875 -10.065452575683594 1.1989614963531494
34.12382507324219 -10.290196418762207 1.1907389163970947
34.1569938659668 -10.529291152954102 1.1792206764221191
34.1666145324707 -10.762287139892578 1.1692615747451782
34.1518669128418 -10.98846435546875 1.160940408706665
34.15932083129883 -11.222651481628418 1.1508904695510864
34.15194320678711 -11.452903747558594 1.141793966293335
34.17416763305664 -11.694147109985352 1.1304062604904175
34.1617431640625 -11.924588203430176 1.121425747871399
34.15904998779297 -12.159331321716309 1.1116046905517578
34.12569046020508 -12.383943557739258 1.1039273738861084
34.26769256591797 -12.674005508422852 1.083085536956787
34.294456481933594 -12.923710823059082 1.070635437965393
34.30453872680664 -13.168501853942871 1.0592831373214722
34.331478118896484 -13.421167373657227 1.0465166568756104
34.325096130371094 -13.662117004394531 1.0361136198043823
34.34939956665039 -13.916603088378906 1.023240327835083
34.34328079223633 -14.160115242004395 1.0125304460525513
34.354774475097656 -14.41218090057373 1.0003266334533691
34.35620880126953 -14.661396980285645 0.9887429475784302
34.36044692993164 -14.913158416748047 0.9767910242080688
29.52535629272461 -13.030616760253906 1.3405201435089111
34.42903137207031 -15.447881698608398 0.9477300643920898
34.40406036376953 -15.691057205200195 0.9375730752944946
34.426265716552734 -15.957159996032715 0.9235609769821167
34.43656921386719 -16.219451904296875 0.9103135466575623
34.451236724853516 -16.485483169555664 0.8965476751327515
34.43881607055664 -16.740095138549805 0.8847675323486328
34.48448181152344 -17.024757385253906 0.8681694269180298
34.4699821472168 -17.281553268432617 0.8562127947807312
34.39585494995117 -17.509403228759766 0.8489212393760681
34.3538932800293 -17.75439453125 0.8388937711715698
34.433868408203125 -18.06439971923828 0.8187537789344788
34.41535949707031 -18.324960708618164 0.8064579963684082
34.425655364990234 -18.60256576538086 0.7916147708892822
34.40672302246094 -18.86612319946289 0.7790005207061768
30.814191818237305 -17.143142700195312 1.0641872882843018
34.57755661010742 -19.515708923339844 0.7357558012008667
34.58750534057617 -19.802257537841797 0.7200867533683777
34.57712173461914 -20.079143524169922 0.7059305906295776
34.56033706665039 -20.3541202545166 0.6921231746673584
34.59713363647461 -20.66288185119629 0.6735404133796692
34.587921142578125 -20.94651222229004 0.6586704254150391
34.5756721496582 -21.230289459228516 0.6438574194908142
34.57647705078125 -21.524185180664062 0.627702534198761
34.59099197387695 -21.829002380371094 0.6101270318031311
34.551815032958984 -22.102027893066406 0.5970311760902405
34.612667083740234 -22.441579818725586 0.5749039649963379
34.61813735961914 -22.748207092285156 0.5574052929878235
34.565521240234375 -23.01871109008789 0.5448534488677979
34.68861389160156 -23.40935516357422 0.5163232684135437
34.74151611328125 -23.75678062438965 0.4937650263309479
34.74226760864258 -24.0716552734375 0.47564050555229187
34.74698257446289 -24.392017364501953 0.4568955898284912
34.80757522583008 -24.75495147705078 0.4327470660209656
34.79947280883789 -25.072330474853516 0.4146209955215454
34.82421875 -25.41640281677246 0.3931756019592285
34.80274200439453 -25.72970962524414 0.37575384974479675
34.82182312011719 -26.07598304748535 0.35425445437431335
34.84590148925781 -26.429481506347656 0.33197376132011414
34.84242248535156 -26.765426635742188 0.3119981586933136
34.86839294433594 -27.127422332763672 0.2889035940170288
34.862239837646484 -27.467905044555664 0.2685740292072296
34.85477066040039 -27.810579299926758 0.24806948006153107
34.75287628173828 -28.080244064331055 0.23648691177368164
34.748531341552734 -28.4311580657959 0.21511223912239075
34.88323211669922 -28.900754928588867 0.17964859306812286
34.898101806640625 -29.276308059692383 0.1556166112422943
34.89826583862305 -29.64344024658203 0.13269652426242828
34.88615798950195 -30.003870010375977 0.1106649711728096
30.32086753845215 -28.78544044494629 0.398266077041626
32.35509490966797 30.873300552368164 1.2231310606002808
32.340110778808594 30.48247718811035 1.2342395782470703
32.31718063354492 30.088926315307617 1.245696783065796
32.44792938232422 29.841463088989258 1.245604157447815
32.49186706542969 29.516311645507812 1.2517298460006714
32.45351791381836 29.120391845703125 1.2636711597442627
32.402587890625 28.718109130859375 1.276294469833374
32.54703903198242 28.49184799194336 1.2745188474655151
32.56531524658203 28.157135009765625 1.281726598739624
32.555660247802734 27.80187225341797 1.290751338005066
32.58867645263672 27.486419677734375 1.2965140342712402
32.606781005859375 27.16138458251953 1.3031641244888306
32.604393005371094 26.822572708129883 1.3110908269882202
32.6262092590332 26.506855010986328 1.317110538482666
32.64772033691406 26.193754196166992 1.3229765892028809
32.647064208984375 25.865888595581055 1.3302361965179443
32.66249465942383 25.553783416748047 1.3361854553222656
32.67849349975586 25.244909286499023 1.3419263362884521
32.70384216308594 24.945886611938477 1.3468480110168457
32.71639633178711 24.639694213867188 1.352502465248108
32.71760940551758 24.327733993530273 1.3587840795516968
32.73314666748047 24.029096603393555 1.3639087677001953
32.54737091064453 23.587053298950195 1.382799506187439
32.58397674560547 23.310279846191406 1.3861258029937744
32.6649055480957 23.06678009033203 1.3862605094909668
32.70230484008789 22.794042587280273 1.389257788658142
32.70057678222656 22.49625015258789 1.3947945833206177
32.690650939941406 22.195415496826172 1.4007418155670166
32.717254638671875 21.921669006347656 1.4040499925613403
32.72174835205078 21.635217666625977 1.4087258577346802
32.72480010986328 21.350082397460938 1.413358449935913
32.754974365234375 21.084640502929688 1.416014552116394
32.80335235595703 20.83247947692871 1.4173113107681274
32.80165100097656 20.550302505493164 1.4218614101409912
18.444400787353516 11.398038864135742 2.392369508743286
18.435394287109375 11.236878395080566 2.395318031311035
18.368635177612305 11.04230785369873 2.402062177658081
18.37833595275879 10.89531421661377 2.4036006927490234
32.82380294799805 19.189125061035156 1.4405710697174072
32.91035079956055 18.969974517822266 1.4384536743164062
32.87392807006836 18.681425094604492 1.4444199800491333
32.81953430175781 18.38525390625 1.4514493942260742
32.87112045288086 18.150297164916992 1.4513109922409058
32.97104263305664 17.94260025024414 1.4478586912155151
33.0203857421875 17.707937240600586 1.4476540088653564
33.012489318847656 17.44395637512207 1.4511244297027588
33.03181838989258 17.195953369140625 1.4526798725128174
33.02714920043945 16.936981201171875 1.4557068347930908
33.04906463623047 16.693115234375 1.4568674564361572
33.05671691894531 16.44339370727539 1.458856225013733
33.07152557373047 16.198598861694336 1.4602652788162231
33.080081939697266 15.952071189880371 1.4619773626327515
33.097679138183594 15.711186408996582 1.4629874229431152
33.109046936035156 15.468571662902832 1.4642995595932007
33.12776184082031 15.23058032989502 1.4650256633758545
33.15116882324219 14.995820045471191 1.465340495109558
33.125526428222656 14.740240097045898 1.4687587022781372
33.1190299987793 14.494746208190918 1.4708198308944702
33.114444732666016 14.25146484375 1.472652554512024
33.15316390991211 14.02784538269043 1.4715580940246582
33.17933654785156 13.799686431884766 1.4711835384368896
33.19655990600586 13.568713188171387 1.4712932109832764
33.234432220458984 13.346973419189453 1.4699599742889404
33.079566955566406 13.049816131591797 1.481072187423706
