# .PCD v0.7 - Point Cloud Data file format
VERSION 0.7
FIELDS x y z
SIZE 4 4 4
TYPE F F F
COUNT 1 1 1
WIDTH 852
HEIGHT 1
VIEWPOINT 0 0 0 1 0 0 0
POINTS 852
DATA ascii
34.88096237182617 -28.90163230895996 0.4657762050628662
34.88066101074219 -29.264434814453125 0.44472670555114746
34.91902542114258 -29.663835525512695 0.4198022484779358
34.931095123291016 -30.045291900634766 0.39694154262542725
34.90443420410156 -30.397216796875 0.3773483335971832
34.90319061279297 -30.775009155273438 0.35506364703178406
34.90605163574219 -31.160572052001953 0.3320465087890625
34.733055114746094 -31.391481399536133 0.3254224359989166
34.96549987792969 -31.99382209777832 0.27978232502937317
34.88522720336914 -32.3161506652832 0.26366740465164185
35.05477523803711 -32.8754768371582 0.2229800969362259
34.97135543823242 -33.20319747924805 0.20646007359027863
32.37067794799805 30.88667106628418 1.4881367683410645
32.38917922973633 30.52721405029297 1.4953759908676147
32.3101921081543 30.080902099609375 1.508833885192871
32.45708465576172 29.84834098815918 1.5072559118270874
32.51509475708008 29.53586196899414 1.5113554000854492
32.47905731201172 29.141746520996094 1.521406888961792
32.40951919555664 28.722692489624023 1.5334240198135376
32.55477523803711 28.49703598022461 1.531355857849121
32.566261291503906 28.15635871887207 1.5377793312072754
32.574806213378906 27.81661605834961 1.5442196130752563
32.594146728515625 27.489423751831055 1.5497968196868896
32.60150909423828 27.155372619628906 1.555975317955017
32.62836837768555 26.840669631958008 1.5607489347457886
32.626251220703125 26.505250930786133 1.5672030448913574
32.63916778564453 26.185245513916016 1.5725438594818115
32.66270065307617 25.876625061035156 1.5770612955093384
32.6876220703125 25.571781158447266 1.5813440084457397
32.68236541748047 25.24623680114746 1.5873684883117676
32.70532989501953 24.945344924926758 1.5914784669876099
32.72184753417969 24.642122268676758 1.5958473682403564
32.716651916503906 24.325332641601562 1.6014236211776733
32.719268798828125 24.01721954345703 1.6063693761825562
32.52848815917969 23.571683883666992 1.6231259107589722
32.57880783081055 23.304887771606445 1.6248208284378052
32.66542053222656 23.06543731689453 1.6241607666015625
32.608577728271484 22.727006912231445 1.6321943998336792
32.723262786865234 22.510143280029297 1.6295745372772217
32.719181060791016 22.21306610107422 1.6341108083724976
32.70274353027344 21.91022300720215 1.6392699480056763
32.71464538574219 21.628795623779297 1.6425725221633911
32.72935485839844 21.351320266723633 1.645581841468811
32.765411376953125 21.089618682861328 1.647176742553711
32.75312042236328 20.798830032348633 1.651581883430481
32.78759002685547 20.53974151611328 1.6530394554138184
32.77763748168945 20.2547607421875 1.6570631265640259
32.655426025390625 19.903629302978516 1.6677254438400269
32.600337982177734 19.596952438354492 1.674214243888855
32.79958724975586 19.4439754486084 1.6653152704238892
32.84557342529297 19.200082778930664 1.6655237674713135
32.87769317626953 18.949373245239258 1.6664576530456543
32.874114990234375 18.67975425720215 1.6694201231002808
32.80487060546875 18.375263214111328 1.6761901378631592
32.87126541137695 18.14859390258789 1.674758791923523
32.976463317871094 17.943754196166992 1.6709219217300415
33.01350021362305 17.702442169189453 1.6710460186004639
33.01968765258789 17.445953369140625 1.6729021072387695
33.038143157958984 17.19743537902832 1.6739290952682495
33.0485725402832 16.946155548095703 1.6753307580947876
33.073219299316406 16.70349884033203 1.6757913827896118
33.0702018737793 16.44828224182129 1.6777894496917725
33.081443786621094 16.201637268066406 1.6788463592529297
33.08641815185547 15.9533052444458 1.6801767349243164
33.10582733154297 15.713227272033691 1.6805585622787476
33.123538970947266 15.473512649536133 1.6809452772140503
33.13321304321289 15.23125171661377 1.68171226978302
33.17209243774414 15.003446578979492 1.680665135383606
33.12276077270508 14.737173080444336 1.6847180128097534
33.10800552368164 14.488083839416504 1.6866416931152344
33.13639450073242 14.259069442749023 1.6859359741210938
33.14574432373047 14.022860527038574 1.6862595081329346
33.17926025390625 13.797809600830078 1.6850743293762207
33.19278335571289 13.56531810760498 1.6849744319915771
33.21952819824219 13.339133262634277 1.6840095520019531
33.09056091308594 13.052309036254883 1.6920939683914185
33.134376525878906 12.835379600524902 1.6899515390396118
33.544490814208984 12.758259773254395 1.6662405729293823
33.67706298828125 12.57286262512207 1.6587251424789429
33.712989807128906 12.351280212402344 1.656791090965271
33.74089050292969 12.127366065979004 1.6552410125732422
33.74188995361328 11.894608497619629 1.65518319606781
33.74979782104492 11.665230751037598 1.6546331644058228
33.75238037109375 11.43492317199707 1.6543117761611938
33.759098052978516 11.206908226013184 1.6536630392074585
33.769039154052734 10.980783462524414 1.6527411937713623
33.791748046875 10.759502410888672 1.650987148284912
33.805389404296875 10.535978317260742 1.6496806144714355
33.80896759033203 10.310068130493164 1.6488828659057617
33.80722427368164 10.083370208740234 1.6483142375946045
33.82217788696289 9.862390518188477 1.6466830968856812
33.839542388916016 9.6427001953125 1.64482843875885
33.858367919921875 9.423970222473145 1.6428052186965942
33.85844421386719 9.200657844543457 1.6418031454086304
33.86574172973633 8.980001449584961 1.6402958631515503
33.880306243896484 8.76185131072998 1.638279676437378
33.883792877197266 8.541417121887207 1.6368354558944702
33.895545959472656 8.323650360107422 1.6348239183425903
33.899105072021484 8.104435920715332 1.6332149505615234
33.89833450317383 7.884809970855713 1.6317830085754395
33.904911041259766 7.667479991912842 1.629837155342102
33.92180252075195 7.452935218811035 1.6272021532058716
33.94417190551758 7.23992919921875 1.6241627931594849
33.9583625793457 7.025510787963867 1.621526837348938
33.970218658447266 6.8109941482543945 1.6189491748809814
33.96112060546875 6.5927886962890625 1.6175364255905151
33.96240234375 6.377161979675293 1.6154296398162842
33.98589324951172 6.166042804718018 1.611923098564148
33.99528884887695 5.952635765075684 1.6091760396957397
34.00334167480469 5.739344120025635 1.6064285039901733
34.01301574707031 5.5266571044921875 1.6035064458847046
34.020381927490234 5.313911437988281 1.6006429195404053
34.01752471923828 5.099949836730957 1.5983128547668457
34.02616882324219 4.888067245483398 1.5952154397964478
34.04140853881836 4.677356243133545 1.5916439294815063
34.05534362792969 4.466640472412109 1.5880706310272217
34.07193374633789 4.256423473358154 1.5842570066452026
34.082275390625 4.045581340789795 1.5807396173477173
33.56359100341797 3.7754037380218506 1.6090518236160278
33.50942611694336 3.5613298416137695 1.6093189716339111
33.56813049316406 3.3594939708709717 1.6026908159255981
33.64052200317383 3.1584699153900146 1.5951448678970337
33.65104293823242 2.951362371444702 1.5912625789642334
33.66328048706055 2.744485855102539 1.5871973037719727
33.67424392700195 2.5375685691833496 1.5831295251846313
33.68095016479492 2.3304121494293213 1.5792412757873535
33.68040084838867 2.1228907108306885 1.5757168531417847
33.65565490722656 1.914157748222351 1.5735949277877808
33.660518646240234 1.7073750495910645 1.5695856809616089
13.034461975097656 0.580759584903717 2.8328373432159424
13.014740943908691 0.4999133050441742 2.8325531482696533
13.024445533752441 0.4202970564365387 2.8304283618927
33.72614288330078 0.8819696307182312 1.5498971939086914
33.73963165283203 0.6752573251724243 1.5449482202529907
12.820097923278809 0.17765279114246368 2.838336944580078
12.745994567871094 0.09843045473098755 2.841318130493164
33.757511138916016 0.054323818534612656 1.5310052633285522
12.674186706542969 -0.057616908103227615 2.8424782752990723
12.665513038635254 -0.13527420163154602 2.8413236141204834
33.7909049987793 -0.5675058960914612 1.515350341796875
12.776448249816895 -0.29324766993522644 2.8308701515197754
33.80978775024414 -0.9828395247459412 1.504701852798462
33.81282424926758 -1.1905603408813477 1.4996535778045654
33.812583923339844 -1.3982746601104736 1.4947283267974854
12.585570335388184 -0.5980875492095947 2.835568904876709
13.004105567932129 -0.6979401707649231 2.80706787109375
12.848053932189941 -0.7686401009559631 2.8150129318237305
12.898760795593262 -0.8511130809783936 2.80976939201355
33.87685012817383 -2.443443536758423 1.464650273323059
12.54389762878418 -0.9824163913726807 2.8284215927124023
33.89348602294922 -2.8630480766296387 1.4525744915008545
33.889915466308594 -3.072246789932251 1.4471688270568848
12.748869895935059 -1.2349013090133667 2.808905839920044
33.894771575927734 -3.492469072341919 1.4353187084197998
13.336691856384277 -1.4571971893310547 2.7662746906280518
13.797282218933105 -1.5932215452194214 2.733884572982788
33.929908752441406 -4.128464221954346 1.4150460958480835
13.22018814086914 -1.6912164688110352 2.7667343616485596
33.96019744873047 -4.55566930770874 1.400604009628296
33.96196365356445 -4.76819372177124 1.3941187858581543
33.96733093261719 -4.981637001037598 1.3873004913330078
34.0029182434082 -5.200153827667236 1.378382682800293
34.00063705444336 -5.413492202758789 1.3718749284744263
33.99504470825195 -5.626672744750977 1.365492582321167
33.99795150756836 -5.84168004989624 1.3584479093551636
34.01128387451172 -6.0590362548828125 1.3506052494049072
34.03303909301758 -6.278587341308594 1.3420910835266113
34.0484733581543 -6.49769926071167 1.3338961601257324
34.0164909362793 -6.708165645599365 1.3288073539733887
33.962669372558594 -6.914305686950684 1.3251162767410278
33.92322540283203 -7.123320579528809 1.32036554813385
33.92930221557617 -7.342242240905762 1.312416672706604
33.947601318359375 -7.56454610824585 1.3035221099853516
33.984867095947266 -7.792033672332764 1.293209195137024
34.04489517211914 -8.025986671447754 1.2812001705169678
34.08198928833008 -8.255804061889648 1.2706469297409058
34.06525802612305 -8.47337532043457 1.2637128829956055
34.10610580444336 -8.706104278564453 1.2526575326919556
34.0913200378418 -8.925504684448242 1.2453693151474
34.127159118652344 -9.159016609191895 1.2344183921813965
34.11235427856445 -9.379816055297852 1.2269096374511719
34.10572052001953 -9.603482246398926 1.2187156677246094
34.132137298583984 -9.837369918823242 1.2080621719360352
34.13112258911133 -10.064324378967285 1.199233889579773
34.11427688598633 -10.28731632232666 1.1914222240447998
34.15985107421875 -10.530173301696777 1.1790145635604858
34.172325134277344 -10.764084815979004 1.1688499450683594
34.15471649169922 -10.989380836486816 1.1607338190078735
34.15742492675781 -11.222028732299805 1.1510282754898071
34.15194320678711 -11.452903747558594 1.141793966293335
34.1666145324707 -11.691563606262207 1.130958914756775
34.16268539428711 -11.92491626739502 1.1213563680648804
34.15623092651367 -12.15832805633545 1.111812949180603
34.1453857421875 -12.391090393066406 1.1024672985076904
34.289215087890625 -12.681963920593262 1.0814837217330933
34.30099105834961 -12.92617416381836 1.070147156715393
34.31385040283203 -13.172076225280762 1.058584213256836
34.32683563232422 -13.419350624084473 1.046866536140442
34.33992385864258 -13.66801929473877 1.0349915027618408
34.34939956665039 -13.916603088378906 1.023240327835083
34.35895919799805 -14.166580200195312 1.011333703994751
34.36397933959961 -14.41603946685791 0.9996220469474792
34.3470344543457 -14.657482147216797 0.9894488453865051
34.367767333984375 -14.916336059570312 0.9762248992919922
29.529918670654297 -13.032630920410156 1.340165615081787
34.430850982666016 -15.448698997497559 0.9475880861282349
34.4203987121582 -15.698507308959961 0.9362926483154297
34.433502197265625 -15.960515022277832 0.9229913949966431
34.424835205078125 -16.213924407958984 0.9112411141395569
34.460235595703125 -16.48978614807129 0.8958326578140259
34.4576530456543 -16.749250411987305 0.8832643032073975
34.473751068115234 -17.019458770751953 0.8690298795700073
34.475337982177734 -17.284236907958984 0.8557817339897156
34.41096496582031 -17.5170955657959 0.8476979732513428
34.362754821777344 -17.758975982666016 0.8381732106208801
34.428565979003906 -18.06161880493164 0.8191867470741272
34.41712188720703 -18.325897216796875 0.8063132762908936
34.425655364990234 -18.60256576538086 0.7916147708892822
34.38748550415039 -18.855575561523438 0.7805968523025513
30.823776245117188 -17.148475646972656 1.0633878707885742
34.57842254638672 -19.516197204589844 0.7356828451156616
34.58490753173828 -19.800769805908203 0.7203056812286377
34.55297088623047 -20.065120697021484 0.7079747319221497
34.586978912353516 -20.369808197021484 0.6898561716079712
34.57743835449219 -20.651121139526367 0.6752252578735352
34.605831146240234 -20.957361221313477 0.6571301817893982
34.56462097167969 -21.22350311279297 0.6448124051094055
34.572242736816406 -21.52155113220215 0.6280708312988281
34.59605026245117 -21.832197189331055 0.6096847057342529
34.540889739990234 -22.095043182373047 0.5979909896850586
34.59258270263672 -22.428560256958008 0.576678454875946
34.623138427734375 -22.751493453979492 0.5569605827331543
34.56801223754883 -23.020370483398438 0.5446309447288513
34.65885543823242 -23.38927459716797 0.5189980268478394
34.734107971191406 -23.7517147064209 0.4944343864917755
34.74062728881836 -24.070520401000977 0.4757883846759796
34.7453498840332 -24.390872955322266 0.4570451080799103
34.84252166748047 -24.779802322387695 0.4295335114002228
34.78410339355469 -25.061254501342773 0.41604238748550415
34.80730438232422 -25.404056549072266 0.3947502374649048
34.81156539916992 -25.736228942871094 0.3749282658100128
34.83140563964844 -26.08315658569336 0.3533526360988617
34.85622787475586 -26.437314987182617 0.3309948742389679
34.863773345947266 -26.78182601928711 0.30996260046958923
34.851863861083984 -27.11456298828125 0.29048874974250793
34.82464599609375 -27.438283920288086 0.2722035348415375
34.870361328125 -27.823015213012695 0.24655486643314362
34.72495651245117 -28.05768394470215 0.23921653628349304
34.75162124633789 -28.433685302734375 0.21480891108512878
34.855587005615234 -28.87785530090332 0.18238525092601776
34.89504623413086 -29.27374267578125 0.155921071767807
34.89142608642578 -29.637630462646484 0.13338248431682587
34.8725471496582 -29.99216651916504 0.11203859746456146
30.305683135986328 -28.771026611328125 0.39988645911216736
32.35798645019531 30.876056671142578 1.2229163646697998
32.38371276855469 30.523574829101562 1.2310054302215576
32.319374084472656 30.090967178344727 1.2455345392227173
32.458953857421875 29.851600646972656 1.2447928190231323
32.50147247314453 29.525039672851562 1.2510253190994263
32.45872497558594 29.125059127807617 1.263291358947754
32.39884948730469 28.714797973632812 1.2765666246414185
32.544036865234375 28.489215850830078 1.2747364044189453
32.54945373535156 28.143421173095703 1.2828720808029175
32.57768249511719 27.820676803588867 1.2891669273376465
32.589439392089844 27.487062454223633 1.2964589595794678
32.602943420410156 27.158187866210938 1.30343759059906
32.61056137084961 26.827648162841797 1.3106509447097778
32.633182525634766 26.51251983642578 1.3166149854660034
32.64460754394531 26.191255569458008 1.3231977224349976
32.65254211425781 25.870227813720703 1.3298500776290894
32.67428970336914 25.56301498413086 1.335355520248413
32.68797302246094 25.252235412597656 1.3412612676620483
32.69908142089844 24.94225311279297 1.347180962562561
32.707618713378906 24.633085250854492 1.3531149625778198
32.72962951660156 24.336669921875 1.3579477071762085
32.75004577636719 24.04150390625 1.3627365827560425
32.53443908691406 23.577678680419922 1.3836939334869385
32.58966064453125 23.314346313476562 1.3857336044311523
32.679588317871094 23.077146530151367 1.3852506875991821
32.68510818481445 22.782052993774414 1.3904379606246948
32.70798110961914 22.5013427734375 1.3942874670028687
32.678260803222656 22.18700408935547 1.4015885591506958
32.72222900390625 21.925003051757812 1.4037115573883057
32.73507308959961 21.64402961730957 1.4078197479248047
32.743194580078125 21.362083435058594 1.4121098518371582
32.771759033203125 21.095449447631836 1.414878249168396
32.78986740112305 20.82391357421875 1.418222427368164
32.79826736450195 20.548181533813477 1.4220889806747437
18.41552734375 11.380193710327148 2.394312620162964
18.406410217285156 11.219210624694824 2.3972647190093994
18.396869659423828 11.059283256530762 2.4001693725585938
18.377477645874023 10.894805908203125 2.403658390045166
32.83500671386719 19.195674896240234 1.4398225545883179
32.917266845703125 18.973962783813477 1.4379923343658447
32.88694763183594 18.688825607299805 1.443552851676941
32.8160514831543 18.383304595947266 1.451681137084961
32.87199401855469 18.150781631469727 1.4512532949447632
32.971920013427734 17.943077087402344 1.4478000402450562
33.00102996826172 17.697555541992188 1.44893479347229
33.01866912841797 17.447221755981445 1.4507163763046265
33.037132263183594 17.198720932006836 1.4523295164108276
33.04846954345703 16.947914123535156 1.4543002843856812
33.059757232666016 16.698516845703125 1.456162691116333
33.055824279785156 16.442949295043945 1.4589154720306396
33.059871673583984 16.192890167236328 1.461031436920166
33.07378387451172 15.94903564453125 1.4623900651931763
33.097679138183594 15.711186408996582 1.4629874229431152
33.10091018676758 15.464768409729004 1.4648330211639404
33.116878509521484 15.225576400756836 1.4657381772994995
33.16117477416992 15.000346183776855 1.464686632156372
33.10546112060547 14.731311798095703 1.4700701236724854
33.11445617675781 14.492745399475098 1.4711183309555054
33.12452697753906 14.255805969238281 1.4719935655593872
33.15684127807617 14.029401779174805 1.4713178873062134
33.16827392578125 13.795085906982422 1.4719041585922241
33.18824768066406 13.565312385559082 1.4718348979949951
33.2177619934082 13.340276718139648 1.4710452556610107
33.07585144042969 13.04835033416748 1.4813144207000732
33.12055969238281 12.83187484741211 1.4793378114700317
33.526771545410156 12.75340461730957 1.453763484954834
33.66861343383789 12.571606636047363 1.4452929496765137
33.71389389038086 12.353514671325684 1.4430054426193237
33.73240661621094 12.126220703125 1.4423619508743286
33.73716354370117 11.89484977722168 1.4425159692764282
33.756385803222656 11.669419288635254 1.4416348934173584
33.740089416503906 11.43266773223877 1.4429665803909302
33.75246810913086 11.206619262695312 1.442341923713684
33.777591705322266 10.985479354858398 1.4407964944839478
33.79365921020508 10.762028694152832 1.4397447109222412
33.79777908325195 10.53552532196045 1.4393774271011353
33.7994384765625 10.30908489227295 1.4390769004821777
33.79290008544922 10.081021308898926 1.4392176866531372
33.82316589355469 9.864603996276855 1.436876893043518
33.816532135009766 9.638071060180664 1.4368414878845215
33.84493637084961 9.422161102294922 1.4344394207000732
33.8555908203125 9.201814651489258 1.4331001043319702
33.85710144042969 8.979643821716309 1.4322658777236938
33.86778259277344 8.76054859161377 1.430745244026184
33.87318801879883 8.540681838989258 1.429478645324707
33.881046295166016 8.322030067443848 1.4279636144638062
33.884586334228516 8.102906227111816 1.4266408681869507
33.894493103027344 7.88585901260376 1.4248155355453491
33.90787887573242 7.670096397399902 1.4226748943328857
33.921844482421875 7.454892635345459 1.4204076528549194
33.94225311279297 7.241470813751221 1.417631983757019
33.95155334472656 7.026054859161377 1.415493369102478
33.96144104003906 6.811188220977783 1.4132285118103027
33.96409225463867 6.5953216552734375 1.4113496541976929
33.955570220947266 6.377835273742676 1.4101152420043945
33.9741325378418 6.165868282318115 1.4070210456848145
33.98744201660156 5.953224182128906 1.4041825532913208
33.9954833984375 5.7399821281433105 1.4016026258468628
34.00712203979492 5.5276641845703125 1.3986998796463013
34.00855255126953 5.31403112411499 1.3963810205459595
34.0106201171875 5.100882530212402 1.3939337730407715
34.0212287902832 4.889327526092529 1.3908377885818481
34.0404052734375 4.679192066192627 1.3870887756347656
34.05037307739258 4.4679646492004395 1.383859395980835
34.05506896972656 4.256294250488281 1.3808921575546265
34.076290130615234 4.04685115814209 1.376744031906128
33.54787826538086 3.7755744457244873 1.4089540243148804
33.50959777832031 3.563284397125244 1.4086247682571411
33.561317443847656 3.3607544898986816 1.402233362197876
33.62174606323242 3.158656120300293 1.3951689004898071
33.643184661865234 2.952624559402466 1.390607237815857
33.65242004394531 2.745554208755493 1.3867714405059814
33.66237258911133 2.538630247116089 1.3828009366989136
33.67403793334961 2.331892490386963 1.3786283731460571
33.65456008911133 2.1232197284698486 1.3764573335647583
33.65470886230469 1.9160640239715576 1.3728855848312378
33.6595573425293 1.7092881202697754 1.368911623954773
33.67012023925781 1.5028349161148071 1.3644654750823975
33.67641830444336 1.2961993217468262 1.3602190017700195
19.26791000366211 0.6227516531944275 2.3306596279144287
13.03065013885498 0.3407590687274933 2.7508974075317383
33.7306022644043 0.677051842212677 1.3445552587509155
12.393171310424805 0.17192883789539337 2.791044235229492
33.75772476196289 0.26338014006614685 1.3342678546905518
33.76340103149414 0.05631618946790695 1.3295246362686157
12.741106986999512 -0.057681743055582047 2.7624568939208984
33.77592468261719 -0.35804101824760437 1.3196884393692017
33.775787353515625 -0.5652633309364319 1.3150734901428223
12.819347381591797 -0.2939854562282562 2.7518415451049805
33.80560302734375 -0.9807232022285461 1.303501844406128
33.814605712890625 -1.1886258125305176 1.2979811429977417
33.82232666015625 -1.3966774940490723 1.2924565076828003
33.73110580444336 -1.6002411842346191 1.2937018871307373
12.831643104553223 -0.6884403824806213 2.7415261268615723
12.899761199951172 -0.7714763283729553 2.734781503677368
12.869787216186523 -0.8489489555358887 2.734830617904663
12.816466331481934 -0.9244351983070374 2.736488103866577
12.497167587280273 -0.978534996509552 2.756788969039917
33.88315200805664 -2.8601572513580322 1.2506564855575562
12.822776794433594 -1.1624497175216675 2.7296302318573
12.739832878112793 -1.233781337738037 2.733281135559082
12.775572776794434 -1.3163979053497314 2.7285163402557373
13.922388076782227 -1.5208275318145752 2.644789695739746
13.991948127746582 -1.6153427362442017 2.6373167037963867
33.93629837036133 -4.127206802368164 1.2109391689300537
12.668724060058594 -1.6204466819763184 2.7268407344818115
12.626795768737793 -1.6938841342926025 2.7274458408355713
12.60815143585205 -1.7701952457427979 2.7263541221618652
12.592005729675293 -1.846776008605957 2.7250518798828125
12.584271430969238 -1.9245823621749878 2.723109483718872
12.53271198272705 -1.9954673051834106 2.7243118286132812
12.502409934997559 -2.0693743228912354 2.7239503860473633
33.99422836303711 -5.83898401260376 1.1531646251678467
29.234169006347656 -5.206410884857178 1.4943230152130127
34.03611755371094 -6.277090072631836 1.1356419324874878
34.039756774902344 -6.4939680099487305 1.1279795169830322
34.00580596923828 -6.703991889953613 1.1229839324951172
33.95003890991211 -6.909669399261475 1.1195093393325806
33.91547393798828 -7.119628429412842 1.1143749952316284
33.92639923095703 -7.339546203613281 1.1057552099227905
33.95147705078125 -7.5633368492126465 1.095961570739746
33.97508239746094 -7.787713050842285 1.0861536264419556
34.049625396728516 -8.025016784667969 1.0723880529403687
34.05952453613281 -8.248272895812988 1.0633491277694702
34.068931579589844 -8.472195625305176 1.0542261600494385
34.095218658447266 -8.701229095458984 1.0436978340148926
34.10068893432617 -8.925856590270996 1.0346238613128662
34.11430740356445 -9.153463363647461 1.0248035192489624
34.1081428527832 -9.37655258178711 1.0163718461990356
34.10436248779297 -9.600991249084473 1.007637619972229
34.133602142333984 -9.835679054260254 0.996228814125061
34.12681198120117 -10.06093692779541 0.9874729514122009
34.12139892578125 -10.287344932556152 0.9784864187240601
34.16594696044922 -10.529928207397461 0.9654711484909058
34.150779724121094 -10.755171775817871 0.9569822549819946
34.14931869506836 -10.985514640808105 0.9472928643226624
34.1605224609375 -11.220911979675293 0.9364702105522156
34.1540412902832 -11.451473236083984 0.9269076585769653
34.15167999267578 -11.684313774108887 0.9168855547904968
34.18257141113281 -11.929715156555176 0.9040711522102356
34.156307220458984 -12.156210899353027 0.8956799507141113
34.13417434692383 -12.384875297546387 0.8868314027786255
34.198421478271484 -12.646233558654785 0.8708744049072266
34.28593826293945 -12.918336868286133 0.8528459072113037
34.30064392089844 -13.164837837219238 0.8405422568321228
34.31360626220703 -13.412006378173828 0.8282220363616943
34.31370544433594 -13.65540599822998 0.8167986869812012
34.32503890991211 -13.904552459716797 0.8042944669723511
34.32999801635742 -14.152453422546387 0.7921573519706726
34.353424072265625 -14.409423828125 0.7783232927322388
34.33004379272461 -14.648040771484375 0.7682201266288757
34.35716247558594 -14.909537315368652 0.7537394165992737
29.51122283935547 -13.022616386413574 1.1492977142333984
34.421993255615234 -15.442513465881348 0.723330020904541
34.406070709228516 -15.689762115478516 0.7119420170783997
34.40920639038086 -15.947038650512695 0.6987695693969727
34.424007415771484 -16.211315155029297 0.684421718120575
34.43145751953125 -16.473793029785156 0.6705198884010315
34.449527740478516 -16.743072509765625 0.6555143594741821
34.46826171875 -17.014516830444336 0.640255868434906
34.46089553833008 -17.27475929260254 0.6270761489868164
34.391204833984375 -17.504802703857422 0.6191772818565369
34.36161422729492 -17.756149291992188 0.6076155304908752
34.430877685546875 -18.06058692932129 0.5871394276618958
34.391204833984375 -18.30985450744629 0.5760939121246338
34.40677261352539 -18.59011459350586 0.5599492788314819
34.41144943237305 -18.86646270751953 0.5445683002471924
30.808116912841797 -17.137840270996094 0.8544511795043945
34.588993072509766 -19.51988983154297 0.4979294240474701
34.57028579711914 -19.79012107849121 0.4839666485786438
34.57110595703125 -20.07337188720703 0.46801766753196716
34.57490158081055 -20.360408782958984 0.4515746533870697
34.608985900878906 -20.66767120361328 0.4321029484272003
34.60563659667969 -20.954946517944336 0.4158537685871124
34.62129211425781 -21.255996704101562 0.397601455450058
34.57783889770508 -21.522735595703125 0.3846524953842163
34.553497314453125 -21.80303955078125 0.36970511078834534
34.57402420043945 -22.113927841186523 0.35027775168418884
34.645565032958984 -22.460594177246094 0.3257130980491638
34.58751678466797 -22.725767135620117 0.31326454877853394
34.44453048706055 -22.93583106994629 0.3088184595108032
30.30356216430664 -20.448272705078125 0.692314088344574
34.674781799316406 -23.708812713623047 0.24922360479831696
34.614280700683594 -23.980653762817383 0.23607470095157623
34.72960662841797 -24.377473831176758 0.20536357164382935
29.870004653930664 -21.241552352905273 0.668144941329956
29.903738021850586 -21.543214797973633 0.6476119756698608
29.720712661743164 -21.689802169799805 0.6485602855682373
29.681293487548828 -21.941600799560547 0.6349621415138245
29.60399055480957 -22.166852951049805 0.6250038743019104
29.567129135131836 -22.423898696899414 0.6107425689697266
29.53217124938965 -22.684364318847656 0.5960636138916016
32.398956298828125 30.87322998046875 0.9702889919281006
32.423133850097656 30.519285202026367 0.9797436594963074
32.338924407958984 30.068326950073242 0.9977923035621643
32.42171096801758 29.77688980102539 1.0019779205322266
32.50288772583008 29.48624038696289 1.0061038732528687
32.45088195800781 29.07847023010254 1.0207632780075073
32.41754150390625 28.692298889160156 1.0336570739746094
32.55803680419922 28.46269416809082 1.0324077606201172
32.57606506347656 28.128063201904297 1.040765404701233
32.59501647949219 27.79751968383789 1.0488349199295044
32.60122299194336 27.459447860717773 1.0577033758163452
32.62446594238281 27.13894271850586 1.0650179386138916
32.62033462524414 26.798913955688477 1.0742814540863037
32.65512466430664 26.493921279907227 1.0802907943725586
32.66481399536133 26.171411514282227 1.0880697965621948
32.660823822021484 25.84111213684082 1.096714735031128
32.69099044799805 25.54073143005371 1.1025164127349854
32.67049789428711 25.20376205444336 1.1120482683181763
32.70665740966797 24.913373947143555 1.117019772529602
32.72773361206055 24.6138916015625 1.1229788064956665
32.739959716796875 24.31032943725586 1.1294395923614502
32.76821517944336 24.021120071411133 1.134500503540039
32.54512405395508 23.55223846435547 1.1585118770599365
32.62938690185547 23.3098087310791 1.158941388130188
32.677650451660156 23.043073654174805 1.1619573831558228
32.697654724121094 22.758378982543945 1.1669540405273438
32.71787643432617 22.476003646850586 1.1717755794525146
32.75321578979492 22.205997467041016 1.1753047704696655
32.74748992919922 21.910316467285156 1.181758999824524
32.77103042602539 21.63644027709961 1.1858659982681274
32.78240966796875 21.356565475463867 1.1907285451889038
32.83189392089844 21.103271484375 1.1926069259643555
32.811241149902344 20.806873321533203 1.1995517015457153
32.80934143066406 20.524761199951172 1.2049494981765747
32.829010009765625 20.258132934570312 1.2086048126220703
18.405256271362305 11.201333045959473 2.2768959999084473
18.394729614257812 11.040966987609863 2.280372142791748
18.38808822631836 10.884201049804688 2.283479690551758
32.900360107421875 19.204626083374023 1.2223697900772095
32.92036819458008 18.946697235107422 1.225311040878296
32.937583923339844 18.688753128051758 1.2283228635787964
32.8501091003418 18.37381935119629 1.2388354539871216
32.886741638183594 18.130535125732422 1.2401596307754517
32.98476028442383 17.921798706054688 1.236899495124817
33.01811218261719 17.678621292114258 1.2382217645645142
33.022361755371094 17.42127227783203 1.2415293455123901
33.034446716308594 17.169601440429688 1.2441432476043701
33.05534744262695 16.923892974853516 1.2459949254989624
33.062007904052734 16.672283172607422 1.2487537860870361
33.07398223876953 16.424779891967773 1.251006007194519
33.075199127197266 16.17337417602539 1.2539112567901611
33.09166717529297 15.930794715881348 1.2555991411209106
33.11272048950195 15.69161319732666 1.256840467453003
33.10947799682617 15.44222640991211 1.2597073316574097
33.12075424194336 15.200963973999023 1.2614167928695679
33.1657829284668 14.976161003112793 1.2605952024459839
33.09896469116211 14.70235538482666 1.2676596641540527
33.0949592590332 14.458300590515137 1.2701144218444824
33.12405014038086 14.229817390441895 1.2700940370559692
33.1552619934082 14.003071784973145 1.2698127031326294
33.17849349975586 13.77380084991455 1.2699923515319824
33.18075942993164 13.536853790283203 1.2715568542480469
33.18230056762695 13.300768852233887 1.2730631828308105
33.07635498046875 13.023491859436035 1.2821033000946045
33.119022369384766 12.806323051452637 1.280465841293335
33.51475143432617 12.723714828491211 1.2536524534225464
33.67694854736328 12.54961109161377 1.2433383464813232
33.72956848144531 12.334235191345215 1.2407020330429077
33.7545166015625 12.109249114990234 1.2399249076843262
33.74220657348633 11.871834754943848 1.241685152053833
33.755619049072266 11.644462585449219 1.2415176630020142
33.766563415527344 11.417052268981934 1.2414213418960571
33.76746368408203 11.18712043762207 1.2419332265853882
33.7782096862793 10.961302757263184 1.241645097732544
33.80647277832031 10.741816520690918 1.2400140762329102
33.807594299316406 10.514392852783203 1.2402044534683228
33.80242919921875 10.285905838012695 1.240738868713379
33.80338668823242 10.06015396118164 1.2407395839691162
33.81913375854492 9.839515686035156 1.2395936250686646
33.821929931640625 9.6157865524292 1.2392648458480835
33.84248352050781 9.39773178100586 1.237579345703125
33.855857849121094 9.178218841552734 1.2363035678863525
33.85431671142578 8.955321311950684 1.2359869480133057
33.867733001708984 8.737025260925293 1.2345123291015625
33.8797492980957 8.518898963928223 1.2330397367477417
33.891334533691406 8.301190376281738 1.2315000295639038
33.89085006713867 8.081111907958984 1.2307196855545044
33.90449142456055 7.864959239959717 1.228840947151184
33.90800094604492 7.646965026855469 1.2275848388671875
33.92180633544922 7.431785583496094 1.2255021333694458
33.94108200073242 7.218175411224365 1.2229347229003906
33.953147888183594 7.0033979415893555 1.2207839488983154
33.95798873901367 6.78756856918335 1.219050407409668
33.9526481628418 6.570235252380371 1.217947244644165
33.956703186035156 6.355241298675537 1.2160803079605103
33.97510528564453 6.143283367156982 1.2130972146987915
33.99022674560547 5.930993556976318 1.210253119468689
33.99319076538086 5.716927528381348 1.2081794738769531
34.005653381347656 5.5048017501831055 1.2053349018096924
34.001014709472656 5.290280342102051 1.2036176919937134
34.01179885864258 5.078527450561523 1.200703501701355
34.02521514892578 4.867404460906982 1.1975070238113403
34.03731918334961 4.656306266784668 1.1943084001541138
34.04712677001953 4.4451117515563965 1.1911811828613281
34.05661392211914 4.23409366607666 1.1879807710647583
34.08064270019531 4.024996757507324 1.1836410760879517
33.56116485595703 3.7550625801086426 1.2183198928833008
33.497955322265625 3.5401105880737305 1.2201160192489624
33.56339645385742 3.339017152786255 1.2125511169433594
33.6157112121582 3.136139392852783 1.2058303356170654
33.63996887207031 2.9304046630859375 1.2010371685028076
33.648048400878906 2.723280906677246 1.1973187923431396
33.658836364746094 2.5164639949798584 1.1933101415634155
33.66835021972656 2.30961537361145 1.1892987489700317
33.68256759643555 2.103116273880005 1.1848512887954712
33.686553955078125 1.8960225582122803 1.1810529232025146
33.686279296875 1.6888071298599243 1.1774709224700928
33.691707611083984 1.481972098350525 1.1733802556991577
33.66396713256836 1.2739230394363403 1.1716200113296509
19.262685775756836 0.6097704768180847 2.222663164138794
33.7103271484375 0.8617235422134399 1.1603660583496094
33.721641540527344 0.6550680994987488 1.1554611921310425
12.998635292053223 0.1714899241924286 2.676804304122925
33.74445343017578 0.2414688616991043 1.1453466415405273
33.74099349975586 0.03447544947266579 1.1412402391433716
33.76118850708008 -0.17259418964385986 1.1352885961532593
12.825933456420898 -0.14552675187587738 2.6828114986419678
12.766849517822266 -0.22319523990154266 2.6854329109191895
11.714314460754395 -0.2768520712852478 2.7619616985321045
12.818732261657715 -0.38144785165786743 2.677935838699341
33.80717468261719 -1.2102298736572266 1.1081091165542603
33.780853271484375 -1.4168249368667603 1.1050320863723755
33.73335266113281 -1.6221880912780762 1.1034529209136963
12.707452774047852 -0.6905269622802734 2.67856764793396
12.860127449035645 -0.7779484391212463 2.6650588512420654
12.861955642700195 -0.8572794795036316 2.6628494262695312
33.85912322998047 -2.4621360301971436 1.072407603263855
12.534112930297852 -0.9900806546211243 2.683445692062378
13.07911205291748 -1.1138170957565308 2.639904260635376
12.765067100524902 -1.166042685508728 2.6615569591522217
13.04039478302002 -1.2718616724014282 2.6382927894592285
13.105616569519043 -1.3594272136688232 2.6309664249420166
13.116727828979492 -1.4419660568237305 2.627725839614868
12.247793197631836 -1.422677993774414 2.692096710205078
33.92156982421875 -4.147654056549072 1.0194741487503052
33.915916442871094 -4.358314037322998 1.0134118795394897
33.94157409667969 -4.5734543800354 1.0048211812973022
33.929325103759766 -4.783925533294678 0.9990546703338623
12.952420234680176 -1.9086540937423706 2.625312089920044
12.83686351776123 -1.972185730934143 2.6316845417022705
13.04198169708252 -2.085649013519287 2.6129660606384277
13.111433029174805 -2.1793265342712402 2.6047651767730713
33.98994827270508 -5.860867023468018 0.9590603113174438
33.99423599243164 -6.076611042022705 0.9513279795646667
34.02949523925781 -6.298616409301758 0.941028892993927
34.025123596191406 -6.513975620269775 0.9337444305419922
12.599627494812012 -2.4937045574188232 2.631009340286255
33.91752624511719 -6.925899505615234 0.9267196655273438
33.91893005371094 -7.143261432647705 0.9186491370201111
33.891658782958984 -7.354984760284424 0.9127618670463562
33.94771194458008 -7.585553169250488 0.9000577926635742
33.94196319580078 -7.803242206573486 0.8921959400177002
34.037662506103516 -8.045449256896973 0.8759961724281311
34.04349899291992 -8.267721176147461 0.8669281005859375
34.05369186401367 -8.491815567016602 0.8573762774467468
34.08945083618164 -8.723264694213867 0.8456023335456848
34.091827392578125 -8.947126388549805 0.8364203572273254
34.10813903808594 -9.17548942565918 0.8259609341621399
34.09986114501953 -9.398033142089844 0.8173929452896118
34.10836410522461 -9.625967025756836 0.8073077201843262
34.118221282958984 -9.85519027709961 0.7969719767570496
34.13418960571289 -10.087157249450684 0.7859855890274048
34.112327575683594 -10.308735847473145 0.7780206799507141
34.17189407348633 -10.55601978302002 0.7630906701087952
34.146053314208984 -10.778022766113281 0.7551859617233276
34.14722442626953 -11.009284019470215 0.7448706030845642
34.14305877685547 -11.23971939086914 0.7348653078079224
34.18364334106445 -11.486072540283203 0.7209053039550781
34.17438888549805 -11.716863632202148 0.711035966873169
34.18711853027344 -11.956198692321777 0.6991387605667114
34.14373016357422 -12.176717758178711 0.6919185519218445
34.119529724121094 -12.404645919799805 0.6829152703285217
34.23214340209961 -12.683982849121094 0.6618986129760742
34.283851623535156 -12.942992210388184 0.6459587216377258
34.275054931640625 -13.180580139160156 0.635120689868927
34.28968811035156 -13.428359031677246 0.6220717430114746
34.294227600097656 -13.673493385314941 0.6097407937049866
34.3321418762207 -13.933429718017578 0.594288170337677
34.32577133178711 -14.176846504211426 0.5825794339179993
34.336082458496094 -14.428433418273926 0.5692179203033447
34.31984329223633 -14.670104026794434 0.5580587983131409
34.33483123779297 -14.926422119140625 0.5439285039901733
29.499500274658203 -13.040531158447266 0.9679131507873535
34.410125732421875 -15.464130401611328 0.5109937191009521
34.38038635253906 -15.705127716064453 0.5003565549850464
34.39869689941406 -15.9694185256958 0.4851606786251068
34.40513229370117 -16.22985076904297 0.47085636854171753
34.4024772644043 -16.487516403198242 0.4571998417377472
34.42930603027344 -16.761028289794922 0.4406192898750305
34.428157806396484 -17.022682189941406 0.42642953991889954
34.43399429321289 -17.2894229888916 0.4113907814025879
34.373924255371094 -17.524290084838867 0.4023437201976776
34.319339752197266 -17.762739181518555 0.3926270604133606
34.41221237182617 -18.079496383666992 0.3687632083892822
34.35651397705078 -18.320234298706055 0.3587723672389984
34.40519332885742 -18.618350982666016 0.33862218260765076
30.812639236450195 -16.91984748840332 0.6686017513275146
30.79405975341797 -17.156532287597656 0.6561200022697449
34.5655517578125 -19.536521911621094 0.2752104699611664
34.530208587646484 -19.797229766845703 0.26219549775123596
34.49467468261719 -20.05923843383789 0.24900363385677338
34.55592727661133 -20.379764556884766 0.2260688841342926
34.55467224121094 -20.666000366210938 0.20903097093105316
34.39528274536133 -20.858440399169922 0.2075057327747345
34.43429946899414 -21.172344207763672 0.18603268265724182
34.38534164428711 -21.434274673461914 0.1731245517730713
34.52482986450195 -21.81668472290039 0.14095178246498108
34.4687614440918 -22.078548431396484 0.1282607465982437
34.527774810791016 -22.416500091552734 0.10360260307788849
30.436872482299805 -20.296428680419922 0.488242506980896
30.251123428344727 -20.4420166015625 0.4903782308101654
29.832975387573242 -21.24500846862793 0.46405747532844543
30.146881103515625 -21.748737335205078 0.4124337136745453
29.763925552368164 -21.751609802246094 0.43504613637924194
29.68076515197754 -21.971694946289062 0.4254574775695801
29.615949630737305 -22.206518173217773 0.41370487213134766
29.575546264648438 -22.46125602722168 0.3990860879421234
29.552078247070312 -22.730907440185547 0.382371723651886
33.9009895324707 -29.92647933959961 -0.3628169298171997
33.728878021240234 -30.145130157470703 -0.36896613240242004
33.66615295410156 -30.463045120239258 -0.3883325159549713
33.55230712890625 -30.736919403076172 -0.4018792510032654
33.60580825805664 -31.167680740356445 -0.43594321608543396
20.176685333251953 -18.945703506469727 1.1734157800674438
20.004899978637695 -19.016948699951172 1.1773757934570312
32.369815826416016 30.916616439819336 0.6803854703903198
31.395751953125 29.620534896850586 0.7820115089416504
15.540350914001465 14.483119010925293 2.228372573852539
31.648143768310547 29.133827209472656 0.7839629650115967
31.674560546875 28.80154800415039 0.7936258912086487
31.980194091796875 28.723398208618164 0.7781127691268921
32.31739807128906 28.67038917541504 0.7597549557685852
32.515567779541016 28.492008209228516 0.7536960244178772
32.537715911865234 28.160785675048828 0.7630506753921509
32.569175720214844 27.84073829650879 0.7713513970375061
32.59031295776367 27.514930725097656 0.7803310751914978
32.58493423461914 27.170106887817383 0.7913960814476013
32.603519439697266 26.84858512878418 0.8001373410224915
32.63254928588867 26.53856086730957 0.8077529072761536
32.63801193237305 26.212324142456055 0.817191481590271
32.64773941040039 25.892602920532227 0.8260414004325867
32.65085220336914 25.570674896240234 0.8352424502372742
32.65835952758789 25.25517463684082 0.843853771686554
32.69178009033203 24.96234893798828 0.8500486016273499
32.71726608276367 24.66585922241211 0.8567250370979309
32.71714401245117 24.35272216796875 0.8653766512870789
32.76184844970703 24.07537078857422 0.8700423836708069
32.5532341003418 23.61618995666504 0.8958373665809631
32.603050231933594 23.34868812561035 0.8996602892875671
32.68503189086914 23.105653762817383 0.9006262421607971
32.71535110473633 22.827665328979492 0.9057484269142151
32.719669342041016 22.53376579284668 0.9128598570823669
32.77772521972656 22.27880859375 0.9153323173522949
32.76346206665039 21.976749420166016 0.9236299395561218
32.77003479003906 21.691123962402344 0.9300244450569153
32.796051025390625 21.420425415039062 0.9346449375152588
32.82502365112305 21.153470993041992 0.938859760761261
32.85195541381836 20.886966705322266 0.9430820941925049
32.835453033447266 20.594953536987305 0.9506945610046387
32.852237701416016 20.325973510742188 0.9554208517074585
32.879737854003906 20.06536102294922 0.9591174125671387
32.863399505615234 19.77996826171875 0.9662197232246399
32.90657424926758 19.53219223022461 0.9683365821838379
32.919532775878906 19.268001556396484 0.9727523922920227
32.909759521484375 18.992420196533203 0.9788503050804138
32.90218734741211 18.720149993896484 0.9846150875091553
32.83161544799805 18.41452980041504 0.9952883720397949
32.8563232421875 18.16453742980957 0.9981479644775391
32.9624137878418 17.960275650024414 0.9943509101867676
32.981109619140625 17.70914649963379 0.9974226951599121
33.00943374633789 17.464529037475586 0.9995875358581543
33.019187927246094 17.211469650268555 1.0030953884124756
33.044837951660156 16.968059539794922 1.0052008628845215
33.054508209228516 16.7177791595459 1.0084419250488281
33.05521011352539 16.464462280273438 1.012258529663086
33.07554244995117 16.222305297851562 1.0143842697143555
33.07439422607422 15.970976829528809 1.0180774927139282
33.08943176269531 15.728837013244629 1.0203590393066406
33.1099739074707 15.490493774414062 1.0220766067504883
33.12702560424805 15.251654624938965 1.0239423513412476
33.15239715576172 15.017715454101562 1.0250266790390015
33.13514709472656 14.765769958496094 1.0293381214141846
33.113311767578125 14.51340103149414 1.0338780879974365
33.11528778076172 14.272906303405762 1.036421775817871
33.137603759765625 14.042274475097656 1.0372470617294312
33.15925598144531 13.812286376953125 1.038003921508789
33.18949508666992 13.586716651916504 1.0379705429077148
33.21358871459961 13.359435081481934 1.0382994413375854
33.0821647644043 13.071528434753418 1.0506542921066284
33.129783630371094 12.856093406677246 1.0489041805267334
33.47331619262695 12.753841400146484 1.0239698886871338
33.66268539428711 12.590206146240234 1.0109660625457764
33.71179962158203 12.37352180480957 1.0087836980819702
33.74074935913086 12.149949073791504 1.008057951927185
33.74378204345703 11.91784954071045 1.009234070777893
33.74147415161133 11.68486499786377 1.01071035861969
33.748905181884766 11.45620346069336 1.0113136768341064
33.767112731933594 11.231979370117188 1.0109673738479614
33.78288650512695 11.007654190063477 1.010696530342102
33.78863525390625 10.780826568603516 1.0110926628112793
33.79954147338867 10.556424140930176 1.0109772682189941
33.80228805541992 10.330251693725586 1.011383295059204
33.80448913574219 10.104724884033203 1.0117205381393433
33.832000732421875 9.887393951416016 1.0099855661392212
33.82072067260742 9.659422874450684 1.0111494064331055
33.838661193847656 9.440534591674805 1.0099390745162964
33.84653091430664 9.219429969787598 1.0094013214111328
33.86067199707031 9.000631332397461 1.0082685947418213
33.86085510253906 8.778752326965332 1.0081110000610352
33.87506103515625 8.561117172241211 1.0067590475082397
33.89078140258789 8.344350814819336 1.0051838159561157
33.895416259765625 8.125388145446777 1.0043612718582153
33.90447235107422 7.9080400466918945 1.0030899047851562
33.89754867553711 7.6875762939453125 1.0029537677764893
33.92036056518555 7.47435998916626 1.000403642654419
33.93208312988281 7.2590651512146 0.9986099600791931
33.94439697265625 7.044310569763184 0.9966656565666199
33.96121597290039 6.830856800079346 0.9942663311958313
33.96397018432617 6.614981651306152 0.992855429649353
33.95164108276367 6.396743297576904 0.9925143718719482
33.977149963378906 6.186047554016113 0.9891262650489807
33.984657287597656 5.972344398498535 0.9870349168777466
33.99671936035156 5.759777545928955 0.9844846725463867
34.00056838989258 5.5461626052856445 0.9824721813201904
34.0001220703125 5.332252502441406 0.9806922078132629
34.00917053222656 5.120186805725098 0.9780669808387756
34.02677536010742 4.909632682800293 0.9746715426445007
34.03517150878906 4.697962760925293 0.9718915224075317
34.0402717590332 4.486111640930176 0.9692665338516235
34.06186294555664 4.276608467102051 0.9652470350265503
34.074241638183594 4.066062927246094 0.9618446230888367
33.602874755859375 3.800957441329956 0.9963091611862183
33.49337387084961 3.5806775093078613 1.0023126602172852
33.53123474121094 3.3768651485443115 0.9966444969177246
33.63434982299805 3.1790053844451904 0.9857310652732849
33.64393997192383 2.971848487854004 0.9820716977119446
33.64828109741211 2.7643649578094482 0.9787240624427795
33.656314849853516 2.5573155879974365 0.9749835729598999
33.66804122924805 2.350616693496704 0.970847487449646
33.676509857177734 2.1437418460845947 0.9668665528297424
15.745546340942383 0.9055909514427185 2.385296583175659
15.787484169006348 0.8108841776847839 2.380324363708496
15.793994903564453 0.7141209244728088 2.378112316131592
15.789950370788574 0.6169184446334839 2.3766918182373047
15.803242683410645 0.5203815698623657 2.3738420009613037
15.827898025512695 0.42402395606040955 2.3700337409973145
15.831040382385254 0.32695072889328003 2.367892265319824
15.81763744354248 0.22962279617786407 2.3670265674591064
33.746376037597656 0.28243938088417053 0.9268909096717834
12.99903678894043 0.02929254248738289 2.5894627571105957
33.75358200073242 -0.13158810138702393 0.9175264239311218
33.76076126098633 -0.33871427178382874 0.9123988151550293
33.77463912963867 -0.5460646152496338 0.9066228866577148
33.788238525390625 -0.7536223530769348 0.9007614254951477
11.867307662963867 -0.33728858828544617 2.672210216522217
33.81658935546875 -1.1694705486297607 0.8886169791221619
