# .PCD v0.7 - Point Cloud Data file format
VERSION 0.7
FIELDS x y z
SIZE 4 4 4
TYPE F F F
COUNT 1 1 1
WIDTH 845
HEIGHT 1
VIEWPOINT 0 0 0 1 0 0 0
POINTS 845
DATA ascii
13.164178848266602 10.994894981384277 1.0158860683441162
13.183767318725586 10.874951362609863 1.0236179828643799
13.223838806152344 10.772663116455078 1.0271199941635132
13.261614799499512 10.66905403137207 1.0309213399887085
13.297845840454102 10.564767837524414 1.0348721742630005
13.336408615112305 10.462879180908203 1.0382152795791626
13.360158920288086 10.350016593933105 1.044283151626587
13.398730278015137 10.249268531799316 1.0473196506500244
13.43972396850586 10.150815963745117 1.0497461557388306
13.467340469360352 10.042790412902832 1.0545986890792847
13.507669448852539 9.944770812988281 1.0568684339523315
13.5385103225708 9.840239524841309 1.0608068704605103
13.575806617736816 9.740889549255371 1.0633748769760132
13.613200187683105 9.642020225524902 1.0657879114151
13.648274421691895 9.541926383972168 1.0685031414031982
13.693208694458008 9.449060440063477 1.069233775138855
13.727715492248535 9.349325180053711 1.0717904567718506
13.767257690429688 9.253378868103027 1.0732758045196533
13.801199913024902 9.154021263122559 1.0756741762161255
13.831960678100586 9.052968978881836 1.0785284042358398
13.866983413696289 8.955100059509277 1.0804634094238281
13.910496711730957 8.862980842590332 1.0807119607925415
13.952564239501953 8.77013874053955 1.081108808517456
13.978059768676758 8.667216300964355 1.0844125747680664
14.01968002319336 8.574623107910156 1.0846487283706665
14.059844970703125 8.481332778930664 1.0850335359573364
14.103638648986816 8.390395164489746 1.0846458673477173
14.1451416015625 8.298239707946777 1.0845602750778198
14.18604564666748 8.205889701843262 1.0844699144363403
14.230640411376953 8.11579418182373 1.0836048126220703
14.247964859008789 8.010446548461914 1.087508201599121
14.430459022521973 7.997157096862793 1.0618226528167725
14.73557186126709 8.04871654510498 1.0143506526947021
15.27498722076416 8.222345352172852 0.9254457354545593
14.621882438659668 7.641243934631348 1.0543392896652222
19.232595443725586 0.7763755917549133 0.4493687152862549
19.226726531982422 0.6580671072006226 0.44849997758865356
19.278310775756836 0.5414955019950867 0.43798238039016724
12.87041187286377 -0.6658284068107605 1.4762475490570068
12.862854957580566 -0.744580864906311 1.4750595092773438
12.856782913208008 -0.8233931064605713 1.4735411405563354
16.209089279174805 -2.7530710697174072 0.8390281796455383
16.256776809692383 -2.966895341873169 0.8203168511390686
16.234031677246094 -3.0658118724823 0.8188455104827881
16.282283782958984 -3.1785337924957275 0.8049315810203552
16.10074234008789 -3.2458152770996094 0.8308902382850647
16.224925994873047 -3.3745977878570557 0.8034998774528503
16.14958381652832 -3.462475061416626 0.8107966780662537
16.186386108398438 -3.574416399002075 0.7983735203742981
16.16763687133789 -3.674494504928589 0.7955588102340698
16.125228881835938 -3.769096851348877 0.7968003749847412
16.046812057495117 -3.854804277420044 0.8043050765991211
18.99455451965332 -5.943881988525391 0.19234265387058258
18.870006561279297 -6.032365798950195 0.20568323135375977
18.787240982055664 -6.133306980133057 0.21136941015720367
18.760038375854492 -6.252150535583496 0.20682144165039062
16.17707633972168 -5.502101421356201 0.6705206632614136
16.30646514892578 -5.658042907714844 0.6382580399513245
16.439180374145508 -5.817421913146973 0.6050996780395508
16.488983154296875 -5.949223518371582 0.5869773626327515
16.030134201049805 -5.895207405090332 0.6629619598388672
15.963764190673828 -5.982348442077637 0.6663159728050232
18.81547737121582 -7.182855129241943 0.1252327859401703
18.810089111328125 -7.313462257385254 0.11533509939908981
16.30211639404297 -7.1595683097839355 0.5140140652656555
16.306055068969727 -7.281095504760742 0.5025022029876709
16.277719497680664 -7.38869571685791 0.497033953666687
16.3604736328125 -7.54779052734375 0.46993711590766907
16.21000862121582 -7.599495887756348 0.4878307282924652
16.17334747314453 -7.703848838806152 0.4835790693759918
16.599769592285156 -8.413402557373047 0.3519240617752075
16.494007110595703 -8.487565994262695 0.36030030250549316
16.301549911499023 -8.515617370605469 0.38592103123664856
16.46522331237793 -8.730279922485352 0.34037843346595764
16.38751792907715 -8.818497657775879 0.3428674638271332
16.160701751708984 -8.824930191040039 0.3753546178340912
16.197141647338867 -8.974453926086426 0.3546874523162842
16.26152992248535 -9.14116096496582 0.32806655764579773
16.103788375854492 -9.183170318603516 0.3464875817298889
16.126848220825195 -9.328094482421875 0.3278857469558716
16.231103897094727 -9.521967887878418 0.2923024594783783
16.09410858154297 -9.57502269744873 0.30621492862701416
12.558249473571777 12.765647888183594 0.831045925617218
12.605293273925781 12.657587051391602 0.8363154530525208
12.63184928894043 12.529948234558105 0.8459187746047974
12.674249649047852 12.419053077697754 0.8518045544624329
12.715059280395508 12.307421684265137 0.857843279838562
12.753551483154297 12.194391250610352 0.8641902208328247
12.786829948425293 12.077279090881348 0.8714671730995178
12.822043418884277 11.962912559509277 0.8781226873397827
12.86214828491211 11.853923797607422 0.8835344314575195
12.893367767333984 11.737576484680176 0.8906541466712952
12.938336372375488 11.634503364562988 0.8946624994277954
12.961851119995117 11.512948036193848 0.9030264616012573
13.008865356445312 11.413043022155762 0.9062517881393433
13.052905082702637 11.311052322387695 0.909940779209137
13.085679054260254 11.199955940246582 0.9158097505569458
13.111550331115723 11.083778381347656 0.922926127910614
13.161510467529297 10.988598823547363 0.9248914122581482
13.18641471862793 10.873109817504883 0.9318506717681885
13.221122741699219 10.766460418701172 0.9366224408149719
13.261177062988281 10.664746284484863 0.940141499042511
13.298162460327148 10.561100959777832 0.9441272616386414
13.328160285949707 10.452526092529297 0.9493635892868042
13.36591911315918 10.350632667541504 0.9528758525848389
13.400577545166016 10.246866226196289 0.9568561911582947
13.442349433898926 10.149015426635742 0.959265410900116
13.475508689880371 10.045133590698242 0.9632412195205688
13.511878967285156 9.944150924682617 0.9664298892021179
13.545920372009277 9.841938018798828 0.9699302911758423
13.579218864440918 9.739681243896484 0.9734289646148682
13.62628173828125 9.64765739440918 0.9740926027297974
13.68847942352295 9.442225456237793 0.9812352061271667
13.728663444519043 9.346426010131836 0.9828330874443054
13.757533073425293 9.243327140808105 0.9864786863327026
13.79882526397705 9.148956298828125 0.9875967502593994
13.836172103881836 9.052261352539062 0.989342212677002
13.879488945007324 8.959736824035645 0.9898197054862976
13.918863296508789 8.864895820617676 0.9909252524375916
13.950071334838867 8.765180587768555 0.9934516549110413
13.981419563293457 8.665932655334473 0.9958175420761108
14.023870468139648 8.57384204864502 0.9959620833396912
14.066564559936523 8.482063293457031 0.9959428906440735
14.106963157653809 8.389073371887207 0.9962357878684998
14.162079811096191 8.304895401000977 0.9936648011207581
14.18678092956543 8.203056335449219 0.996649444103241
14.227919578552246 8.111003875732422 0.9964516758918762
14.281373977661133 8.026010513305664 0.9938614964485168
14.432760238647461 7.995213031768799 0.9731041193008423
14.71252727508545 8.032888412475586 0.9287224411964417
15.207123756408691 8.182520866394043 0.8450369834899902
15.978791236877441 8.472073554992676 0.7109522819519043
19.22756004333496 0.7733523845672607 0.34661155939102173
19.22954559326172 0.6553465127944946 0.3444463908672333
19.26726531982422 0.538365364074707 0.3360370099544525
12.885368347167969 -0.6687548160552979 1.4042237997055054
12.857129096984863 -0.7464022636413574 1.4066298007965088
12.856938362121582 -0.8255566954612732 1.4040933847427368
16.278564453125 -1.5472397804260254 0.7923943996429443
16.243896484375 -1.6445701122283936 0.7945441007614136
16.32815170288086 -1.7543601989746094 0.7757720351219177
16.315736770629883 -1.854357361793518 0.773800253868103
16.261627197265625 -1.9493509531021118 0.779045045375824
16.317411422729492 -2.057666063308716 0.7648730874061584
16.27188491821289 -2.153441905975342 0.7684066891670227
16.357526779174805 -2.2669777870178223 0.7487041354179382
16.314668655395508 -2.3631649017333984 0.7515498399734497
16.2264461517334 -2.4521491527557373 0.7623367309570312
16.253541946411133 -2.5583536624908447 0.7526078820228577
16.342540740966797 -2.7783055305480957 0.726552426815033
16.3587646484375 -2.8844642639160156 0.7183454632759094
16.19602394104004 -2.958387613296509 0.7419793009757996
16.188810348510742 -3.0598556995391846 0.7377647757530212
16.21769142150879 -3.168520450592041 0.7269625067710876
16.18695640563965 -3.2657830715179443 0.7267307639122009
16.153709411621094 -3.3623886108398438 0.726850688457489
16.183439254760742 -3.472339391708374 0.7155100107192993
16.06818199157715 -3.550926446914673 0.7302358746528625
16.232013702392578 -3.6917500495910645 0.6943605542182922
16.10032844543457 -3.765902042388916 0.7118886113166809
16.224977493286133 -5.410266876220703 0.5776304006576538
16.473464965820312 -5.605722904205322 0.5221095681190491
16.310964584350586 -5.6624369621276855 0.5440627932548523
16.163244247436523 -5.72262716293335 0.5632309317588806
16.396865844726562 -5.918867588043213 0.5097213983535767
16.321046829223633 -6.00504732131958 0.5149544477462769
16.094560623168945 -6.034217357635498 0.5490097999572754
16.080751419067383 -6.141937732696533 0.542265772819519
16.25885581970215 -6.3246259689331055 0.4983539581298828
15.987833976745605 -6.332552909851074 0.5409911870956421
16.5173282623291 -7.257137775421143 0.37514302134513855
16.306753158569336 -7.284468173980713 0.40567532181739807
16.380512237548828 -7.438437461853027 0.37980911135673523
16.30198860168457 -7.5239152908325195 0.38402992486953735
16.38517951965332 -7.6847381591796875 0.35581254959106445
16.125890731811523 -7.684366226196289 0.3960826098918915
16.703079223632812 -8.469042778015137 0.23003064095973969
16.5124568939209 -8.629081726074219 0.24292567372322083
16.445735931396484 -8.723274230957031 0.2433946430683136
16.284923553466797 -8.766621589660645 0.2632453441619873
16.26839256286621 -8.887076377868652 0.253156453371048
16.25615692138672 -9.010519981384277 0.24198581278324127
16.029497146606445 -9.014110565185547 0.27556097507476807
16.109331130981445 -9.189732551574707 0.2448069006204605
16.133956909179688 -9.335639953613281 0.22535963356494904
16.126001358032227 -9.463778495788574 0.21255943179130554
16.046913146972656 -9.55042552947998 0.2147081345319748
12.524995803833008 12.74970531463623 0.7279820442199707
12.578935623168945 12.6488618850708 0.731907308101654
12.657320022583008 12.57287311553955 0.730040967464447
12.683113098144531 12.445245742797852 0.7400642037391663
12.696480751037598 12.306781768798828 0.7526638507843018
12.742851257324219 12.201386451721191 0.7575409412384033
12.799882888793945 12.106735229492188 0.7598375082015991
12.823779106140137 11.981521606445312 0.7693800926208496
12.870560646057129 11.878556251525879 0.773603618144989
12.8866605758667 11.748208045959473 0.7844386100769043
12.929519653320312 11.643202781677246 0.7891428470611572
12.98189926147461 11.547294616699219 0.7915829420089722
13.004677772521973 11.425779342651367 0.8003208041191101
13.045090675354004 11.320587158203125 0.80501788854599
13.08021068572998 11.21147346496582 0.8106832504272461
13.116744995117188 11.104267120361328 0.8158618211746216
13.157757759094238 11.001463890075684 0.8199046850204468
13.19039535522461 10.892291069030762 0.8255655169487
13.2260160446167 10.786248207092285 0.8304149508476257
13.2654447555542 10.683891296386719 0.8342887163162231
13.303345680236816 10.580839157104492 0.838322103023529
13.345916748046875 10.481988906860352 0.8412162065505981
13.365163803100586 10.365479469299316 0.8488207459449768
13.406206130981445 10.266522407531738 0.8517103791236877
13.4402437210083 10.162690162658691 0.8558987379074097
13.488534927368164 10.070038795471191 0.8569912910461426
13.506811141967773 9.955517768859863 0.8641076683998108
13.555306434631348 9.863788604736328 0.8648670315742493
13.595972061157227 9.766656875610352 0.8670889735221863
13.619058609008789 9.657411575317383 0.8727359175682068
13.659908294677734 9.561262130737305 0.8746263384819031
13.691164016723633 9.458803176879883 0.8783111572265625
13.731460571289062 9.362990379333496 0.8800315856933594
13.767823219299316 9.26483154296875 0.8824028968811035
13.79117202758789 9.158393859863281 0.8872274160385132
13.82693862915039 9.060667037963867 0.889430820941925
13.86948299407959 8.967662811279297 0.8901551961898804
13.913068771362305 8.87553882598877 0.8905470371246338
13.954378128051758 8.782163619995117 0.8912620544433594
13.9891996383667 8.684972763061523 0.8931224942207336
14.009896278381348 8.57944107055664 0.8976102471351624
14.056845664978027 8.490299224853516 0.8968344926834106
14.099838256835938 8.398882865905762 0.8967112302780151
14.143939018249512 8.308256149291992 0.8962534666061401
14.188314437866211 8.217896461486816 0.8956250548362732
14.220120429992676 8.120455741882324 0.8972997665405273
14.281349182128906 8.03986644744873 0.8931959867477417
14.411975860595703 7.997589111328125 0.8757062554359436
14.699234008789062 8.039665222167969 0.8282796144485474
15.200228691101074 8.193151473999023 0.7402740120887756
19.22295379638672 0.787349283695221 0.23006309568881989
15.7423734664917 0.548177182674408 0.8451934456825256
19.270641326904297 0.5526642799377441 0.21790076792240143
12.897241592407227 -0.5797290802001953 1.3259843587875366
12.878401756286621 -0.6580632328987122 1.3269404172897339
12.874808311462402 -0.737090528011322 1.3250788450241089
12.860907554626465 -0.815477192401886 1.324981927871704
16.19778823852539 -1.6274622678756714 0.7035437822341919
16.106874465942383 -1.7182106971740723 0.7159633636474609
16.117172241210938 -1.8193906545639038 0.7099437117576599
16.080900192260742 -1.915292739868164 0.7122675776481628
16.018674850463867 -2.0076382160186768 0.7192214131355286
15.98812198638916 -2.1035315990448 0.720318078994751
15.955044746398926 -2.198859691619873 0.72177654504776
15.915557861328125 -2.2930212020874023 0.7243102192878723
15.938767433166504 -2.396294116973877 0.715263307094574
15.970052719116211 -2.501310348510742 0.7046021819114685
15.786026000976562 -2.5718321800231934 0.7333856225013733
16.326425552368164 -2.762843608856201 0.6287550926208496
16.35239028930664 -2.870577096939087 0.6185586452484131
16.24502944946289 -2.9546127319335938 0.6328635811805725
16.22718048095703 -3.0543692111968994 0.6305426955223083
16.340051651000977 -3.179579257965088 0.6038558483123779
16.032426834106445 -3.221963882446289 0.6551306843757629
16.104450225830078 -3.339406967163086 0.635789692401886
16.485395431518555 -3.5240817070007324 0.5586097240447998
16.076868057250977 -3.540069580078125 0.6286637783050537
16.145599365234375 -3.6592600345611572 0.6094575524330139
16.137786865234375 -3.761784315109253 0.6044442653656006
16.33661460876465 -5.433891296386719 0.45217007398605347
16.080026626586914 -5.458432197570801 0.49348142743110657
16.08857536315918 -5.571749210357666 0.4829668700695038
16.213151931762695 -5.72664213180542 0.44948890805244446
16.274438858032227 -5.860950469970703 0.42818722128868103
16.242380142211914 -5.962343215942383 0.42510712146759033
16.07155990600586 -6.0118913650512695 0.449413537979126
16.072553634643555 -6.125048637390137 0.43959805369377136
16.039764404296875 -6.225638389587402 0.436357706785202
16.359941482543945 -7.293715000152588 0.28667691349983215
16.359222412109375 -7.414198398590088 0.2752918004989624
16.35138702392578 -7.532070636749268 0.26518842577934265
16.340049743652344 -7.64887809753418 0.25563251972198486
16.47403907775879 -8.722859382629395 0.12481394410133362
16.36956024169922 -8.796745300292969 0.13333973288536072
16.301895141601562 -8.889911651611328 0.1339169442653656
16.22252655029297 -8.976398468017578 0.13691416382789612
16.057886123657227 -9.01462459564209 0.1582937240600586
16.157238006591797 -9.201436996459961 0.1223396509885788
12.643423080444336 12.870479583740234 0.5743780732154846
12.689071655273438 12.759844779968262 0.580692708492279
12.670190811157227 12.585906028747559 0.6022419333457947
12.693292617797852 12.45549201965332 0.6134172677993774
12.848353385925293 12.454266548156738 0.5930827856063843
12.763912200927734 12.221831321716309 0.6292353868484497
12.787409782409668 12.09522819519043 0.6395764350891113
12.819926261901855 11.978218078613281 0.6475696563720703
12.871047019958496 11.879315376281738 0.6510274410247803
12.918526649475098 11.777579307556152 0.6551526188850403
12.949129104614258 11.661191940307617 0.6629732847213745
12.986896514892578 11.552079200744629 0.6689437627792358
13.023073196411133 11.442288398742676 0.6750808358192444
13.062116622924805 11.335718154907227 0.6803742051124573
13.098100662231445 11.227174758911133 0.6861708164215088
13.153559684753418 11.135809898376465 0.6874141097068787
13.150923728942871 10.996132850646973 0.7014720439910889
13.197994232177734 10.898958206176758 0.7042288780212402
13.242077827453613 10.799748420715332 0.7074875831604004
13.279301643371582 10.695460319519043 0.7120946049690247
13.311119079589844 10.58743953704834 0.717714250087738
13.347539901733398 10.483691215515137 0.7221483588218689
13.384747505187988 10.38110065460205 0.7262423634529114
13.415722846984863 10.274251937866211 0.7315192222595215
13.449039459228516 10.169790267944336 0.7361175417900085
13.4847412109375 10.067663192749023 0.7400360703468323
13.524456024169922 9.968986511230469 0.7429343461990356
13.560282707214355 9.867881774902344 0.7465083003044128
13.589777946472168 9.762685775756836 0.7512691020965576
13.62331771850586 9.660918235778809 0.7550094723701477
13.6633882522583 9.564189910888672 0.7572168111801147
13.697110176086426 9.463411331176758 0.7606121897697449
13.726041793823242 9.359801292419434 0.7648565769195557
13.755854606628418 9.257290840148926 0.7687591910362244
13.8046293258667 9.167848587036133 0.7685691714286804
13.833044052124023 9.065192222595215 0.7724668979644775
13.86568546295166 8.965741157531738 0.7753394246101379
13.90095329284668 8.868348121643066 0.7775266170501709
13.948888778686523 8.779255867004395 0.7769768834114075
14.002115249633789 8.6935453414917 0.775223970413208
14.028768539428711 8.591557502746582 0.7787672877311707
14.0555419921875 8.49007797241211 0.7821385264396667
14.095990180969238 8.397163391113281 0.7825963497161865
14.135828018188477 8.304069519042969 0.7830495834350586
14.179316520690918 8.21327018737793 0.7826409339904785
14.21537971496582 8.118338584899902 0.7835994362831116
14.3006010055542 8.051304817199707 0.774593710899353
14.394145965576172 7.988309383392334 0.7638534903526306
14.974023818969727 8.190629005432129 0.6562856435775757
15.132861137390137 8.157540321350098 0.6327144503593445
15.90341567993164 8.447678565979004 0.48807206749916077
19.18265151977539 0.7869020104408264 0.10237172991037369
15.735832214355469 0.548789381980896 0.7357907891273499
12.833041191101074 -0.6552004814147949 1.2448118925094604
12.869697570800781 -0.7362493276596069 1.2354445457458496
12.866592407226562 -0.8152890205383301 1.2333935499191284
16.062297821044922 -1.612950325012207 0.6146151423454285
16.125015258789062 -1.7192423343658447 0.5987020134925842
15.999500274658203 -1.8052135705947876 0.6181365251541138
15.95943546295166 -1.8999347686767578 0.6213808655738831
15.89150333404541 -1.9908150434494019 0.6297983527183533
15.808445930480957 -2.0790140628814697 0.640999972820282
15.907946586608887 -2.1914820671081543 0.617495059967041
15.862688064575195 -2.2845211029052734 0.6213175058364868
15.946144104003906 -2.3965113162994385 0.6005487442016602
15.806476593017578 -2.4748082160949707 0.6221423745155334
16.385530471801758 -2.7719039916992188 0.5010238289833069
16.366846084594727 -2.8721728324890137 0.4990506172180176
16.236370086669922 -2.9521076679229736 0.5184239149093628
16.203067779541016 -3.048902988433838 0.5190690755844116
16.253101348876953 -3.161724328994751 0.5035497546195984
16.15111541748047 -3.2448952198028564 0.5172141790390015
16.09487533569336 -3.439671039581299 0.5157462358474731
16.289918899536133 -3.586045265197754 0.4714999496936798
16.15318489074707 -3.6600494384765625 0.4915408194065094
16.165424346923828 -3.7672951221466064 0.482500284910202
16.095745086669922 -3.855381727218628 0.48932674527168274
16.240156173706055 -5.511831283569336 0.34148111939430237
16.125808715820312 -5.5836944580078125 0.3555532991886139
16.260282516479492 -5.7423224449157715 0.3188422620296478
16.242799758911133 -5.848588466644287 0.3128969371318817
16.277170181274414 -5.974142074584961 0.29617103934288025
16.27289390563965 -6.086236476898193 0.2871887981891632
16.120126724243164 -6.142221450805664 0.3086909055709839
16.17142105102539 -6.275777816772461 0.28797051310539246
16.410869598388672 -7.4365997314453125 0.1377859264612198
16.368947982788086 -7.539155960083008 0.13463446497917175
16.2517032623291 -7.6065287590026855 0.14751634001731873
12.650580406188965 12.873004913330078 0.47269612550735474
12.687226295471191 12.75328540802002 0.48150545358657837
12.652297019958496 12.563498497009277 0.5077648758888245
12.663338661193848 12.421525955200195 0.5222867131233215
12.73253345489502 12.3374662399292 0.5222857594490051
13.108528137207031 12.547248840332031 0.4475225508213043
13.040287971496582 12.32993221282959 0.48087969422340393
12.818748474121094 11.97274112701416 0.5506371259689331
12.843061447143555 11.849157333374023 0.5606674551963806
12.892548561096191 11.749608039855957 0.5644574165344238
12.94642162322998 11.654508590698242 0.5670282244682312
12.991521835327148 11.55198860168457 0.571503221988678
12.978879928588867 11.399309158325195 0.5893468260765076
13.028833389282227 11.30272102355957 0.5922577977180481
13.07809066772461 11.205946922302246 0.5951643586158752
13.114625930786133 11.098814964294434 0.6008488535881042
13.153365135192871 10.994178771972656 0.6058359742164612
13.186759948730469 10.885722160339355 0.6118653416633606
13.216267585754395 10.7747802734375 0.6185905337333679
13.25488567352295 10.67191219329834 0.623049259185791
13.306612968444824 10.580005645751953 0.624366283416748
13.345322608947754 10.478134155273438 0.6284697651863098
13.372392654418945 10.36773681640625 0.6350148320198059
13.419719696044922 10.273563385009766 0.6368432641029358
13.447545051574707 10.164944648742676 0.6428619623184204
13.48322582244873 10.062849998474121 0.6469563841819763
13.528467178344727 9.968290328979492 0.6487739086151123
13.552355766296387 9.858492851257324 0.6551393866539001
13.587404251098633 9.757390975952148 0.6588773131370544
13.634575843811035 9.665339469909668 0.6598082184791565
13.657737731933594 9.5567045211792 0.6658204197883606
13.693853378295898 9.457658767700195 0.6688498258590698
13.738218307495117 9.364627838134766 0.6699448227882385
14.019639015197754 9.431324005126953 0.6199064254760742
14.07274341583252 9.342445373535156 0.6190282702445984
14.093171119689941 9.232227325439453 0.6250030994415283
14.130967140197754 9.133867263793945 0.6271069049835205
14.178875923156738 9.04227066040039 0.626917839050293
13.999580383300781 8.807831764221191 0.6746535301208496
13.96933650970459 8.669897079467773 0.6905263066291809
14.015165328979492 8.579952239990234 0.6901812553405762
14.05957317352295 8.489258766174316 0.6900068521499634
14.100858688354492 8.396831512451172 0.6903567314147949
14.144087791442871 8.305709838867188 0.6901716589927673
14.174802780151367 8.207468032836914 0.692457377910614
14.208267211914062 8.11111068725586 0.6940327882766724
14.271102905273438 8.031545639038086 0.6894077658653259
14.35500717163086 7.963449954986572 0.6803429126739502
14.739102363586426 8.058951377868652 0.6095675230026245
15.164728164672852 8.171509742736816 0.5305405259132385
14.546298027038574 7.609868049621582 0.6726973056793213
14.619441986083984 7.5344929695129395 0.6653484106063843
15.729827880859375 0.5461969971656799 0.6487981677055359
12.876721382141113 -0.6595239639282227 1.1644351482391357
12.859371185302734 -0.7377532720565796 1.1651990413665771
12.871929168701172 -0.8177236914634705 1.1601226329803467
16.001596450805664 -1.609277367591858 0.5358531475067139
15.994930267333984 -1.7077996730804443 0.5329954028129578
15.98570442199707 -1.8060829639434814 0.5305164456367493
15.983675003051758 -1.905248761177063 0.5265207290649414
15.983949661254883 -2.004826307296753 0.5219535827636719
15.78697395324707 -2.0786080360412598 0.555745005607605
15.856199264526367 -2.1867830753326416 0.5375165939331055
15.896502494812012 -2.2918267250061035 0.5247825980186462
15.794371604919434 -2.3761372566223145 0.5398168563842773
15.960466384887695 -2.5013668537139893 0.5021304488182068
15.82039737701416 -2.578995943069458 0.5244187712669373
16.36138343811035 -2.770324468612671 0.4125085175037384
16.33883285522461 -2.869765520095825 0.4113070070743561
16.31664276123047 -2.969212770462036 0.4099171757698059
16.195453643798828 -3.049976110458374 0.4280174970626831
16.253103256225586 -3.16424298286438 0.4105866849422455
16.094402313232422 -3.236011028289795 0.4359903335571289
16.13630485534668 -3.347609043121338 0.42142254114151
16.1601619720459 -3.4561514854431152 0.4102884531021118
16.23409080505371 -3.5763015747070312 0.38898491859436035
16.088911056518555 -3.6480257511138916 0.4113920331001282
16.09162139892578 -3.752643585205078 0.40408259630203247
16.140405654907227 -5.591480731964111 0.256496787071228
16.148839950561523 -5.705717086791992 0.24522116780281067
16.184160232543945 -5.8302412033081055 0.22810865938663483
16.1688289642334 -5.937159538269043 0.2214810848236084
16.18770408630371 -6.0571722984313965 0.20745788514614105
16.093891143798828 -6.135024547576904 0.2171757072210312
16.099401473999023 -6.250645160675049 0.20567861199378967
12.66988754272461 12.883416175842285 0.3681368827819824
12.667041778564453 12.723876953125 0.38741111755371094
12.661328315734863 12.563470840454102 0.4070506989955902
12.673101425170898 12.422215461730957 0.4218888282775879
12.70836353302002 12.305246353149414 0.4304920434951782
13.098878860473633 12.529090881347656 0.3497312068939209
13.361001014709473 12.62424373626709 0.301718145608902
12.830728530883789 11.975383758544922 0.45076489448547363
12.85869312286377 11.855119705200195 0.4602576196193695
12.90021800994873 11.748212814331055 0.46617671847343445
12.947500228881836 11.64716625213623 0.4704841375350952
12.974174499511719 11.528331756591797 0.4796181321144104
13.025760650634766 11.432324409484863 0.4824880063533783
13.04692554473877 11.310335159301758 0.492516428232193
13.10295581817627 11.219232559204102 0.49394655227661133
13.087003707885742 11.06750774383545 0.5124009847640991
13.137638092041016 10.973167419433594 0.5147240161895752
13.177745819091797 10.870481491088867 0.5193744897842407
13.221665382385254 10.771442413330078 0.5229451060295105
13.263335227966309 10.671037673950195 0.5268712043762207
13.307353019714355 10.57297420501709 0.5300752520561218
13.334417343139648 10.462018013000488 0.5370519757270813
13.378509521484375 10.364981651306152 0.539890468120575
13.422693252563477 10.268397331237793 0.5425446033477783
13.462275505065918 10.168692588806152 0.5460954904556274
13.489313125610352 10.060064315795898 0.5523465275764465
13.525032043457031 9.95848560333252 0.5564337372779846
13.566378593444824 9.861472129821777 0.5590751767158508
13.610241889953613 9.766619682312012 0.5609907507896423
13.600485801696777 9.634068489074707 0.5748233199119568
13.686339378356934 9.569644927978516 0.5669777393341064
13.675592422485352 9.438039779663086 0.5806350708007812
13.945789337158203 9.499078750610352 0.5315199494361877
14.033596992492676 9.433679580688477 0.5230748057365417
13.808904647827148 9.16038990020752 0.583625078201294
13.847168922424316 9.06421947479248 0.5856990218162537
13.880642890930176 8.965253829956055 0.5886760950088501
13.90098762512207 8.858287811279297 0.5943726301193237
14.195259094238281 8.924159049987793 0.5401597619056702
14.001152992248535 8.682979583740234 0.5923258066177368
14.021050453186035 8.576934814453125 0.5976537466049194
14.067118644714355 8.48723030090332 0.5971627831459045
14.1126127243042 8.3972806930542 0.5966660380363464
13.98369026184082 8.205059051513672 0.6334882974624634
14.098052978515625 8.156577110290527 0.6178805828094482
14.237960815429688 8.121615409851074 0.5967808365821838
14.288837432861328 8.03510856628418 0.594620406627655
14.358105659484863 7.958771228790283 0.5884374380111694
14.715997695922852 8.039830207824707 0.5210673213005066
15.163686752319336 8.16434097290039 0.4349746108055115
15.239126205444336 8.0850191116333 0.42757344245910645
15.366434097290039 8.0324068069458 0.4091823101043701
15.739081382751465 0.5413947701454163 0.5586598515510559
12.8572998046875 -0.7419724464416504 1.093202829360962
12.869802474975586 -0.8219330310821533 1.0880309343338013
15.939364433288574 -1.7070951461791992 0.4535617530345917
15.965218544006348 -1.809008002281189 0.444065123796463
15.995287895202637 -1.9118859767913818 0.4335850775241852
15.954626083374023 -2.0064010620117188 0.43714118003845215
15.745189666748047 -2.0783112049102783 0.47447922825813293
15.72688102722168 -2.174163341522217 0.47338542342185974
16.01859474182129 -2.314713954925537 0.40974244475364685
15.790334701538086 -2.3807718753814697 0.4506675899028778
15.74305248260498 -2.4725492000579834 0.45504844188690186
15.721369743347168 -2.5681040287017822 0.4541510343551636
16.057645797729492 -3.029421329498291 0.3632062077522278
16.154787063598633 -3.1505374908447266 0.3373120427131653
16.115507125854492 -3.245683193206787 0.3391128182411194
16.10158920288086 -3.345850706100464 0.33560848236083984
16.31521987915039 -3.4948177337646484 0.2852475047111511
16.09294319152832 -3.550687789916992 0.3242659270763397
16.096248626708984 -3.6551740169525146 0.3168167769908905
16.046363830566406 -3.7475805282592773 0.32021215558052063
15.967353820800781 -3.8326547145843506 0.3295380473136902
16.251575469970703 -5.635901927947998 0.13597236573696136
16.18030548095703 -5.834803581237793 0.1316498965024948
16.199859619140625 -5.9545369148254395 0.11730951070785522
16.115774154663086 -6.036251544952393 0.12534387409687042
16.113693237304688 -6.148589134216309 0.11539559066295624
12.675748825073242 12.759496688842773 0.26526057720184326
12.710136413574219 12.638558387756348 0.2751295268535614
12.644652366638184 12.420567512512207 0.3109934628009796
12.653168678283691 12.277774810791016 0.3269612789154053
12.754785537719727 12.225793838500977 0.31839171051979065
12.925463676452637 12.238566398620605 0.2918962240219116
12.854156494140625 12.022795677185059 0.32779979705810547
12.87671184539795 11.89706039428711 0.339150607585907
12.923620223999023 11.794686317443848 0.3440324366092682
12.962459564208984 11.685601234436035 0.35076022148132324
13.014394760131836 11.588899612426758 0.35396987199783325
13.030951499938965 11.461495399475098 0.3658768832683563
13.087984085083008 11.370412826538086 0.3674134612083435
13.107101440429688 11.247064590454102 0.37821078300476074
13.155938148498535 11.149956703186035 0.38140779733657837
13.192024230957031 11.042579650878906 0.3875685930252075
13.225774765014648 10.93392562866211 0.3940988779067993
13.26325798034668 10.828999519348145 0.3995140790939331
13.243351936340332 10.678384780883789 0.41867712140083313
13.282827377319336 10.576772689819336 0.42316538095474243
13.317696571350098 10.472038269042969 0.42858126759529114
13.352558135986328 10.367877006530762 0.43380916118621826
13.40536117553711 10.27802562713623 0.43456655740737915
13.448945999145508 10.181391716003418 0.43736714124679565
13.46430778503418 10.064022064208984 0.4466870427131653
13.503247261047363 9.96492862701416 0.45022860169410706
13.546242713928223 9.869205474853516 0.45264777541160583
13.590968132019043 9.77504825592041 0.4545027017593384
13.640654563903809 9.6846923828125 0.4550454020500183
13.687331199645996 9.592402458190918 0.45614293217658997
13.838419914245605 9.572549819946289 0.4329266846179962
14.140674591064453 9.654217720031738 0.37488052248954773
13.732406616210938 9.2528076171875 0.48036929965019226
13.836764335632324 9.200507164001465 0.46759772300720215
13.880218505859375 9.107396125793457 0.4686736762523651
13.924697875976562 9.01516342163086 0.46936944127082825
13.92221450805664 8.89311695098877 0.48056572675704956
13.935381889343262 8.781911849975586 0.48801490664482117
14.372306823730469 8.934815406799316 0.39987117052078247
14.002750396728516 8.58671760559082 0.4931489825248718
14.05223560333252 8.499157905578613 0.491951584815979
14.096957206726074 8.408795356750488 0.4916880428791046
14.143637657165527 8.319695472717285 0.4908539652824402
14.188056945800781 8.229351997375488 0.4903903007507324
14.20206069946289 8.121712684631348 0.49651679396629333
14.276877403259277 8.048931121826172 0.48906901478767395
14.298969268798828 7.946436882019043 0.4931163191795349
14.639020919799805 8.018516540527344 0.4273184537887573
14.755788803100586 7.9654388427734375 0.4105481803417206
15.204499244689941 8.087843894958496 0.3213714361190796
15.74635124206543 0.5593366026878357 0.45468538999557495
12.87104320526123 -0.6486342549324036 1.0094257593154907
12.853766441345215 -0.7268381714820862 1.0103391408920288
12.852641105651855 -0.8058993816375732 1.007857084274292
16.005722045898438 -1.5968201160430908 0.3402014672756195
15.989355087280273 -1.694330096244812 0.3393060564994812
15.950005531311035 -1.7891899347305298 0.34303534030914307
15.892583847045898 -1.881560206413269 0.3503928780555725
15.925033569335938 -1.9845635890960693 0.3390480875968933
15.773247718811035 -2.0640134811401367 0.36574992537498474
16.04031753540039 -2.199164867401123 0.30544641613960266
15.794373512268066 -2.264270305633545 0.35152292251586914
15.767170906066895 -2.3592066764831543 0.3520675003528595
15.722945213317871 -2.451331377029419 0.3560487926006317
15.606648445129395 -2.531400203704834 0.3749866485595703
15.586543083190918 -2.626413345336914 0.3737393021583557
16.079076766967773 -2.811012029647827 0.2648967206478119
15.926190376281738 -2.8851256370544434 0.2911107540130615
15.966472625732422 -2.993752956390381 0.276658296585083
16.01563262939453 -3.104848623275757 0.26016539335250854
16.06209945678711 -3.2162773609161377 0.24406176805496216
16.054096221923828 -3.31729793548584 0.2393040806055069
16.060779571533203 -3.4216086864471436 0.23129694163799286
16.04096221923828 -3.5204601287841797 0.22876910865306854
16.0654239654541 -3.6293420791625977 0.2166896015405655
16.035737991333008 -3.7262470722198486 0.21598947048187256
12.684429168701172 12.60424518585205 0.16988463699817657
12.630054473876953 12.397624015808105 0.2039250284433365
12.677943229675293 12.29328727722168 0.20979945361614227
12.99746322631836 11.853889465332031 0.21487540006637573
13.030113220214844 11.738483428955078 0.2235831320285797
13.061841011047363 11.62312126159668 0.23229087889194489
13.081588745117188 11.498088836669922 0.2438656985759735
13.129204750061035 11.398348808288574 0.2479841709136963
13.138836860656738 11.266507148742676 0.26166611909866333
13.184800148010254 11.166691780090332 0.26578107476234436
13.190135955810547 11.033358573913574 0.280043363571167
13.232170104980469 10.931635856628418 0.28473028540611267
13.268891334533691 10.826087951660156 0.29056423902511597
13.301763534545898 10.718035697937012 0.2971636652946472
13.337650299072266 10.613040924072266 0.3028026223182678
13.373525619506836 10.508613586425781 0.30824753642082214
13.403969764709473 10.400532722473145 0.3148432672023773
13.439048767089844 10.296651840209961 0.3200927972793579
13.478055000305176 10.196281433105469 0.32418686151504517
13.510834693908691 10.091707229614258 0.32962462306022644
13.548368453979492 9.991189956665039 0.3337136209011078
13.582006454467773 9.888279914855957 0.33857014775276184
13.615692138671875 9.785902976989746 0.34323227405548096
13.662238121032715 9.693136215209961 0.34461507201194763
13.694498062133789 9.590596199035645 0.34927186369895935
13.740543365478516 9.498064041137695 0.3504530191421509
13.803104400634766 9.293754577636719 0.3593686819076538
13.83328628540039 9.191556930541992 0.36382386088371277
13.877503395080566 9.099019050598145 0.3647966682910919
13.891451835632324 8.98709774017334 0.37273046374320984
13.955825805664062 8.908071517944336 0.368663489818573
13.966620445251465 8.795134544372559 0.37698328495025635
14.040013313293457 8.60318660736084 0.3810282051563263
14.079512596130371 8.50931167602539 0.38217201828956604
14.125130653381348 8.419291496276855 0.38175874948501587
14.169327735900879 8.328532218933105 0.38153403997421265
14.197668075561523 8.228692054748535 0.3848018944263458
14.267048835754395 8.15266227722168 0.37853968143463135
14.354010581970215 7.970876216888428 0.37746474146842957
14.464166641235352 7.9166059494018555 0.36162933707237244
15.735647201538086 0.5540846586227417 0.3566364347934723
12.87708854675293 -0.6530722379684448 0.9260153770446777
12.859790802001953 -0.7313101291656494 0.9270058274269104
12.885967254638672 -0.8121306300163269 0.9187324643135071
16.171852111816406 -1.6184158325195312 0.2022903561592102
16.03664779663086 -1.7043317556381226 0.2266428917646408
15.831006050109863 -1.7807815074920654 0.26593056321144104
15.751343727111816 -1.8697646856307983 0.2783479392528534
15.876993179321289 -1.9835456609725952 0.24685333669185638
15.805891990661621 -2.0732452869415283 0.25720763206481934
16.0269718170166 -2.2023606300354004 0.20492123067378998
15.937192916870117 -2.2897591590881348 0.21900607645511627
15.841146469116211 -2.375272512435913 0.2343587428331375
15.762053489685059 -2.462413787841797 0.24599239230155945
15.948962211608887 -2.591975688934326 0.20024076104164124
16.045162200927734 -2.7087841033935547 0.17379137873649597
16.058626174926758 -2.8125317096710205 0.16501346230506897
16.161876678466797 -2.932962656021118 0.13664354383945465
16.031627655029297 -3.0110840797424316 0.1586972177028656
15.976883888244629 -3.102447509765625 0.1643015593290329
15.991623878479004 -3.2072927951812744 0.15467874705791473
15.98269271850586 -3.3076820373535156 0.15006138384342194
15.970257759094238 -3.407472610473633 0.14607007801532745
12.682631492614746 12.29773998260498 0.10293179750442505
13.757378578186035 9.634791374206543 0.23365820944309235
13.810142517089844 9.546341896057129 0.23332737386226654
13.784717559814453 9.281546592712402 0.2642604410648346
13.839329719543457 9.195752143859863 0.2629305422306061
13.860627174377441 9.088139533996582 0.26955482363700867
13.908278465270996 8.998176574707031 0.26960793137550354
13.938003540039062 8.896896362304688 0.27383953332901
14.066320419311523 8.619528770446777 0.27614790201187134
14.119338989257812 8.533611297607422 0.27417871356010437
14.170989036560059 8.446864128112793 0.2724018692970276
14.21703815460205 8.356822967529297 0.2718164026737213
14.25403881072998 8.261616706848145 0.2732250988483429
14.287857055664062 8.164810180664062 0.27523013949394226
16.21926498413086 0.7709171175956726 0.16093522310256958
15.736055374145508 0.5546001195907593 0.26189887523651123
12.878889083862305 -0.6528937816619873 0.8480794429779053
12.853791236877441 -0.7307010293006897 0.8508344888687134
12.872119903564453 -0.810988187789917 0.8440741300582886
15.792482376098633 -1.9724645614624023 0.1691015213727951
15.752511978149414 -2.0657224655151367 0.1729895919561386
15.817501068115234 -2.173053503036499 0.15365707874298096
15.81309700012207 -2.271404266357422 0.1494443416595459
15.846723556518555 -2.3755760192871094 0.13669636845588684
15.8922119140625 -2.4822065830230713 0.12116112560033798
15.760437965393066 -2.6601974964141846 0.1389930099248886
13.771733283996582 9.265897750854492 0.1745775043964386
13.842547416687012 9.191018104553223 0.16917502880096436
13.867111206054688 9.085567474365234 0.1752042919397354
13.897479057312012 8.984410285949707 0.17959782481193542
13.957663536071777 8.902702331542969 0.17642128467559814
13.952753067016602 8.77992057800293 0.18919910490512848
14.063021659851074 8.259811401367188 0.21687915921211243
14.124842643737793 8.18028450012207 0.21223309636116028
15.735279083251953 0.5494678020477295 0.17285045981407166
12.8441162109375 -0.7344708442687988 0.7798990607261658
12.860435485839844 -0.8145794868469238 0.7734468579292297
15.64858341217041 -1.8621954917907715 0.11581779271364212
15.685799598693848 -1.9643054008483887 0.10263662785291672
15.620748519897461 -2.0536015033721924 0.11236168444156647
12.845416069030762 -0.7197054624557495 0.6999976634979248
12.846220016479492 -0.7988308072090149 0.6969802975654602
12.84151840209961 -0.7258403301239014 0.6179826259613037
12.8510103225708 -0.8054907321929932 0.6128727793693542
12.839117050170898 -0.7231253385543823 0.538099467754364
12.84859561920166 -0.8027552962303162 0.5329033732414246
12.831315994262695 -0.7247924208641052 0.4686826169490814
12.84172534942627 -0.8044347763061523 0.4631720185279846
12.829992294311523 -0.7144117951393127 0.39084842801094055
12.837531089782715 -0.7938550710678101 0.3859836161136627
12.828660011291504 -0.7161290049552917 0.3052021861076355
12.83615493774414 -0.7955631017684937 0.3002585470676422
12.819113731384277 -0.713053822517395 0.22882211208343506
12.868080139160156 -0.7949826717376709 0.21276959776878357
12.820712089538574 -0.7175213098526001 0.15862859785556793
12.893651008605957 -0.8009618520736694 0.1357620805501938
12.661410331726074 12.741279602050781 1.2910882234573364
12.672719955444336 12.659737586975098 1.2962689399719238
12.76218318939209 12.749422073364258 0.37717172503471375
12.6990385055542 12.597972869873047 1.2984397411346436
12.797615051269531 12.696146965026855 0.37841475009918213
12.721543312072754 12.532695770263672 1.3012210130691528
12.697705268859863 12.509675979614258 0.41253000497817993
12.738426208496094 12.462206840515137 1.304918646812439
12.730484008789062 12.454964637756348 0.41420555114746094
12.758157730102539 12.39916706085205 1.3077442646026611
12.774399757385254 12.328734397888184 1.3114426136016846
12.801054954528809 12.268637657165527 1.3133043050765991
31.051204681396484 29.55923080444336 0.33208391070365906
12.816662788391113 12.198243141174316 1.3170026540756226
31.070585250854492 29.371919631958008 0.3383912742137909
12.842755317687988 12.138114929199219 1.318862795829773
31.028667449951172 29.11798858642578 0.3512358069419861
12.863444328308105 12.068916320800781 1.3219033479690552
12.897235870361328 12.101526260375977 0.43020734190940857
32.33612823486328 30.132118225097656 2.399806499481201
31.113441467285156 28.994243621826172 0.3507238030433655
12.885346412658691 12.00535774230957 1.3243756294250488
12.922937393188477 12.041348457336426 0.4331549108028412
32.42292785644531 30.01287078857422 2.39808988571167
31.114025115966797 28.80287742614746 0.3582593500614166
12.906708717346191 11.945731163024902 1.326585292816162
12.948101997375488 11.985067367553711 0.4357191026210785
32.486900329589844 29.862335205078125 2.3971896171569824
31.22145652770996 28.700881958007812 0.3553382456302643
12.92440128326416 11.878803253173828 1.3296700716018677
12.956972122192383 11.909822463989258 0.4425185024738312
32.537296295166016 29.699922561645508 2.3967244625091553
31.276992797851562 28.55142593383789 0.3575884699821472
12.952781677246094 11.821928977966309 1.3309125900268555
12.98730754852295 11.854582786560059 0.4441792666912079
32.5295524597168 29.485492706298828 2.398202657699585
13.005524635314941 11.790453910827637 2.1965832710266113
12.964375495910645 11.750009536743164 1.3349182605743408
13.006464958190918 11.78935432434082 0.44840937852859497
32.50212860107422 29.254758834838867 2.400315761566162
13.039074897766113 11.738329887390137 2.196411371231079
12.992222785949707 11.693085670471191 1.3361592292785645
13.030817985534668 11.729077339172363 0.45135316252708435
32.47349548339844 29.024580001831055 2.4024388790130615
13.061267852783203 11.676146507263184 2.197349786758423
13.008733749389648 11.62619400024414 1.3392431735992432
13.047563552856445 11.662209510803223 0.45601117610931396
32.47298049926758 28.810853958129883 2.4036386013031006
13.083344459533691 11.610013008117676 2.1984269618988037
13.034366607666016 11.563640594482422 1.341051459312439
13.067856788635254 11.594721794128418 0.46019434928894043
32.51509475708008 28.646146774291992 2.403315782546997
13.112454414367676 11.554400444030762 2.1986215114593506
13.055859565734863 11.501691818237305 1.3432121276855469
13.08768081665039 11.53115177154541 0.46399444341659546
32.58092498779297 28.502887725830078 2.4021692276000977
13.13570499420166 11.49380111694336 2.199371814727783
13.077078819274902 11.439738273620605 1.345372200012207
13.110925674438477 11.470829010009766 0.4669361114501953
32.57140350341797 28.30455780029297 2.4034829139709473
13.147297859191895 11.427301406860352 2.201097011566162
13.0941743850708 11.37843132019043 1.3478857278823853
13.130071640014648 11.411157608032227 0.47035202383995056
32.6101188659668 28.149066925048828 2.4031503200531006
13.168027877807617 11.368996620178223 2.201892614364624
13.118518829345703 11.323617935180664 1.3491668701171875
13.15269660949707 11.354702949523926 0.47290927171707153
32.62457275390625 27.96353530883789 2.4036591053009033
13.188591957092285 11.306754112243652 2.2028274536132812
13.140835762023926 11.263249397277832 1.3510175943374634
13.17331314086914 11.292720794677734 0.47627800703048706
32.61338806152344 27.757186889648438 2.405001401901245
13.212678909301758 11.247737884521484 2.2033894062042236
13.161004066467285 11.201254844665527 1.3531752824783325
13.193655014038086 11.230731010437012 0.47964611649513245
32.6317024230957 27.577068328857422 2.405327558517456
13.234610557556152 11.187081336975098 2.204136610031128
13.182791709899902 11.140854835510254 1.3550243377685547
13.219369888305664 11.173505783081055 0.48172464966773987
32.63576126098633 27.38591957092285 2.4061057567596436
13.246732711791992 11.118396759033203 2.2058160305023193
13.208121299743652 11.083630561828613 1.3562554121017456
13.244847297668457 11.116238594055176 0.48380225896835327
32.645545959472656 27.19097900390625 2.4067111015319824
13.271955490112305 11.057024955749512 2.206329107284546
13.229409217834473 11.019291877746582 1.3583649396896362
13.262540817260742 11.04872989654541 0.4879820644855499
32.6573371887207 27.008407592773438 2.407177686691284
13.291146278381348 10.994754791259766 2.207261800765991
13.248499870300293 10.957255363464355 1.3605211973190308
13.283709526062012 10.988266944885254 0.4909175634384155
32.6605224609375 26.819740295410156 2.407907247543335
13.311992645263672 10.934072494506836 2.2080070972442627
13.265401840209961 10.893648147583008 1.3629854917526245
13.314132690429688 10.935606002807617 0.49170154333114624
32.664730072021484 26.63295555114746 2.4085769653320312
13.328714370727539 10.87022590637207 2.2091259956359863
13.285865783691406 10.8331880569458 1.3648312091827393
13.329081535339355 10.87041187286377 0.4959266483783722
32.66608810424805 26.444900512695312 2.4093165397644043
13.362590789794922 10.820512771606445 2.208559513092041
13.315713882446289 10.780525207519531 1.3651304244995117
13.355222702026367 10.814547538757324 0.49756890535354614
32.68601989746094 26.272817611694336 2.4094126224517822
13.378796577453613 10.75663948059082 2.209677219390869
13.327954292297363 10.713796615600586 1.368212342262268
13.36769962310791 10.747830390930176 0.5022242665290833
32.687564849853516 26.086885452270508 2.41009783744812
13.408356666564941 10.703669548034668 2.209482192993164
13.347643852233887 10.653302192687988 1.370056390762329
13.397199630737305 10.694982528686523 0.503002941608429
32.707801818847656 25.91678810119629 2.410135269165039
13.425989151000977 10.641334533691406 2.2104110717773438
