# .PCD v0.7 - Point Cloud Data file format
VERSION 0.7
FIELDS x y z
SIZE 4 4 4
TYPE F F F
COUNT 1 1 1
WIDTH 850
HEIGHT 1
VIEWPOINT 0 0 0 1 0 0 0
POINTS 850
DATA ascii
16.373546600341797 -7.420691013336182 0.2723495066165924
16.365671157836914 -7.538651466369629 0.26224419474601746
16.32313346862793 -7.640960216522217 0.25913119316101074
16.482723236083984 -8.727458953857422 0.122963085770607
16.35657501220703 -8.789767265319824 0.136117622256279
16.290679931640625 -8.883795738220215 0.13632610440254211
16.245742797851562 -8.989243507385254 0.13190771639347076
16.051889419555664 -9.01125717163086 0.15959274768829346
16.166629791259766 -9.206786155700684 0.12029742449522018
12.668294906616211 12.895798683166504 0.5683561563491821
12.705060958862305 12.775923728942871 0.5768434405326843
12.700267791748047 12.615782737731934 0.595041811466217
12.762252807617188 12.523160934448242 0.5969991087913513
12.807297706604004 12.414468765258789 0.6028046607971191
12.786697387695312 12.24364948272705 0.6238686442375183
12.798152923583984 12.105389595031738 0.63705974817276
12.827128410339355 11.98494815826416 0.645891010761261
12.880465507507324 11.888007164001465 0.6488435864448547
12.919256210327148 11.778243064880371 0.6549845337867737
12.953524589538574 11.66515064239502 0.6619645953178406
12.987632751464844 11.552734375 0.6687756180763245
13.024554252624512 11.44359016418457 0.6747441291809082
13.067327499389648 11.340241432189941 0.6791951656341553
13.11606216430664 11.242570877075195 0.6821266412734985
13.136256217956543 11.121161460876465 0.6912919878959656
13.162264823913574 11.005616188049316 0.6989416480064392
13.199514389038086 10.900213241577148 0.7038912177085876
13.23520278930664 10.79414176940918 0.7090077996253967
13.280069351196289 10.69607925415039 0.7119258046150208
13.31651782989502 10.591734886169434 0.7165305018424988
13.352965354919434 10.487953186035156 0.7209643721580505
13.394092559814453 10.388348579406738 0.7242110371589661
13.41494083404541 10.273652076721191 0.7316886186599731
13.451397895812988 10.171573638916016 0.735609233379364
13.4847412109375 10.067663192749023 0.7400360703468323
13.525249481201172 9.969571113586426 0.7427646517753601
13.5650634765625 9.87136173248291 0.7454897165298462
13.59618091583252 9.767284393310547 0.7499104142189026
13.643413543701172 9.675168991088867 0.7507603168487549
13.656929016113281 9.559669494628906 0.7585773468017578
13.695488929748535 9.46229076385498 0.7609525918960571
13.726856231689453 9.360356330871582 0.7646862268447876
13.758306503295898 9.258940696716309 0.7682481408119202
13.80052375793457 9.165122985839844 0.7694215774536133
13.82645034790039 9.060872077941895 0.7738314867019653
13.868167877197266 8.96734619140625 0.7748274803161621
13.902613639831543 8.86940860748291 0.7771851420402527
13.952224731445312 8.781355857849121 0.7762934565544128
14.002115249633789 8.6935453414917 0.775223970413208
14.030448913574219 8.592586517333984 0.7784250974655151
14.058072090148926 8.491606712341309 0.781624972820282
14.096837043762207 8.39766788482666 0.7824249863624573
14.137526512145996 8.30506706237793 0.7827066779136658
14.182726860046387 8.215245246887207 0.7819547057151794
14.211102485656738 8.115896224975586 0.7844576835632324
14.31090259552002 8.05710506439209 0.7725329399108887
14.393284797668457 7.9878315925598145 0.7640252709388733
14.915255546569824 8.158480644226074 0.6679781079292297
15.10858154296875 8.144452095031738 0.6375322937965393
15.96953010559082 8.482799530029297 0.4749869406223297
15.73288631439209 0.5486865043640137 0.7363337278366089
12.833041191101074 -0.6552004814147949 1.2448118925094604
12.86282730102539 -0.7358565330505371 1.236725926399231
12.860705375671387 -0.81491619348526 1.2344926595687866
16.047626495361328 -1.6114776134490967 0.6173744201660156
16.093740463256836 -1.7159085273742676 0.6045919060707092
16.02294158935547 -1.807857632637024 0.613715648651123
15.969194412231445 -1.9010963439941406 0.619537353515625
15.904179573059082 -1.9924027919769287 0.6274006366729736
15.834754943847656 -2.0824732780456543 0.6360164284706116
15.85245132446289 -2.1838386058807373 0.6280235648155212
15.849069595336914 -2.282559871673584 0.6239054799079895
15.94808578491211 -2.3968029022216797 0.6001790165901184
15.802592277526855 -2.4742002487182617 0.6228830814361572
16.10874366760254 -2.6235039234161377 0.5593077540397644
16.39909553527832 -2.774198293685913 0.4984285533428192
16.384267807006836 -2.875229597091675 0.49571168422698975
16.256669998168945 -2.955798625946045 0.514525830745697
16.19148063659668 -3.046722888946533 0.5212980508804321
16.261783599853516 -3.1634128093719482 0.5018768310546875
16.15689468383789 -3.246056318283081 0.5160982608795166
16.28636360168457 -3.3761918544769287 0.4849313795566559
16.078540802001953 -3.436180830001831 0.5189122557640076
16.294715881347656 -3.5871009826660156 0.47056815028190613
16.17043113708496 -3.663956642150879 0.4881838858127594
16.17977523803711 -3.770639419555664 0.4797007441520691
16.086191177368164 -3.8530936241149902 0.49119409918785095
16.292234420776367 -5.529504776000977 0.33091798424720764
16.136945724487305 -5.587550163269043 0.3532882630825043
16.251022338867188 -5.739052772521973 0.3207310736179352
16.235408782958984 -5.845927715301514 0.3144092559814453
16.25412368774414 -5.965684413909912 0.3008989095687866
16.25634002685547 -6.080045223236084 0.2905951738357544
16.13113784790039 -6.146416187286377 0.3064180016517639
16.182405471801758 -6.280040264129639 0.28569644689559937
16.408185958862305 -7.435384273529053 0.13835780322551727
16.378755569458008 -7.543673515319824 0.13253718614578247
16.231252670288086 -7.596958637237549 0.15190520882606506
12.65748405456543 12.880030632019043 0.4709697961807251
12.671944618225098 12.737921714782715 0.48530471324920654
12.675359725952148 12.586402893066406 0.5020631551742554
12.649978637695312 12.408419609069824 0.5255709290504456
12.704240798950195 12.310049057006836 0.5292037129402161
13.107105255126953 12.545886993408203 0.4478684663772583
13.101115226745605 12.387451171875 0.4661637842655182
12.808672904968262 11.96332836151123 0.5530622005462646
12.861156463623047 11.865854263305664 0.5563348531723022
12.907833099365234 11.76353931427002 0.5608158707618713
12.936907768249512 11.645941734313965 0.5692837834358215
12.979010581970215 11.540863990783691 0.5744539499282837
13.021793365478516 11.437004089355469 0.5792743563652039
13.05263614654541 11.323372840881348 0.5866976976394653
13.09229850769043 11.218122482299805 0.5918613076210022
13.119888305664062 11.103267669677734 0.5996315479278564
13.160164833068848 10.999862670898438 0.6042695641517639
13.204984664916992 10.900768280029297 0.6076861023902893
13.243741989135742 10.797181129455566 0.6123183369636536
13.281729698181152 10.693527221679688 0.6169483661651611
13.315861701965332 10.587360382080078 0.6222736239433289
13.344548225402832 10.47752571105957 0.6286442875862122
13.381730079650879 10.374978065490723 0.6329195499420166
13.421282768249512 10.274760246276855 0.6364938616752625
13.438119888305664 10.157819747924805 0.6449595093727112
13.476914405822754 10.058137893676758 0.6483554840087891
13.52608871459961 9.966538429260254 0.6492988467216492
13.554744720458984 9.860230445861816 0.6546139717102051
13.602598190307617 9.768303871154785 0.6555485725402832
13.636984825134277 9.667047500610352 0.6592823266983032
13.657737731933594 9.5567045211792 0.6658204197883606
13.694664001464844 9.45821762084961 0.6686742901802063
13.739031791687012 9.365181922912598 0.669769287109375
14.023723602294922 9.43407154083252 0.6190279126167297
14.069462776184082 9.340267181396484 0.6197314858436584
14.103052139282227 9.238701820373535 0.6228923797607422
14.140061378479004 9.13974666595459 0.6251708269119263
14.168917655944824 9.035918235778809 0.6290311217308044
14.003746032714844 8.810453414916992 0.6737725734710693
13.972681999206543 8.671974182128906 0.6898209452629089
14.0235595703125 8.585092544555664 0.6884171962738037
14.063786506652832 8.491804122924805 0.6891242861747742
14.10254955291748 8.397838592529297 0.6900036334991455
14.144935607910156 8.306208610534668 0.6899950504302979
14.176506996154785 8.208454132080078 0.6921038031578064
14.23903751373291 8.128679275512695 0.6876622438430786
14.279678344726562 8.036373138427734 0.6876369714736938
14.335214614868164 7.952467441558838 0.6844178438186646
14.70024585723877 8.037702560424805 0.6175453066825867
15.175124168395996 8.177112579345703 0.5284117460250854
15.729827880859375 0.5461969971656799 0.6487981677055359
12.882607460021973 -0.659824788570404 1.1633057594299316
12.860350608825684 -0.7378094792366028 1.1650104522705078
12.857227325439453 -0.8167911767959595 1.1629502773284912
16.070964813232422 -1.6162480115890503 0.5224153399467468
15.991024017333984 -1.7073830366134644 0.5337530374526978
16.00033950805664 -1.8077352046966553 0.5276738405227661
15.98562240600586 -1.9054811000823975 0.5261415839195251
16.031686782836914 -2.010809898376465 0.5126548409461975
15.775293350219727 -2.077070951461792 0.5580238699913025
15.814379692077637 -2.181018829345703 0.5456880331039429
15.87512493133545 -2.2887461185455322 0.5289661884307861
15.806990623474121 -2.378034830093384 0.537343442440033
15.972105026245117 -2.5031898021698 0.4998455345630646
15.763233184814453 -2.5696818828582764 0.5356607437133789
16.399131774902344 -2.7767128944396973 0.40507254004478455
16.384273529052734 -2.8777434825897217 0.4023396372795105
16.268354415893555 -2.9604294300079346 0.41946351528167725
16.217639923095703 -3.054152488708496 0.4236229956150055
16.24443244934082 -3.162555694580078 0.4123072028160095
16.09536361694336 -3.2362043857574463 0.4357990622520447
16.076719284057617 -3.335252285003662 0.4332914650440216
16.11505126953125 -3.446507453918457 0.4192919135093689
16.276264190673828 -3.5855886936187744 0.38055089116096497
16.10422706604004 -3.6514968872070312 0.4083230495452881
16.08110809326172 -3.750192642211914 0.4061943292617798
16.132062911987305 -5.588591575622559 0.2582434415817261
16.13681411743164 -5.701469898223877 0.24774615466594696
16.16939353942871 -5.824923038482666 0.23121769726276398
16.15501594543457 -5.932088851928711 0.22439739108085632
16.182191848754883 -6.055109977722168 0.20862530171871185
16.112224578857422 -6.142010688781738 0.21328185498714447
16.110376358032227 -6.254904270172119 0.20334085822105408
12.685065269470215 12.898853302001953 0.3642220199108124
12.633721351623535 12.690399169921875 0.3959563374519348
12.649454116821289 12.551688194274902 0.4100785553455353
12.676614761352539 12.425660133361816 0.4209977686405182
12.684330940246582 12.281970977783203 0.4365539252758026
12.82514762878418 12.267212867736816 0.4184040129184723
13.369583129882812 12.632353782653809 0.2995765507221222
12.827851295471191 11.972697257995605 0.4514792561531067
12.873160362243652 11.868459701538086 0.4566848874092102
12.906764030456543 11.75417709350586 0.46456825733184814
12.927021026611328 11.628740310668945 0.4754909574985504
12.971968650817871 11.52637004852295 0.4801546037197113
13.017627716064453 11.42518424987793 0.484456866979599
13.043951988220215 11.307756423950195 0.49323275685310364
13.079044342041016 11.19875431060791 0.4996800720691681
13.115545272827148 11.09165096282959 0.5055885910987854
13.14443302154541 10.978843688964844 0.513109564781189
13.19595718383789 10.885507583618164 0.5150676965713501
13.233104705810547 10.78076457977295 0.5202517509460449
13.277131080627441 10.682138442993164 0.5236377716064453
13.30504322052002 10.571138381958008 0.5306144952774048
13.350668907165527 10.474770545959473 0.533275306224823
13.379286766052246 10.365584373474121 0.539710283279419
13.418787956237793 10.26540756225586 0.5434447526931763
13.453641891479492 10.16217041015625 0.5480767488479614
13.497984886169434 10.066534042358398 0.5503639578819275
13.533742904663086 9.9649019241333 0.5544502139091492
13.570355415344238 9.864364624023438 0.5581730008125305
13.608642578125 9.765472412109375 0.5613518357276917
13.591657638549805 9.627813339233398 0.5768100619316101
13.700039863586426 9.579227447509766 0.5639054775238037
13.627838134765625 9.405073165893555 0.5913038849830627
13.942538261413574 9.49686336517334 0.532243549823761
14.025434494018555 9.428192138671875 0.5248851180076599
13.849878311157227 9.187577247619629 0.574568510055542
13.8455228805542 9.063141822814941 0.5860615372657776
13.878165245056152 8.963653564453125 0.5892202854156494
13.932499885559082 8.878374099731445 0.5874779224395752
14.199421882629395 8.926775932312012 0.5392522215843201
14.070510864257812 8.726004600524902 0.577248752117157
14.025245666503906 8.579501152038574 0.5967451333999634
14.055331230163574 8.480116844177246 0.5997087955474854
14.102473258972168 8.39124584197998 0.5988495349884033
13.970970153808594 8.197592735290527 0.6362192630767822
14.20783519744873 8.220109939575195 0.5943793654441833
14.23027515411377 8.117229461669922 0.5984215140342712
14.26912784576416 8.024022102355957 0.598815381526947
14.312532424926758 7.933502674102783 0.5981101393699646
14.676310539245605 8.018141746520996 0.5294675230979919
15.084050178527832 8.121452331542969 0.4517848491668701
15.245205879211426 8.088244438171387 0.42629364132881165
15.358592987060547 8.02830696105957 0.41082867980003357
15.748888969421387 0.54173344373703 0.556742250919342
12.856319427490234 -0.7419160604476929 1.0933963060379028
12.86001205444336 -0.8213093280792236 1.0899690389633179
15.896453857421875 -1.7025048732757568 0.46212857961654663
15.982762336730957 -1.8109935522079468 0.4405582845211029
16.00307846069336 -1.9128162860870361 0.43202561140060425
15.981871604919434 -2.009824275970459 0.4316788613796234
15.73935604095459 -2.0775418281555176 0.47565048933029175
15.716194152832031 -2.172687530517578 0.47553446888923645
16.04286003112793 -2.3182172775268555 0.40485551953315735
15.804880142211914 -2.382962942123413 0.447733610868454
15.766302108764648 -2.4761979579925537 0.45035091042518616
15.73298454284668 -2.5699996948242188 0.451800674200058
16.046083450317383 -3.0272414684295654 0.3655625879764557
16.17018699645996 -3.153538465499878 0.33416810631752014
16.12800407409668 -3.2481980323791504 0.3365567624568939
16.1246280670166 -3.350635051727295 0.33088618516921997
16.217432022094727 -3.473883628845215 0.3053286671638489
16.078582763671875 -3.547520875930786 0.3272207975387573
16.1048526763916 -3.6571266651153564 0.3150424063205719
16.054000854492188 -3.7493629455566406 0.3186338245868683
15.93208122253418 -3.824193239212036 0.3368411958217621
16.257131576538086 -5.6378278732299805 0.1347762644290924
16.185836791992188 -5.83679723739624 0.13045179843902588
16.204458236694336 -5.956226348876953 0.11631070077419281
16.115774154663086 -6.036251544952393 0.12534387409687042
16.112775802612305 -6.148240089416504 0.11559588462114334
12.672284126281738 12.756010055541992 0.26618170738220215
12.701772689819336 12.630242347717285 0.2773408591747284
12.638341903686523 12.414369583129883 0.31265273690223694
12.660927772521973 12.285303115844727 0.3249322474002838
12.745561599731445 12.216952323913574 0.3207903504371643
12.865514755249023 12.181807518005371 0.30740463733673096
12.852721214294434 12.021453857421875 0.3281692564487457
12.882486343383789 11.902395248413086 0.3376722037792206
12.925798416137695 11.796672821044922 0.34347769618034363
12.966838836669922 11.689549446105957 0.34965023398399353
13.000450134277344 11.576482772827148 0.3574863374233246
13.048661231994629 11.477071762084961 0.3614332973957062
13.07982349395752 11.363323211669922 0.3694513440132141
13.119033813476562 11.257302284240723 0.37524524331092834
13.144693374633789 11.140427589416504 0.384189248085022
13.19051742553711 11.041316986083984 0.3879395127296448
13.236377716064453 10.942689895629883 0.3915002644062042
13.209978103637695 10.785500526428223 0.41251426935195923
13.251765251159668 10.685169219970703 0.41663309931755066
13.291282653808594 10.583504676818848 0.4211205840110779
13.33005428314209 10.481755256652832 0.42560508847236633
13.368856430053711 10.380531311035156 0.4299011826515198
13.40146255493164 10.275036811828613 0.4354976713657379
13.436412811279297 10.171903610229492 0.44034796953201294
13.475325584411621 10.072256088256836 0.4440775215625763
13.514315605163574 9.973094940185547 0.4476179778575897
13.547831535339355 9.870363235473633 0.45227476954460144
13.589372634887695 9.773900985717773 0.4548763036727905
13.632643699645996 9.67900562286377 0.4569133222103119
13.681699752807617 9.588455200195312 0.45745089650154114
13.788328170776367 9.537900924682617 0.444519966840744
14.123637199401855 9.642587661743164 0.3788095712661743
13.777213096618652 9.28299617767334 0.4700738489627838
13.834311485290527 9.198875427246094 0.46815967559814453
13.881860733032227 9.108473777770996 0.46829867362976074
13.910680770874023 9.006089210510254 0.472557008266449
13.913108825683594 8.887300491333008 0.48262956738471985
13.97527027130127 8.807045936584473 0.47900500893592834
14.357291221618652 8.925480842590332 0.40325167775154114
13.998562812805176 8.584150314331055 0.49408864974975586
14.042150497436523 8.493058204650879 0.4942077696323395
14.076713562011719 8.396720886230469 0.4962027966976166
14.12755298614502 8.310235977172852 0.4944303333759308
14.183809280395508 8.226889610290527 0.49133214354515076
14.208028793334961 8.12512493133545 0.49519771337509155
14.28200912475586 8.051824569702148 0.487937867641449
14.291242599487305 7.942143440246582 0.4948142170906067
14.764769554138184 8.087390899658203 0.39975813031196594
14.925161361694336 8.056862831115723 0.37352824211120605
15.155080795288086 8.061559677124023 0.3321439325809479
15.750267028808594 0.5594756603240967 0.4538939893245697
12.86354923248291 -0.7273916006088257 1.0083411931991577
12.857529640197754 -0.8062061071395874 1.0068572759628296
16.040815353393555 -1.600321888923645 0.3329754173755646
16.017606735229492 -1.6973241567611694 0.33348172903060913
15.933455467224121 -1.7873332500457764 0.3464520275592804
15.855620384216309 -1.877182960510254 0.3580344617366791
15.93475341796875 -1.9857748746871948 0.3370359539985657
15.786844253540039 -2.06579327583313 0.36293113231658936
16.002471923828125 -2.1939752101898193 0.31330448389053345
15.799220085144043 -2.264965534210205 0.35051488876342773
15.78170108795166 -2.3613808155059814 0.3490414321422577
15.746172904968262 -2.454953193664551 0.3512038588523865
15.689788818359375 -2.5448873043060303 0.3576146364212036
15.645453453063965 -2.6363413333892822 0.3614097535610199
16.08004379272461 -2.811180591583252 0.26469478011131287
15.741175651550293 -2.851605176925659 0.32996752858161926
15.968399047851562 -2.9941139221191406 0.2762531638145447
16.01178550720215 -3.1041030883789062 0.26097571849823
16.040016174316406 -3.211854934692383 0.24872520565986633
16.0349178314209 -3.3133344650268555 0.2433616816997528
16.06748390197754 -3.423036813735962 0.22987596690654755
16.047657012939453 -3.5219295024871826 0.2273470014333725
16.040590286254883 -3.623731851577759 0.22197450697422028
16.044322967529297 -3.7282416820526123 0.2141590118408203
12.692785263061523 12.612548828125 0.1676010936498642
12.66928768157959 12.436136245727539 0.19326436519622803
12.660324096679688 12.276203155517578 0.21456089615821838
13.005440711975098 11.861165046691895 0.2127756029367447
13.038864135742188 11.746367454528809 0.2212914228439331
13.070639610290527 11.630950927734375 0.22999773919582367
13.088961601257324 11.504570007324219 0.2419538050889969
13.125497817993164 11.39513111114502 0.24894049763679504
13.14330768585205 11.270339965820312 0.2605181336402893
13.175813674926758 11.159079551696777 0.26807814836502075
13.189382553100586 11.032729148864746 0.2802349627017975
13.223847389221191 10.924759864807129 0.286838173866272
13.277256965637207 10.832913398742676 0.2884554862976074
13.307112693786621 10.722346305847168 0.29582110047340393
13.340723037719727 10.615484237670898 0.30203482508659363
13.375068664550781 10.509825706481934 0.30786365270614624
13.418701171875 10.41196346282959 0.3111930787563324
13.436711311340332 10.29486083984375 0.32066959142684937
13.474142074584961 10.193321228027344 0.325148344039917
13.508475303649902 10.089944839477539 0.3302018344402313
13.547578811645508 9.990608215332031 0.3339059054851532
13.582006454467773 9.888279914855957 0.33857014775276184
13.617286682128906 9.78704833984375 0.34284693002700806
13.655036926269531 9.68802547454834 0.34634989500045776
13.698516845703125 9.59341049194336 0.348307341337204
13.742964744567871 9.499737739562988 0.3498740792274475
13.79415225982666 9.287727355957031 0.3614937663078308
13.8447265625 9.199158668518066 0.36111772060394287
13.88899040222168 9.106550216674805 0.3620891273021698
13.9005126953125 8.992959976196289 0.3706020712852478
13.95913314819336 8.91018295288086 0.3678889870643616
13.978242874145508 8.802453994750977 0.3742714524269104
14.027390480041504 8.713976860046387 0.37348371744155884
14.029974937438965 8.597034454345703 0.38335496187210083
14.079512596130371 8.50931167602539 0.38217201828956604
14.124287605285645 8.418789863586426 0.3819531500339508
14.168482780456543 8.328035354614258 0.38172852993011475
14.209548950195312 8.235578536987305 0.38208118081092834
14.244053840637207 8.139521598815918 0.3837900459766388
14.363443374633789 7.976114273071289 0.3753235340118408
14.43663501739502 7.901536464691162 0.36786186695098877
15.737604141235352 0.5541536211967468 0.3562287390232086
12.89272689819336 -0.6538647413253784 0.9227242469787598
12.858813285827637 -0.7312545776367188 0.9272118210792542
12.861551284790039 -0.8105928301811218 0.9238808751106262
16.170879364013672 -1.6183184385299683 0.20249667763710022
16.047348022460938 -1.7054688930511475 0.22436776757240295
15.813506126403809 -1.7788134813308716 0.26965582370758057
15.752317428588867 -1.869879961013794 0.278140664100647
15.870198249816895 -1.982696771621704 0.24830397963523865
15.814621925354004 -2.074389934539795 0.25534164905548096
16.01534080505371 -2.2007627487182617 0.20741085708141327
15.945906639099121 -2.291010856628418 0.21713769435882568
15.849852561950684 -2.376577854156494 0.2324889749288559
15.780416488647461 -2.4652822017669678 0.24204295873641968
15.914204597473145 -2.5863280296325684 0.207728311419487
16.01140594482422 -2.7030863761901855 0.181074857711792
16.064407348632812 -2.8135437965393066 0.1637643575668335
16.161876678466797 -2.932962656021118 0.13664354383945465
16.016246795654297 -3.008195400238037 0.16203336417675018
15.982645034790039 -3.1035659313201904 0.16304990649223328
15.98491096496582 -3.205946683883667 0.15613995492458344
15.977903366088867 -3.3066909313201904 0.15110576152801514
15.952086448669434 -3.4035961627960205 0.15004099905490875
12.676297187805176 12.291596412658691 0.10469673573970795
13.767012596130371 9.641538619995117 0.2312755584716797
13.799663543701172 9.53909683227539 0.23590964078903198
13.780653953552246 9.278809547424316 0.26525452733039856
13.840961456298828 9.196837425231934 0.2625325918197632
13.859807968139648 9.087601661682129 0.26975390315055847
13.91815185546875 9.004565238952637 0.2672182619571686
13.947915077209473 8.903223991394043 0.2714485228061676
14.063815116882324 8.617992401123047 0.27674657106399536
14.118500709533691 8.533105850219727 0.2743784785270691
14.170147895812988 8.44636344909668 0.27260151505470276
14.21703815460205 8.356822967529297 0.2718164026737213
14.249801635742188 8.259159088134766 0.27422502636909485
14.29891586303711 8.171130180358887 0.2726288139820099
16.173357009887695 0.7687314748764038 0.17077142000198364
15.745828628540039 0.5549452900886536 0.25980329513549805
12.850863456726074 -0.7305349111557007 0.8514686822891235
12.854561805725098 -0.8098837733268738 0.8478826284408569
15.85065746307373 -1.9797254800796509 0.15633031725883484
15.747669219970703 -2.0650877952575684 0.1740543097257614
15.823309898376465 -2.1738510131835938 0.15237835049629211
15.808259963989258 -2.270709991455078 0.15051057934761047
15.838994026184082 -2.374418020248413 0.13840319216251373
15.883526802062988 -2.4808506965637207 0.12308219820261002
15.771036148071289 -2.661985158920288 0.13664159178733826
13.761987686157227 9.259339332580566 0.17702731490135193
13.846625328063965 9.1937255859375 0.1681535840034485
13.88430404663086 9.096835136413574 0.17091290652751923
13.898301124572754 8.984942436218262 0.1793934404850006
13.937033653259277 8.88953971862793 0.18153519928455353
13.96020793914795 8.784612655639648 0.18735678493976593
14.072304725646973 8.265265464782715 0.21462194621562958
15.749920845031738 0.5499810576438904 0.16962777078151703
12.843141555786133 -0.7344152331352234 0.7801159024238586
12.851667404174805 -0.8140255212783813 0.7753986120223999
15.673779487609863 -1.8651906251907349 0.11014949530363083
15.664493560791016 -1.961640477180481 0.10743594169616699
15.644937515258789 -2.0567781925201416 0.1069050207734108
12.851256370544434 -0.720032811164856 0.698662519454956
12.854976654052734 -0.799375593662262 0.694976806640625
12.842490196228027 -0.7258952260017395 0.6177542805671692
12.847124099731445 -0.8052473068237305 0.6137872338294983
12.838146209716797 -0.7230707406997681 0.538333535194397
12.854415893554688 -0.8031184077262878 0.5314972400665283
12.83325481414795 -0.7249016165733337 0.4682040810585022
12.84850788116455 -0.8048585653305054 0.46149545907974243
12.835801124572754 -0.7147353887557983 0.38937896490097046
12.852046012878418 -0.7947530150413513 0.38230815529823303
12.831559181213379 -0.7162907719612122 0.30444929003715515
12.8390531539917 -0.7957426309585571 0.2995051145553589
12.819113731384277 -0.713053822517395 0.22882211208343506
12.875797271728516 -0.7954586744308472 0.21071602404117584
12.819747924804688 -0.7174675464630127 0.15888985991477966
12.882089614868164 -0.8002455830574036 0.13890108466148376
13.60901165008545 13.79063606262207 0.14785341918468475
12.663159370422363 12.743040084838867 1.2907830476760864
12.67929744720459 12.670719146728516 1.2947863340377808
12.770425796508789 12.76209545135498 0.37465569376945496
12.703893661499023 12.607179641723633 1.2972620725631714
12.793662071228027 12.696642875671387 0.378886342048645
12.721132278442383 12.536656379699707 1.300959825515747
12.76220989227295 12.57758903503418 0.39635103940963745
12.741581916809082 12.469635963439941 1.3040461540222168
12.717759132385254 12.446850776672363 0.4168122708797455
12.763874053955078 12.400400161743164 1.307087779045105
12.785470008850098 12.335118293762207 1.3098677396774292
12.808563232421875 12.271553993225098 1.3123409748077393
31.014806747436523 29.5142822265625 0.3362131714820862
12.83316421508789 12.209689140319824 1.3145076036453247
31.090517044067383 29.390758514404297 0.3363630771636963
12.849967956542969 12.14493179321289 1.3176376819610596
31.059955596923828 29.15753173828125 0.34765422344207764
12.872204780578613 12.081347465515137 1.320109248161316
12.896933555603027 12.105462074279785 0.42982450127601624
32.34001159667969 30.14628028869629 2.399608612060547
31.073741912841797 28.96737289428711 0.35434040427207947
12.888705253601074 12.012681007385254 1.3235008716583252
12.926253318786621 12.048641204833984 0.4319164752960205
32.430267333984375 30.019664764404297 2.397840976715088
12.912171363830566 11.950786590576172 1.32566499710083
12.940872192382812 11.978375434875488 0.4374314248561859
32.48322296142578 29.85895347595215 2.3973147869110107
31.193925857543945 28.675575256347656 0.3581116497516632
12.9335355758667 11.88719654083252 1.3281354904174805
12.96604061126709 11.918155670166016 0.44037747383117676
32.55170440673828 29.702665328979492 2.396298408508301
31.30038070678711 28.562774658203125 0.35562863945961
12.956669807434082 11.821342468261719 1.330560326576233
12.985723495483398 11.848998069763184 0.4449909031391144
32.538394927978516 29.483173370361328 2.3979625701904297
13.042679786682129 11.819993019104004 2.1930201053619385
12.975610733032227 11.75607681274414 1.3333370685577393
13.008509635925293 11.787086486816406 0.4483637809753418
32.54810333251953 29.285863876342773 2.3988196849823
13.039265632629395 11.73438835144043 2.1965510845184326
12.992410659790039 11.689160346984863 1.336421012878418
13.032852172851562 11.726805686950684 0.4513075351715088
32.462318420410156 29.01458740234375 2.4028162956237793
13.059410095214844 11.674485206604004 2.1975350379943848
13.016135215759277 11.632806777954102 1.3380134105682373
13.049399375915527 11.663850784301758 0.45558246970176697
32.45673751831055 28.806568145751953 2.4041309356689453
13.088781356811523 11.618915557861328 2.197730779647827
13.039782524108887 11.572501182556152 1.3398667573928833
13.069530487060547 11.600271224975586 0.459382563829422
32.53823471069336 28.676607131958008 2.4024817943573
13.108573913574219 11.555041313171387 2.1988532543182373
13.05944538116455 11.508893013000488 1.3423351049423218
13.091222763061523 11.538320541381836 0.4627535343170166
32.585365295410156 28.516799926757812 2.4019668102264404
13.131830215454102 11.494453430175781 2.19960355758667
13.073221206665039 11.440384864807129 1.3457262516021729
13.123763084411621 11.486090660095215 0.46354952454566956
32.59287643432617 28.333194732666016 2.4027085304260254
13.14907169342041 11.432867050170898 2.2007710933685303
13.099687576293945 11.387226104736328 1.3467001914978027
13.137386322021484 11.421526908874512 0.468252032995224
32.628273010253906 28.154800415039062 2.402590274810791
13.175668716430664 11.371583938598633 2.2012882232666016
13.112974166870117 11.314849853515625 1.3503532409667969
13.160261154174805 11.357236862182617 0.4715746343135834
32.62944793701172 27.957841873168945 2.4035441875457764
13.190559387207031 11.304451942443848 2.2027809619903564
13.137140274047852 11.256114959716797 1.351896047592163
13.1790132522583 11.293628692626953 0.47537243366241455
32.622032165527344 27.754735946655273 2.404758930206299
13.216536521911621 11.247048377990723 2.2031564712524414
13.164837837219238 11.200565338134766 1.3528207540512085
13.20498275756836 11.236409187316895 0.47745150327682495
32.64033126831055 27.574600219726562 2.4050850868225098
13.232749938964844 11.181553840637207 2.204463005065918
13.186624526977539 11.140156745910645 1.3546693325042725
13.22507095336914 11.174379348754883 0.4808189868927002
32.64627456665039 27.385042190551758 2.4057986736297607
13.258219718933105 11.12409782409668 2.20483660697937
13.210046768188477 11.08132553100586 1.3562090396881104
13.254322052001953 11.120258331298828 0.4820360541343689
32.651302337646484 27.195777893066406 2.406517744064331
13.277700424194336 11.061810493469238 2.2057690620422363
13.225595474243164 11.016115188598633 1.3589824438095093
13.270110130310059 11.055034637451172 0.4862616956233978
32.66118621826172 27.0115909576416 2.4070491790771484
13.296910285949707 10.999524116516113 2.2067012786865234
13.248499870300293 10.957255363464355 1.3605211973190308
13.296993255615234 10.999253273010254 0.4879065454006195
32.674041748046875 26.830839157104492 2.4074547290802
13.311992645263672 10.934072494506836 2.2080070972442627
13.269237518310547 10.896796226501465 1.3623671531677246
13.312230110168457 10.934041976928711 0.4921317398548126
32.680992126464844 26.636728286743164 2.4080734252929688
13.33640193939209 10.872624397277832 2.2085177898406982
13.2896728515625 10.832438468933105 1.364475131034851
13.342419624328613 10.877423286437988 0.493297278881073
32.692073822021484 26.45649528503418 2.408489227294922
13.356722831726074 10.811907768249512 2.209261417388916
13.307943344116211 10.770398139953613 1.366629958152771
13.359012603759766 10.813766479492188 0.49709099531173706
32.696441650390625 26.271806716918945 2.409102439880371
13.382610321044922 10.755866050720215 2.209442615509033
13.337550163269043 10.71768569946289 1.3669273853302002
32.713600158691406 26.098325729370117 2.409266710281372
13.406320571899414 10.69821834564209 2.2098100185394287
13.349493980407715 10.650973320007324 1.3700093030929565
32.71819305419922 25.915733337402344 2.4098241329193115
13.427840232849121 10.638992309570312 2.2103638648986816
13.370861053466797 10.592009544372559 1.371543526649475
13.405174255371094 10.621367454528809 0.5089040994644165
32.72724533081055 25.746862411499023 2.4101755619049072
13.45118522644043 10.585173606872559 2.2105889320373535
13.388198852539062 10.53382682800293 1.3734335899353027
13.430419921875 10.569266319274902 0.510158896446228
32.72621154785156 25.561731338500977 2.410874128341675
13.464366912841797 10.519755363464355 2.21189284324646
13.412985801696777 10.477889060974121 1.3743466138839722
13.45923137664795 10.516281127929688 0.5109337568283081
32.734153747558594 25.384584426879883 2.411250114440918
13.487106323242188 10.462016105651855 2.212256908416748
13.431660652160645 10.417343139648438 1.3761885166168213
13.476162910461426 10.454168319702148 0.514295220375061
32.75115966796875 25.215314865112305 2.4113011360168457
13.503678321838379 10.399679183959961 2.2131845951080322
13.455976486206055 10.36133861541748 1.3770991563796997
13.494776725769043 10.393567085266113 0.5172248482704163
32.75348663330078 25.035614013671875 2.4118173122406006
13.523943901062012 10.340386390686035 2.213735580444336
13.476122856140137 10.302273750305176 1.3786296844482422
13.513132095336914 10.332965850830078 0.5201538801193237
32.75895309448242 24.85922622680664 2.4122061729431152
13.54991626739502 10.285595893859863 2.2137203216552734
13.492067337036133 10.240195274353027 1.3807801008224487
13.531229972839355 10.272357940673828 0.5230828523635864
32.753597259521484 24.67558479309082 2.412930488586426
13.57168960571289 10.227753639221191 2.214080810546875
13.515669822692871 10.184102058410645 1.381688117980957
13.553000450134277 10.214714050292969 0.5251473784446716
32.76564025878906 24.49704360961914 2.4130802154541016
13.594993591308594 10.167509078979492 2.2143924236297607
13.536831855773926 10.122636795043945 1.3831685781478882
13.572355270385742 10.151725769042969 0.5280269384384155
32.740474700927734 24.300640106201172 2.414414644241333
13.610276222229004 10.105151176452637 2.215317726135254
13.555976867675781 10.063515663146973 1.3846967220306396
13.597587585449219 10.09697437286377 0.5292258858680725
32.599639892578125 24.020206451416016 2.419555425643921
13.635321617126465 10.050203323364258 2.2152979373931885
13.576871871948242 10.00585651397705 1.3859126567840576
13.61863899230957 10.039246559143066 0.531287670135498
32.45726013183594 23.741060256958008 2.4247217178344727
13.652103424072266 9.989317893981934 2.216033697128296
13.599532127380371 9.949638366699219 1.3868167400360107
13.623557090759277 9.969862937927246 0.5368086695671082
32.42854309082031 23.555490493774414 2.4260799884796143
13.670931816101074 9.933749198913574 2.2164385318756104
13.62225341796875 9.897216796875 1.3874566555023193
13.648350715637207 9.918864250183105 0.5376205444335938
32.486141204833984 23.424644470214844 2.4245827198028564
13.69126033782959 9.87578010559082 2.216794729232788
13.644474983215332 9.840922355651855 1.38835871219635
13.668678283691406 9.861104965209961 0.5396808981895447
32.51070785522461 23.270408630371094 2.42415714263916
13.709324836730957 9.816336631774902 2.217339515686035
13.66848373413086 9.78603458404541 1.3889480829238892
13.720800399780273 9.82625961303711 0.5348138213157654
32.55291748046875 23.12931251525879 2.4231271743774414
13.73120403289795 9.75977611541748 2.2175042629241943
13.686213493347168 9.726791381835938 1.3904712200164795
13.680522918701172 9.725550651550293 0.5498616099357605
32.576168060302734 22.975244522094727 2.4227027893066406
13.750818252563477 9.701743125915527 2.21785831451416
13.695588111877441 9.661822319030762 1.39324152469635
13.696050643920898 9.66498851776123 0.5527876019477844
32.571998596191406 22.794113159179688 2.423180341720581
13.775959014892578 9.64415168762207 2.2177820205688477
13.722599983215332 9.605894088745117 1.3934677839279175
13.69886302947998 9.592157363891602 0.5586987733840942
32.62031936645508 22.6503849029541 2.421900510787964
13.800862312316895 9.586502075195312 2.2177047729492188
13.74123764038086 9.544238090515137 1.394940972328186
13.743796348571777 9.548934936523438 0.5555081963539124
32.57972717285156 22.454158782958984 2.423520803451538
13.809503555297852 9.521310806274414 2.2190074920654297
13.766129493713379 9.49060344696045 1.395213007926941
13.758566856384277 9.488347053527832 0.5584332346916199
32.538414001464844 22.266996383666992 2.425130844116211
13.832670211791992 9.469849586486816 2.2188360691070557
13.789175033569336 9.43931770324707 1.395532488822937
13.96445369720459 9.562310218811035 0.520200252532959
32.516605377197266 22.08591651916504 2.4260895252227783
13.855220794677734 9.414521217346191 2.2188048362731934
13.80545711517334 9.379998207092285 1.3970521688461304
14.168569564819336 9.629770278930664 0.48275837302207947
32.55402374267578 21.94576644897461 2.4250729084014893
13.87342357635498 9.356362342834473 2.219154119491577
13.827661514282227 9.324840545654297 1.39763343334198
14.193693161010742 9.574772834777832 0.4834858775138855
32.56005859375 21.793243408203125 2.4250636100769043
13.889768600463867 9.300614356994629 2.2195520401000977
13.854225158691406 9.276195526123047 1.3973236083984375
14.047161102294922 9.40849494934082 0.5202994346618652
32.55464172363281 21.625564575195312 2.4254209995269775
13.917890548706055 9.2493314743042 2.218944549560547
13.87188720703125 9.218192100524902 1.3985278606414795
13.89309310913086 9.235420227050781 0.5588228106498718
32.50672149658203 21.430675506591797 2.427161455154419
13.935413360595703 9.1911039352417 2.2192914485931396
13.897595405578613 9.165637969970703 1.3984793424606323
13.931180000305176 9.190959930419922 0.5565289258956909
32.42229461669922 21.213125228881836 2.430084228515625
13.961044311523438 9.138325691223145 2.218872308731079
13.910656929016113 9.10486888885498 1.4003088474273682
13.946465492248535 9.131513595581055 0.5590128302574158
32.4268684387207 21.05494499206543 2.430053472518921
13.976024627685547 9.078695297241211 2.2194089889526367
13.935944557189941 9.052225112915039 1.4002573490142822
13.96769905090332 9.076093673706055 0.560192346572876
32.474857330322266 20.9254150390625 2.4285717010498047
14.001238822937012 9.025821685791016 2.218986988067627
13.958949089050293 8.99817180633545 1.4005181789398193
14.005269050598145 9.031309127807617 0.5578911304473877
32.526546478271484 20.79849624633789 2.4269473552703857
14.015748977661133 8.966165542602539 2.2195229530334473
13.971297264099121 8.937385559082031 1.4023467302322388
14.011594772338867 8.966471672058105 0.5621121525764465
32.59612274169922 20.675159454345703 2.4247186183929443
14.03787899017334 8.908076286315918 2.2194323539733887
13.997499465942383 8.88215446472168 1.402241587638855
14.029570579528809 8.90584945678711 0.564108669757843
32.58338165283203 20.508039474487305 2.4251794815063477
14.054012298583984 8.849742889404297 2.2197751998901367
14.021953582763672 8.82929801940918 1.4021844863891602
14.0186767578125 8.830608367919922 0.5718143582344055
32.629913330078125 20.38666534423828 2.4236676692962646
14.078953742980957 8.800464630126953 2.2192060947418213
14.038374900817871 8.774884223937988 1.403118371963501
14.074799537658691 8.80106258392334 0.5652014017105103
32.56271743774414 20.187089920043945 2.425886869430542
14.098883628845215 8.744715690612793 2.2191624641418457
14.060317993164062 8.720621109008789 1.4033732414245605
14.402259826660156 8.936178207397461 0.502332329750061
32.479618072509766 19.979066848754883 2.428611993789673
14.127090454101562 8.694158554077148 2.2183475494384766
14.084168434143066 8.667611122131348 1.4033123254776
14.376524925231934 8.851035118103027 0.5130698680877686
32.47439956665039 19.82004165649414 2.428750991821289
14.146608352661133 8.63831615447998 2.218301296234131
14.105701446533203 8.613247871398926 1.403564453125
32.489845275878906 19.67423439025879 2.4281904697418213
14.17230224609375 8.586318969726562 2.2176756858825684
14.127025604248047 8.558838844299316 1.4038152694702148
32.474674224853516 19.510549545288086 2.4286210536956787
14.19139575958252 8.530393600463867 2.2176270484924316
14.150269508361816 8.505663871765137 1.403749942779541
14.172353744506836 8.522507667541504 0.5710554122924805
32.430850982666016 19.3305721282959 2.4299778938293457
14.218836784362793 8.479545593261719 2.2168049812316895
14.169051170349121 8.4498872756958 1.4043136835098267
14.16373348236084 8.450313568115234 0.5778968334197998
32.454044342041016 19.18363380432129 2.4291000366210938
14.236831665039062 8.419780731201172 2.2168965339660645
14.19334602355957 8.394135475158691 1.4041943550109863
14.190130233764648 8.395862579345703 0.5777056217193604
32.44525909423828 19.026025772094727 2.429265022277832
14.26387882232666 8.368791580200195 2.2160706520080566
14.215973854064941 8.34079647064209 1.4041248559951782
14.200013160705566 8.335091590881348 0.5806201696395874
32.45737075805664 18.881275177001953 2.428722381591797
14.286431312561035 8.315205574035645 2.215630292892456
14.236259460449219 8.28615665435791 1.4043694734573364
14.22240924835205 8.281784057617188 0.5809138417243958
32.49590301513672 18.759824752807617 2.4272994995117188
14.311664581298828 8.266556739807129 2.2148520946502686
14.246316909790039 8.229000091552734 1.4059271812438965
14.24105167388916 8.229673385620117 0.5816939473152161
32.60011672973633 18.668659210205078 2.423682928085327
14.33383560180664 8.212849617004395 2.2144083976745605
14.268329620361328 8.175542831420898 1.4058542251586914
14.269460678100586 8.179938316345215 0.5806735157966614
32.71061706542969 18.580698013305664 2.4198403358459473
14.3493070602417 8.1553955078125 2.214545726776123
14.294455528259277 8.124484062194824 1.405147671699524
14.31481647491455 8.139835357666016 0.5761520266532898
32.749046325683594 18.451717376708984 2.4183576107025146
14.386261940002441 8.110170364379883 2.212740182876587
14.322558403015137 8.074560165405273 1.4041228294372559
14.297883987426758 8.064454078674316 0.5843128561973572
32.76734924316406 18.311725616455078 2.417520761489868
14.416549682617188 8.061136245727539 2.2115135192871094
14.341829299926758 8.019696235656738 1.4043614864349365
14.349349975585938 8.027737617492676 0.5784737467765808
32.79817581176758 18.17909049987793 2.416252613067627
14.382580757141113 7.976822853088379 1.4014328718185425
14.366292953491211 7.971656799316406 0.5796329379081726
32.89418411254883 18.082582473754883 2.412814140319824
14.413209915161133 7.932164192199707 0.5746606588363647
32.95261001586914 17.965290069580078 2.4105987548828125
14.911218643188477 8.134134292602539 2.1717591285705566
33.0128173828125 17.848997116088867 2.4083046913146973
14.933774948120117 8.079498291015625 1.3301647901535034
33.01755905151367 17.702983856201172 2.4078266620635986
33.08125305175781 17.588829040527344 2.4053821563720703
33.0804557800293 17.44065284729004 2.4050519466400146
27.789318084716797 14.658407211303711 1.035029649734497
33.112239837646484 17.310054779052734 2.4036269187927246
27.79594612121582 14.538249969482422 1.0369462966918945
33.1065673828125 17.152973175048828 2.4034035205841064
27.82448959350586 14.42369556427002 1.037002444267273
33.10612487792969 17.006511688232422 2.4030098915100098
27.83013343811035 14.303732872009277 1.0389223098754883
33.10505676269531 16.860260009765625 2.4026196002960205
27.853046417236328 14.192956924438477 1.0392745733261108
33.11608123779297 16.727886199951172 2.4018352031707764
33.11830139160156 16.58424949645996 2.401303291320801
33.13336181640625 16.447465896606445 2.400329828262329
33.127689361572266 16.300853729248047 2.40002703666687
33.143856048583984 16.16543197631836 2.398982286453247
33.13923645019531 16.020309448242188 2.398611545562744
33.15879440307617 15.887290000915527 2.397421360015869
32.64876937866211 15.651715278625488 0.6335981488227844
33.15300750732422 15.74254322052002 2.3970577716827393
32.567909240722656 15.473531723022461 0.6430926322937012
33.171932220458984 15.602879524230957 2.3958256244659424
32.68278884887695 15.381690979003906 0.6354875564575195
33.18305587768555 15.466968536376953 2.394864797592163
32.982242584228516 15.382359504699707 0.6115696430206299
33.1890983581543 15.329072952270508 2.394057035446167
33.116943359375 15.304808616638184 0.6020628213882446
33.19194030761719 15.197117805480957 2.39337158203125
33.14690399169922 15.185603141784668 0.6015759110450745
33.19917297363281 15.060551643371582 2.3924930095672607
33.17677688598633 15.05954647064209 0.6011657118797302
33.20357131958008 14.923095703125 2.3916921615600586
33.20164108276367 14.931424140930176 0.6011514067649841
33.209712982177734 14.786808967590332 2.3908181190490723
33.21234893798828 14.797224044799805 0.6023290753364563
33.20615005493164 14.646626472473145 2.390251398086548
33.19288635253906 14.65005111694336 0.6060916781425476
33.220333099365234 14.51465129852295 2.3890762329101562
33.163665771484375 14.499199867248535 0.6106562614440918
33.23170471191406 14.381765365600586 2.3879787921905518
33.16124725341797 14.360613822937012 0.6128391027450562
33.23107147216797 14.244053840637207 2.3872671127319336
33.178871154785156 14.231060981750488 0.6132314205169678
33.24138641357422 14.11140251159668 2.386173963546753
33.16618728637695 14.088895797729492 0.6162172555923462
33.24900817871094 13.971116065979004 2.385115385055542
33.1874885559082 13.954726219177246 0.6162927150726318
33.249027252197266 13.834845542907715 2.384334087371826
33.212764739990234 13.829258918762207 0.6158891916275024
33.25774002075195 13.702550888061523 2.3832459449768066
33.221431732177734 13.69713306427002 0.6168850064277649
33.279815673828125 13.576029777526855 2.38169264793396
33.264198303222656 13.579242706298828 0.6148803234100342
33.28053665161133 13.447840690612793 2.38088321685791
33.26492691040039 13.451150894165039 0.6163970828056335
33.266845703125 13.307491302490234 2.3805015087127686
33.2790641784668 13.322030067443848 0.6167944669723511
33.21541976928711 13.152685165405273 2.3813750743865967
33.21855545043945 13.16359806060791 0.6236116290092468
33.17262649536133 13.00205135345459 2.381946086883545
33.1527214050293 13.003931045532227 0.630842387676239
33.18275833129883 12.872653007507324 2.3807201385498047
33.151222229003906 12.870135307312012 0.6324578523635864
33.21572494506836 12.752299308776855 2.3787081241607666
33.18175506591797 12.749013900756836 0.6312607526779175
33.35626220703125 12.6827392578125 0.6175832152366638
33.509578704833984 12.60077953338623 0.6057761311531067
33.73341751098633 12.5408296585083 2.358358860015869
33.72127151489258 12.546326637268066 0.5888270735740662
33.781578063964844 12.424759864807129 2.3557519912719727
33.77165222167969 12.431164741516113 0.5857748985290527
33.77553939819336 12.295605659484863 2.355013370513916
33.78203582763672 12.30805778503418 0.5860719084739685
33.78053283691406 12.1641206741333 2.3538362979888916
33.798770904541016 12.180808067321777 0.5858423709869385
33.78267288208008 12.031914710998535 2.3527417182922363
33.76808166503906 12.03686237335205 0.5896589159965515
33.78900909423828 11.90149974822998 2.351487874984741
33.800262451171875 11.915643692016602 0.5880168080329895
33.80429458618164 11.774474143981934 2.3499159812927246
33.780242919921875 11.776304244995117 0.5908294916152954
33.80728530883789 11.64341926574707 2.348745822906494
33.81619644165039 11.656734466552734 0.5887807011604309
33.819236755371094 11.515707969665527 2.347254991531372
33.790409088134766 11.51616096496582 0.5920059084892273
33.821231842041016 11.384865760803223 2.346087694168091
33.82308578491211 11.395794868469238 0.5901587605476379
33.82468795776367 11.248250007629395 2.3447999954223633
33.83364486694336 11.261564254760742 0.5902191996574402
33.82565689086914 11.11766242980957 2.343636989593506
33.834651947021484 11.13097858428955 0.5910143852233887
33.838016510009766 10.991064071655273 2.3420701026916504
