# .PCD v0.7 - Point Cloud Data file format
VERSION 0.7
FIELDS x y z
SIZE 4 4 4
TYPE F F F
COUNT 1 1 1
WIDTH 845
HEIGHT 1
VIEWPOINT 0 0 0 1 0 0 0
POINTS 845
DATA ascii
34.05758285522461 -8.67928695678711 0.18209604918956757
34.12168502807617 -8.918973922729492 0.1655474156141281
34.100486755371094 -9.137367248535156 0.15750019252300262
34.09516906738281 -9.360580444335938 0.14768245816230774
34.06731033325195 -9.578150749206543 0.14001888036727905
34.1126594543457 -9.817198753356934 0.1246790960431099
34.077117919921875 -10.033835411071777 0.11749370396137238
34.0716438293457 -10.259878158569336 0.10705292224884033
29.481077194213867 -12.998151779174805 0.35905921459198
33.31773376464844 -19.332563400268555 -0.36538660526275635
33.24257278442383 -19.562786102294922 -0.37525710463523865
33.106048583984375 -19.75713539123535 -0.37788063287734985
31.798925399780273 -20.88087272644043 -0.35556158423423767
20.266056060791016 -13.487119674682617 1.0782461166381836
20.025941848754883 -13.50551986694336 1.0953595638275146
19.750246047973633 -13.496801376342773 1.1171295642852783
19.586626052856445 -13.562207221984863 1.1247156858444214
19.508438110351562 -13.686081886291504 1.1213229894638062
19.452972412109375 -13.826218605041504 1.1148943901062012
19.447364807128906 -14.002795219421387 1.1018481254577637
19.380859375 -14.136460304260254 1.096574306488037
19.516620635986328 -14.606088638305664 1.0500966310501099
19.35024070739746 -14.667853355407715 1.0575690269470215
19.403396606445312 -15.279142379760742 1.0053452253341675
19.43724822998047 -15.500151634216309 0.9852158427238464
28.74119758605957 -23.79829216003418 -0.353789746761322
28.69015884399414 -24.054615020751953 -0.37112298607826233
28.62264633178711 -24.298980712890625 -0.3864425718784332
28.727394104003906 -24.693138122558594 -0.4263850152492523
28.75861167907715 -25.02878761291504 -0.45645803213119507
28.62638282775879 -25.22441864013672 -0.4636043310165405
20.92791175842285 -18.670846939086914 0.619077205657959
20.763154983520508 -18.754201889038086 0.6233725547790527
20.316410064697266 -18.5786075592041 0.668818473815918
20.120691299438477 -18.627891540527344 0.6779244542121887
19.862024307250977 -18.616331100463867 0.696401059627533
19.698745727539062 -18.691951751708984 0.7008630037307739
19.545331954956055 -18.77591323852539 0.7038474678993225
15.514164924621582 14.434033393859863 1.848734974861145
13.102217674255371 11.603784561157227 2.1530659198760986
13.103224754333496 11.462182998657227 2.159294843673706
13.139179229736328 11.352279663085938 2.161475419998169
13.162156105041504 11.232015609741211 2.1650078296661377
13.216911315917969 11.13951301574707 2.164900541305542
13.243460655212402 11.023808479309082 2.167839527130127
13.284483909606934 10.920855522155762 2.169081687927246
13.325517654418945 10.818442344665527 2.1702358722686768
13.352581024169922 10.705337524414062 2.172833204269409
13.391257286071777 10.602206230163574 2.1740684509277344
13.43702220916748 10.505139350891113 2.1744484901428223
13.456865310668945 10.388423919677734 2.177555561065674
13.498762130737305 10.289379119873047 2.1781866550445557
13.5280122756958 10.18122386932373 2.1800973415374756
13.568438529968262 10.082009315490723 2.180722713470459
13.615388870239258 9.98798656463623 2.180572986602783
13.637489318847656 9.876232147216797 2.1829938888549805
13.681425094604492 9.78080940246582 2.183009147644043
13.715752601623535 9.678897857666016 2.183966636657715
13.75097942352295 9.578072547912598 2.1847496032714844
13.785487174987793 9.477178573608398 2.185530185699463
13.826693534851074 9.381256103515625 2.1855311393737793
13.863932609558105 9.282967567443848 2.1858739852905273
13.893837928771973 9.18017864227295 2.186906337738037
13.932185173034668 9.083357810974121 2.186983823776245
13.982434272766113 8.994498252868652 2.185756206512451
14.011932373046875 8.892547607421875 2.1866071224212646
14.060969352722168 8.803263664245605 2.185368776321411
14.084861755371094 8.698528289794922 2.186649799346924
14.133519172668457 8.609381675720215 2.185314416885376
14.186738967895508 8.523042678833008 2.1834487915039062
14.252283096313477 8.443991661071777 2.1802639961242676
14.32169246673584 8.366969108581543 2.176630735397339
14.422030448913574 8.190162658691406 2.1731016635894775
14.495283126831055 8.114688873291016 2.168910264968872
14.630941390991211 8.073281288146973 2.158372163772583
15.0798921585083 8.200918197631836 2.1162736415863037
15.843469619750977 8.49088191986084 2.0426723957061768
27.722135543823242 14.64058780670166 0.854997456073761
27.677644729614258 14.40084171295166 0.8648418188095093
27.732311248779297 14.213994026184082 0.8646156191825867
27.82752227783203 14.048114776611328 0.8602197766304016
28.91558074951172 13.93637466430664 0.7667778134346008
32.31612777709961 15.332221984863281 0.43482735753059387
32.677188873291016 15.258891105651855 0.40423545241355896
33.010498046875 15.168808937072754 0.37633076310157776
33.12156677246094 14.974665641784668 0.3702610433101654
33.13048553466797 14.734796524047852 0.37411370873451233
33.09208297729492 14.475419044494629 0.3824557662010193
33.10207748413086 14.238714218139648 0.38587915897369385
33.12601089477539 14.009026527404785 0.38778215646743774
33.15388870239258 13.78187370300293 0.3891473114490509
33.16824722290039 13.550006866455078 0.3916863203048706
33.21612548828125 13.33258056640625 0.3908017575740814
33.08934783935547 13.046753883361816 0.4068107008934021
33.10519027709961 12.819090843200684 0.40874549746513367
33.45087814331055 12.717733383178711 0.3784313499927521
33.65473175048828 12.559679985046387 0.36182695627212524
33.70174026489258 12.34239673614502 0.36034685373306274
33.71548080444336 12.113558769226074 0.36195632815361023
33.71359634399414 11.880049705505371 0.3649359941482544
33.722354888916016 11.6512451171875 0.3667380213737488
33.729583740234375 11.422778129577637 0.3685453534126282
33.721099853515625 11.18995475769043 0.37172970175743103
33.74418258666992 10.968439102172852 0.37171828746795654
33.75917053222656 10.74494457244873 0.37235045433044434
33.75272750854492 10.515456199645996 0.37491288781166077
33.78284454345703 10.298065185546875 0.3738067150115967
33.784847259521484 10.072731018066406 0.37527573108673096
33.80065155029297 9.852216720581055 0.3752763271331787
33.8198127746582 9.633249282836914 0.3748176395893097
33.805904388427734 9.405607223510742 0.37740981578826904
33.81930923461914 9.18632698059082 0.37723463773727417
33.82841110229492 8.966468811035156 0.37734031677246094
33.831268310546875 8.745595932006836 0.3779129087924957
33.850067138671875 8.529404640197754 0.37681692838668823
33.86072540283203 8.311647415161133 0.3763725757598877
33.86126708984375 8.09199333190918 0.37676963210105896
33.873966217041016 7.875802516937256 0.3758643865585327
33.88529586791992 7.659757614135742 0.37496060132980347
33.88843536376953 7.442371845245361 0.37471410632133484
33.910640716552734 7.229594707489014 0.3725031316280365
33.9324836730957 7.017024517059326 0.3701965808868408
33.9295654296875 6.799759387969971 0.3701426088809967
33.93796920776367 6.5852580070495605 0.3688710629940033
33.929359436035156 6.36796760559082 0.3691074252128601
33.94973373413086 6.15653657913208 0.3664260804653168
33.96584701538086 5.944578170776367 0.3640260398387909
33.977691650390625 5.732154369354248 0.36190879344940186
33.98723220825195 5.519647121429443 0.3598860502243042
33.9856071472168 5.305698871612549 0.3588114082813263
33.986572265625 5.092567443847656 0.3573605418205261
34.00196838378906 4.881885051727295 0.35439085960388184
34.009159088134766 4.670255184173584 0.3520854413509369
34.0130615234375 4.458459377288818 0.34997138381004333
34.01860046386719 4.247159004211426 0.3475715219974518
34.040626525878906 4.03806734085083 0.3434521555900574
32.57167053222656 3.6613142490386963 0.48342832922935486
32.76237106323242 3.479447603225708 0.4628227651119232
32.38948440551758 3.2390806674957275 0.4966633915901184
32.84538269042969 3.081380844116211 0.4500962793827057
32.839454650878906 2.877772808074951 0.44814255833625793
32.60112380981445 2.655508041381836 0.4686359763145447
32.91514205932617 2.4780030250549316 0.4353698790073395
32.68802261352539 2.2593722343444824 0.45456406474113464
32.839927673339844 2.067596197128296 0.43677663803100586
15.742155075073242 0.8931530714035034 2.0999319553375244
15.778952598571777 0.7981919050216675 2.0947813987731934
15.785344123840332 0.7014822363853455 2.0925347805023193
15.787166595458984 0.604570209980011 2.090675115585327
15.79435920715332 0.5078536868095398 2.088230609893799
15.82185173034668 0.4116167426109314 2.0837368965148926
15.826869010925293 0.3146224021911621 2.0813827514648438
15.803425788879395 0.21719421446323395 2.081763982772827
32.736061096191406 0.2513093054294586 0.4144115149974823
32.780357360839844 0.05058252438902855 0.405830055475235
32.88114547729492 -0.15094207227230072 0.39154306054115295
12.505434036254883 -0.13540016114711761 2.3991761207580566
12.486302375793457 -0.211801216006279 2.3993146419525146
12.537341117858887 -0.28959354758262634 2.3924620151519775
12.819655418395996 -0.37475860118865967 2.3626084327697754
12.854744911193848 -0.45471397042274475 2.3571789264678955
12.861495018005371 -0.5339635610580444 2.354509115219116
32.91397476196289 -1.5655452013015747 0.354253888130188
13.105043411254883 -0.7051835656166077 2.3260531425476074
12.840065956115723 -0.7699885368347168 2.350356340408325
12.827987670898438 -0.8482723832130432 2.3493714332580566
12.559380531311035 -0.9079692959785461 2.3740766048431396
12.821249961853027 -1.0059583187103271 2.345512628555298
12.664960861206055 -1.0719341039657593 2.3589062690734863
33.11668395996094 -3.004293203353882 0.2935267388820648
12.030577659606934 -1.167175531387329 2.4182400703430176
33.16851806640625 -3.4197933673858643 0.27552029490470886
33.178131103515625 -3.626631021499634 0.2679559290409088
33.194358825683594 -3.8346304893493652 0.2595802843570709
33.57767105102539 -4.087793350219727 0.2136697769165039
33.07979965209961 -4.233331203460693 0.2574104368686676
33.87416458129883 -4.546342372894287 0.16904011368751526
33.90036392211914 -4.76177453994751 0.15893074870109558
33.9212532043457 -4.977125644683838 0.14921291172504425
33.887664794921875 -5.184791564941406 0.14495143294334412
33.787960052490234 -5.381911277770996 0.1473848670721054
33.76171112060547 -5.590352535247803 0.1421242207288742
33.844966888427734 -5.817714214324951 0.12537723779678345
29.238370895385742 -5.211061477661133 0.5957876443862915
33.77992248535156 -6.234255790710449 0.11544179916381836
33.67609786987305 -6.429023742675781 0.11772133409976959
29.448484420776367 -13.00067138671875 0.17998185753822327
20.56855010986328 -13.341329574584961 0.9270609021186829
19.97100067138672 -13.128756523132324 0.9923921823501587
20.503541946411133 -13.65985107421875 0.9080833196640015
19.64133644104004 -13.260414123535156 1.0092288255691528
19.517444610595703 -13.352015495300293 1.0121854543685913
19.385820388793945 -13.437503814697266 1.0161564350128174
19.34091567993164 -13.582996368408203 1.0083348751068115
19.964725494384766 -14.390411376953125 0.8943275809288025
19.348346710205078 -14.127583503723145 0.9643787741661072
19.51747703552246 -14.435673713684082 0.9261595010757446
19.479114532470703 -14.593240737915039 0.9164009690284729
19.364330291748047 -14.693818092346191 0.9171919226646423
19.275230407714844 -15.002872467041016 0.898682177066803
19.605512619018555 -15.650424003601074 0.819281816482544
19.320968627929688 -15.618581771850586 0.8437271118164062
19.310564041137695 -15.807281494140625 0.8285743594169617
27.606990814208984 -22.882171630859375 -0.40090638399124146
27.395549774169922 -22.992294311523438 -0.39438509941101074
27.172443389892578 -23.091039657592773 -0.3861468434333801
26.961214065551758 -23.198284149169922 -0.37966305017471313
26.800642013549805 -23.348196029663086 -0.38077598810195923
26.62061882019043 -23.48058319091797 -0.3790578842163086
20.55660629272461 -18.58644676208496 0.4951339364051819
20.32305908203125 -18.60349464416504 0.5105597972869873
20.079875946044922 -18.608930587768555 0.527610719203949
19.858415603637695 -18.63180160522461 0.5414380431175232
19.66697883605957 -18.68071937561035 0.5506778359413147
19.443462371826172 -18.697002410888672 0.565040111541748
15.504110336303711 14.454601287841797 1.7181098461151123
12.964195251464844 11.793197631835938 2.0467770099639893
12.999053001403809 11.68017864227295 2.0496902465820312
13.039719581604004 11.573127746582031 2.0517892837524414
13.06982707977295 11.457481384277344 2.0550620555877686
13.106538772583008 11.348420143127441 2.057429552078247
13.147703170776367 11.243868827819824 2.0591607093811035
13.175907135009766 11.128959655761719 2.0623414516448975
13.226140975952148 11.033263206481934 2.0627968311309814
13.256481170654297 10.921539306640625 2.065521001815796
13.2905855178833 10.813629150390625 2.0676987171173096
13.326972961425781 10.708206176757812 2.0695104598999023
13.371150016784668 10.609551429748535 2.070316791534424
13.395805358886719 10.496018409729004 2.0733113288879395
13.444777488708496 10.402079582214355 2.073380708694458
13.471735954284668 10.29161262512207 2.075916290283203
13.520108222961426 10.197997093200684 2.0758862495422363
13.552664756774902 10.092873573303223 2.077594041824341
13.581232070922852 9.985374450683594 2.079667806625366
13.620275497436523 9.886093139648438 2.080454111099243
13.658613204956055 9.786707878112793 2.0812370777130127
13.706000328063965 9.694123268127441 2.080911636352539
13.732354164123535 9.587075233459473 2.0828866958618164
13.772671699523926 9.49023723602295 2.0831995010375977
13.803261756896973 9.387106895446777 2.0845253467559814
13.849642753601074 9.295053482055664 2.083998918533325
13.876317977905273 9.19013786315918 2.0855982303619385
13.908066749572754 9.089058876037598 2.086547613143921
13.952486038208008 8.996566772460938 2.0860092639923096
14.000494956970215 8.90654468536377 2.085000991821289
14.0209379196167 8.799333572387695 2.0869648456573486
14.060065269470215 8.70426082611084 2.0867865085601807
14.102802276611328 8.61163330078125 2.0861377716064453
14.138110160827637 8.514697074890137 2.086231231689453
14.184743881225586 8.424768447875977 2.085012197494507
14.221357345581055 8.32905387878418 2.0848171710968018
14.259054183959961 8.234200477600098 2.084430694580078
14.302179336547852 8.142646789550781 2.083383560180664
14.349059104919434 8.05330753326416 2.0818614959716797
14.571357727050781 8.061043739318848 2.06133770942688
14.866827011108398 8.105904579162598 2.032949447631836
27.510465621948242 14.78118896484375 0.6774787902832031
27.535133361816406 14.577705383300781 0.6809853911399841
27.585710525512695 14.388744354248047 0.6815662980079651
27.597810745239258 14.180601119995117 0.6861169338226318
27.63771629333496 13.987685203552246 0.6875485181808472
27.693220138549805 13.803248405456543 0.6871782541275024
27.790401458740234 13.639707565307617 0.6822463274002075
27.9305362701416 13.49671459197998 0.672641932964325
28.14816665649414 13.389713287353516 0.654732882976532
28.436744689941406 13.313889503479004 0.6292508840560913
32.55792236328125 15.000738143920898 0.19938357174396515
33.09222412109375 15.001730918884277 0.14855296909809113
33.12681579589844 14.773338317871094 0.15027742087841034
33.06960678100586 14.505499839782715 0.161479651927948
33.09811019897461 14.276763916015625 0.16350550949573517
33.125057220458984 14.048224449157715 0.1655333787202835
33.14677047729492 13.81835651397705 0.16794800758361816
33.176124572753906 13.592522621154785 0.16940410435199738
33.220577239990234 13.37353801727295 0.16912761330604553
33.0738525390625 13.07948112487793 0.18861670792102814
33.08993148803711 12.851869583129883 0.19096648693084717
33.4429817199707 12.753641128540039 0.15813463926315308
33.619876861572266 12.585609436035156 0.1435130536556244
33.62873458862305 12.354449272155762 0.14619892835617065
33.65662384033203 12.131077766418457 0.14675678312778473
33.65676498413086 11.898537635803223 0.15003502368927002
33.66849136352539 11.671014785766602 0.15195949375629425
33.68623733520508 11.446353912353516 0.15310849249362946
33.69588088989258 11.219712257385254 0.1549435704946518
33.702125549316406 10.992764472961426 0.15697814524173737
33.7049560546875 10.765552520751953 0.15921370685100555
33.71387481689453 10.541095733642578 0.1606718897819519
33.72511672973633 10.318095207214355 0.1617429405450821
33.73393630981445 10.095067024230957 0.16291563212871552
33.735565185546875 9.87063980102539 0.16468152403831482
33.74528503417969 9.649306297302246 0.16546973586082458
33.765052795410156 9.431434631347656 0.165079727768898
33.772865295410156 9.21080207824707 0.1657750904560089
33.782127380371094 8.991193771362305 0.1661771684885025
33.789005279541016 8.771565437316895 0.16668157279491425
33.802181243896484 8.554142951965332 0.16639815270900726
33.80139923095703 8.33378791809082 0.16740377247333527
33.8262825012207 8.120266914367676 0.1656370759010315
33.83916091918945 7.904262065887451 0.16496092081069946
33.83804702758789 7.685537338256836 0.16557978093624115
33.845245361328125 7.469265460968018 0.1652071326971054
33.86273956298828 7.255693435668945 0.16364087164402008
33.871089935302734 7.0405659675598145 0.16287216544151306
33.87223434448242 6.824426651000977 0.1627057045698166
33.88371276855469 6.610822677612305 0.16134069859981537
33.895809173583984 6.397701263427734 0.1597764790058136
33.89579391479492 6.182713985443115 0.15931615233421326
33.91695785522461 5.971932888031006 0.15654867887496948
33.922096252441406 5.758624076843262 0.1552874743938446
33.94259262084961 5.548202991485596 0.15231582522392273
33.94605255126953 5.335272789001465 0.15095530450344086
33.95112991333008 5.122951984405518 0.14929352700710297
33.96079635620117 4.911621570587158 0.14702600240707397
33.95238494873047 4.698044776916504 0.146479994058609
33.975189208984375 4.489053249359131 0.14259293675422668
33.985843658447266 4.278588771820068 0.13981792330741882
33.967533111572266 4.0648512840271 0.13988712430000305
32.47407913208008 3.684304714202881 0.291664183139801
32.43035888671875 3.478050708770752 0.29417887330055237
32.37444305419922 3.271369218826294 0.2978280484676361
32.370697021484375 3.0705740451812744 0.29597774147987366
32.33894729614258 2.8675739765167236 0.2968911826610565
32.353519439697266 2.6690011024475098 0.2928983271121979
32.32421875 2.467100143432617 0.2933107316493988
32.38990783691406 2.2724082469940186 0.2837747633457184
32.413726806640625 2.0743963718414307 0.27843621373176575
15.7514066696167 0.9112846255302429 2.0020360946655273
15.779337882995605 0.8158347606658936 1.997618317604065
15.786819458007812 0.719170331954956 1.9952565431594849
15.79172134399414 0.6223652362823486 1.9930987358093262
15.798013687133789 0.5255919694900513 1.9907329082489014
15.823598861694336 0.4293026328086853 1.9862943887710571
15.82870864868164 0.3323008716106415 1.9839218854904175
15.826260566711426 0.23514804244041443 1.9822746515274048
32.48982238769531 0.28303518891334534 0.23886233568191528
32.67152404785156 0.08421403169631958 0.21568576991558075
32.56357192993164 -0.11579915881156921 0.2226768136024475
32.54490280151367 -0.31536558270454407 0.22020085155963898
32.41960144042969 -0.5130406618118286 0.22880029678344727
32.427337646484375 -0.7121427059173584 0.22331207990646362
32.43682861328125 -0.9114453792572021 0.21750512719154358
32.43018341064453 -1.1103832721710205 0.2132657766342163
12.90079402923584 -0.5207342505455017 2.271364450454712
32.5403938293457 -1.5140358209609985 0.19133278727531433
13.05197811126709 -0.6873201727867126 2.251152515411377
12.8646821975708 -0.7566150426864624 2.268831729888916
12.862603187561035 -0.8357014656066895 2.2668309211730957
12.84118938446045 -0.9134507179260254 2.266836404800415
12.86094856262207 -0.994189977645874 2.262404441833496
13.219097137451172 -1.103507161140442 2.2217533588409424
11.994711875915527 -1.0754005908966064 2.3503124713897705
12.824706077575684 -1.867970585823059 2.237135648727417
12.814793586730957 -1.946895956993103 2.2352333068847656
29.236787796020508 -5.179352283477783 0.4138455390930176
19.608036041259766 -6.95891809463501 1.3048224449157715
19.4749698638916 -7.046591758728027 1.3129043579101562
19.408700942993164 -7.157656192779541 1.3129864931106567
19.349246978759766 -7.270971775054932 1.3121858835220337
19.293771743774414 -7.385605335235596 1.310835361480713
19.25243377685547 -7.505609512329102 1.3077021837234497
19.240825653076172 -7.637485504150391 1.3008770942687988
19.247671127319336 -7.777320384979248 1.291692852973938
19.204811096191406 -7.897496700286865 1.288448691368103
20.589611053466797 -13.145753860473633 0.7890267372131348
20.352279663085938 -13.170872688293457 0.8078960180282593
20.061439514160156 -13.158169746398926 0.8343515992164612
19.839366912841797 -13.187491416931152 0.851359486579895
19.583921432495117 -13.191838264465332 0.873176634311676
19.46782112121582 -13.288187026977539 0.875403881072998
19.38068389892578 -13.403948783874512 0.8734607696533203
19.36199378967285 -13.56759262084961 0.8616287112236023
19.32258415222168 -13.71771240234375 0.8525869846343994
19.314306259155273 -13.891057014465332 0.8388753533363342
19.30542755126953 -14.065401077270508 0.8250356316566467
19.303918838500977 -14.2466459274292 0.809900164604187
19.30170249938965 -14.428996086120605 0.7946343421936035
19.289257049560547 -14.605259895324707 0.7806441187858582
19.29349708557129 -14.795814514160156 0.7639473676681519
19.28513526916504 -14.97844123840332 0.7488783001899719
19.289302825927734 -15.172574043273926 0.7316839098930359
19.285593032836914 -15.362369537353516 0.7154145240783691
19.292638778686523 -15.562666893005371 0.6972487568855286
19.295635223388672 -15.761741638183594 0.6794204711914062
19.322160720825195 -15.98232650756836 0.6576865911483765
19.312437057495117 -16.175134658813477 0.6412399411201477
19.32984733581543 -16.392831802368164 0.620293378829956
19.395776748657227 -16.65468978881836 0.5914083123207092
20.559532165527344 -18.55096435546875 0.3266909718513489
20.310766220092773 -18.554153442382812 0.34559011459350586
20.062744140625 -18.55499839782715 0.3645399808883667
19.81620979309082 -18.554182052612305 0.3834213614463806
19.649715423583984 -18.62618637084961 0.38926321268081665
19.450132369995117 -18.66522789001465 0.4006117284297943
15.50258731842041 14.453569412231445 1.5802990198135376
12.908864974975586 11.888341903686523 1.9320363998413086
12.960718154907227 11.790188789367676 1.9331482648849487
12.986684799194336 11.669228553771973 1.937544584274292
14.411850929260254 12.791152954101562 1.759824514389038
14.488310813903809 12.70120620727539 1.7582358121871948
14.485204696655273 12.54239273071289 1.7668217420578003
13.136610984802246 11.23458480834961 1.9479584693908691
13.171613693237305 11.125542640686035 1.9506067037582397
13.22488021850586 11.032432556152344 1.9508211612701416
13.26444149017334 10.928327560424805 1.9526855945587158
13.300910949707031 10.82226848602295 1.9548399448394775
13.337356567382812 10.716794967651367 1.9568945169448853
13.362873077392578 10.603240966796875 1.9602173566818237
13.392203330993652 10.493456840515137 1.962954044342041
13.437219619750977 10.396504402160645 1.9636354446411133
13.481551170349121 10.29939079284668 1.9643125534057617
13.509308815002441 10.190139770507812 1.9669467210769653
13.549005508422852 10.090444564819336 1.9680101871490479
13.589593887329102 9.991825103759766 1.9688740968704224
13.615790367126465 9.883147239685059 1.9714066982269287
13.654109954833984 9.783799171447754 1.9723637104034424
13.690911293029785 9.683777809143066 1.9734166860580444
13.727001190185547 9.583670616149902 1.9744668006896973
13.765658378601074 9.48574447631836 1.9751189947128296
13.80116081237793 9.386024475097656 1.9760648012161255
13.843396186828613 9.291215896606445 1.9761171340942383
13.8742036819458 9.189099311828613 1.9774529933929443
13.915942192077637 9.094573974609375 1.9773988723754883
13.951189994812012 8.99610710144043 1.9780353307724
13.979877471923828 8.893810272216797 1.9793646335601807
14.023848533630371 8.801548957824707 1.9788023233413696
14.054524421691895 8.701225280761719 1.9797288179397583
14.091293334960938 8.60500431060791 1.9798557758331299
14.132523536682129 8.511739730834961 1.979380488395691
14.178274154663086 8.421339988708496 1.9783010482788086
14.224306106567383 8.331201553344727 1.977115511894226
14.249948501586914 8.229369163513184 1.978227138519287
14.288711547851562 8.135411262512207 1.9777336120605469
14.33380126953125 8.045183181762695 1.976433277130127
14.653422355651855 8.106911659240723 1.9433809518814087
14.953359603881836 8.153584480285645 1.9126670360565186
15.884531021118164 8.53548812866211 1.8094927072525024
27.4713191986084 14.545631408691406 0.4851921498775482
27.48023796081543 14.335447311401367 0.49080023169517517
27.513280868530273 14.138886451721191 0.4934859573841095
27.521867752075195 13.93077564239502 0.49880239367485046
27.460386276245117 13.688916206359863 0.5119207501411438
27.68186378479004 13.588178634643555 0.49273279309272766
27.772357940673828 13.422030448913574 0.48831161856651306
28.079248428344727 13.358712196350098 0.4592941701412201
28.432342529296875 13.313642501831055 0.4250212013721466
32.25187301635742 3.461137294769287 0.10083938390016556
15.758430480957031 0.9123631715774536 1.8983128070831299
15.774426460266113 0.8162556290626526 1.8950600624084473
19.290756225585938 0.7611920237541199 1.5034619569778442
19.263002395629883 0.6417964696884155 1.504465937614441
12.895130157470703 -0.5993449687957764 2.1856465339660645
13.011104583740234 -0.6847421526908875 2.1704494953155518
12.87850284576416 -0.7570160031318665 2.183166980743408
12.873433113098145 -0.8359929323196411 2.181480884552002
12.857966423034668 -0.9142328500747681 2.180915355682373
12.824553489685059 -1.1494170427322388 2.177436590194702
12.81608772277832 -1.2279608249664307 2.1758668422698975
12.815047264099121 -1.3072516918182373 2.1733968257904053
12.800676345825195 -1.3851877450942993 2.172391891479492
12.798662185668945 -1.4644657373428345 2.1699204444885254
12.76064395904541 -1.5394893884658813 2.1715190410614014
12.738933563232422 -1.8550677299499512 2.162431478500366
29.221967697143555 -5.174706935882568 0.22159290313720703
19.949512481689453 -6.532097339630127 1.1575428247451782
19.472658157348633 -6.508584022521973 1.209201693534851
19.22433090209961 -6.557051181793213 1.2325636148452759
19.142168045043945 -6.660480499267578 1.2351778745651245
19.134334564208984 -6.789717674255371 1.2283928394317627
19.108821868896484 -6.913029670715332 1.223724603652954
19.081584930419922 -7.035943031311035 1.2191740274429321
19.08980941772461 -7.172403335571289 1.2100197076797485
19.125822067260742 -7.3202338218688965 1.1971931457519531
19.062664031982422 -7.430551528930664 1.1968902349472046
19.04317855834961 -7.557952880859375 1.190911889076233
20.330175399780273 -8.213542938232422 1.0165960788726807
19.025529861450195 -7.822694301605225 1.1758646965026855
19.114267349243164 -7.996717929840088 1.1555042266845703
19.108386993408203 -8.132466316223145 1.1472417116165161
28.398164749145508 -16.223548889160156 -0.3584505021572113
28.4461727142334 -16.48351287841797 -0.38326403498649597
28.387643814086914 -16.683320999145508 -0.3932928740978241
28.331995010375977 -16.885574340820312 -0.4039299190044403
28.203569412231445 -17.04465103149414 -0.4043486714363098
27.940542221069336 -17.1208553314209 -0.3855104148387909
27.78050994873047 -17.258380889892578 -0.3814861476421356
27.655122756958008 -17.416807174682617 -0.3825581669807434
20.499032974243164 -13.086637496948242 0.6424274444580078
20.2221622467041 -13.085410118103027 0.6683743000030518
19.92202377319336 -13.065502166748047 0.6979314684867859
19.7377986907959 -13.118773460388184 0.7105379104614258
19.534746170043945 -13.1575288772583 0.7260012030601501
19.396728515625 -13.23849105834961 0.7318159937858582
19.31886100769043 -13.360029220581055 0.728570818901062
19.25729751586914 -13.493070602416992 0.7227534651756287
19.261995315551758 -13.673541069030762 0.706731379032135
19.21605110168457 -13.819233894348145 0.6982049345970154
19.231603622436523 -14.010455131530762 0.680067241191864
19.251911163330078 -14.207099914550781 0.6609255075454712
19.23952293395996 -14.381351470947266 0.6465790271759033
19.22808837890625 -14.557781219482422 0.6318522691726685
19.204181671142578 -14.72615909576416 0.6188459992408752
19.239276885986328 -14.941657066345215 0.5963029861450195
19.233440399169922 -15.12746524810791 0.5799300670623779
19.242340087890625 -15.32674789428711 0.5609410405158997
19.23560905456543 -15.515493392944336 0.5441684722900391
19.258785247802734 -15.730467796325684 0.5222925543785095
19.25098419189453 -15.92227840423584 0.5051180124282837
19.2392635345459 -16.112674713134766 0.4883044362068176
19.224411010742188 -16.3022403717041 0.47172778844833374
19.271183013916016 -16.546524047851562 0.4446733891963959
19.333642959594727 -16.807615280151367 0.4145985245704651
20.87104606628418 -18.599328994750977 0.11489902436733246
20.546894073486328 -18.53822898864746 0.1475374698638916
20.32245445251465 -18.563528060913086 0.1634824573993683
20.088285446166992 -18.57734489440918 0.18122433125972748
19.860519409179688 -18.59442138671875 0.19801053404808044
19.636905670166016 -18.61281967163086 0.21421560645103455
19.444604873657227 -18.658720016479492 0.22506701946258545
12.87043571472168 11.995244979858398 1.8239198923110962
12.939156532287598 11.91203784942627 1.8229466676712036
12.876352310180664 11.709305763244629 1.8402173519134521
12.929211616516113 11.613492012023926 1.841192364692688
14.317657470703125 12.703193664550781 1.657665729522705
14.476601600646973 12.686600685119629 1.644687294960022
13.122003555297852 11.358017921447754 1.83883798122406
13.120138168334961 11.216561317443848 1.8468948602676392
13.168712615966797 11.119194030761719 1.8479490280151367
13.220406532287598 11.024836540222168 1.8484827280044556
13.255316734313965 10.916983604431152 1.8511799573898315
13.296347618103027 10.814764976501465 1.852945327758789
13.311812400817871 10.692520141601562 1.8580189943313599
13.352771759033203 10.591509819030762 1.8595744371414185
13.388298988342285 10.486719131469727 1.8617490530014038
13.430122375488281 10.38736629486084 1.862987756729126
13.464910507202148 10.283064842224121 1.8650537729263306
13.50051498413086 10.179924011230469 1.8669102191925049
13.535360336303711 10.076733589172363 1.8687645196914673
13.578266143798828 9.979978561401367 1.8694710731506348
13.60359001159668 9.870805740356445 1.8723632097244263
13.64183235168457 9.771546363830566 1.8734813928604126
13.689114570617676 9.6790771484375 1.8733431100845337
13.722728729248047 9.577287673950195 1.8748725652694702
13.75806713104248 9.477142333984375 1.876085877418518
13.794339179992676 9.37804126739502 1.8770869970321655
13.834043502807617 9.281620979309082 1.8775612115859985
13.870596885681152 9.183419227600098 1.8783464431762695
13.916458129882812 9.091644287109375 1.8778676986694336
13.925774574279785 8.976480484008789 1.8819067478179932
13.975320816040039 8.887697219848633 1.880789875984192
14.029356002807617 8.801811218261719 1.8790342807769775
14.043967247009277 8.691523551940918 1.8821240663528442
14.093402862548828 8.603148460388184 1.8807806968688965
14.126948356628418 8.50525951385498 1.8813328742980957
14.16495418548584 8.41032886505127 1.8812477588653564
14.207476615905762 8.318265914916992 1.8805232048034668
14.241652488708496 8.221521377563477 1.8807477951049805
14.277770042419434 8.126145362854004 1.8806506395339966
14.3158540725708 8.03209400177002 1.8802311420440674
14.435981750488281 7.983601093292236 1.8697025775909424
14.94803237915039 8.147624015808105 1.8113408088684082
27.448501586914062 14.744815826416016 0.29432496428489685
27.47649383544922 14.543622016906738 0.29832494258880615
27.49423599243164 14.338037490844727 0.30339571833610535
27.506074905395508 14.130512237548828 0.3090057671070099
27.544795989990234 13.937744140625 0.3111974895000458
27.525236129760742 13.716649055480957 0.32024601101875305
27.617361068725586 13.551945686340332 0.3156867027282715
27.740726470947266 13.40219497680664 0.30724748969078064
27.92165184020996 13.279196739196777 0.2917998731136322
28.263273239135742 13.229930877685547 0.2570549547672272
28.734451293945312 13.23645305633545 0.20682929456233978
44.796329498291016 8.169109344482422 -1.5288423299789429
19.27292251586914 0.757918119430542 1.3895338773727417
19.259052276611328 0.6390987038612366 1.3891081809997559
12.898964881896973 -0.6808291077613831 2.105423927307129
12.868576049804688 -0.7584158778190613 2.1067955493927
12.855560302734375 -0.8368160724639893 2.106053352355957
12.880696296691895 -0.9178350567817688 2.1007134914398193
12.776366233825684 -1.305294156074524 2.1005797386169434
12.703758239746094 -1.3766865730285645 2.1066198348999023
12.638260841369629 -1.6054428815841675 2.1061439514160156
12.62798023223877 -1.682929515838623 2.104482650756836
12.6378755569458 -1.763230562210083 2.100315570831299
12.652169227600098 -1.844433069229126 2.0955464839935303
12.539321899414062 -1.9066381454467773 2.106203079223633
20.186023712158203 -6.4755682945251465 1.008150339126587
20.144638061523438 -6.598946571350098 1.005590558052063
20.09873390197754 -6.720804214477539 1.003528118133545
19.052509307861328 -6.6321797370910645 1.1248435974121094
19.013948440551758 -6.74990701675415 1.121936559677124
20.24555206298828 -7.32729434967041 0.9505574107170105
19.137266159057617 -7.193199634552002 1.080764651298523
19.09893798828125 -7.312923431396484 1.077344536781311
19.020109176635742 -7.416951656341553 1.079268217086792
20.186635971069336 -8.448528289794922 0.8844884634017944
18.930862426757812 -8.059986114501953 1.046286702156067
19.05463409423828 -8.251237869262695 1.0198938846588135
19.058712005615234 -8.392337799072266 1.0097169876098633
19.042755126953125 -8.525288581848145 1.0021594762802124
28.284137725830078 -13.719209671020508 -0.35105082392692566
28.279020309448242 -13.931883811950684 -0.36617597937583923
28.301633834838867 -14.15965747833252 -0.38547179102897644
28.27916717529297 -14.366219520568848 -0.39860594272613525
28.229660034179688 -14.559854507446289 -0.40808629989624023
28.163896560668945 -14.745603561401367 -0.4154188334941864
27.38759422302246 -14.988433837890625 -0.35413336753845215
27.12974739074707 -15.283329010009766 -0.3510865569114685
34.521812438964844 -21.747323989868164 -1.6263445615768433
20.549583435058594 -13.122955322265625 0.4878075420856476
20.2143497467041 -13.084389686584473 0.5240994691848755
19.93345069885254 -13.0770263671875 0.5522636771202087
19.721141815185547 -13.111741065979004 0.5699679255485535
19.52479362487793 -13.154874801635742 0.5852773189544678
19.332763671875 -13.198894500732422 0.5999853014945984
19.256750106811523 -13.321166038513184 0.5964614748954773
19.223003387451172 -13.473167419433594 0.5861212015151978
19.228540420532227 -13.65396499633789 0.5693327784538269
19.227746963500977 -13.831860542297363 0.5533043742179871
19.20865821838379 -13.997997283935547 0.5399745106697083
19.198617935180664 -14.172075271606445 0.5249567031860352
19.222896575927734 -14.37327766418457 0.504109263420105
19.19403839111328 -14.536398887634277 0.49165481328964233
19.226051330566406 -14.747382164001465 0.46896085143089294
19.21468734741211 -14.92706298828125 0.4531163275241852
19.222875595092773 -15.123714447021484 0.43375709652900696
19.23479652404785 -15.325350761413574 0.4134727716445923
19.231836318969727 -15.517119407653809 0.39538031816482544
19.223400115966797 -15.70628833770752 0.3779250383377075
19.21030616760254 -15.893410682678223 0.3609776496887207
19.27999496459961 -16.151636123657227 0.32955777645111084
19.18390655517578 -16.272783279418945 0.3262674808502197
19.2630558013916 -16.544513702392578 0.29245391488075256
19.28496551513672 -16.770334243774414 0.2681361734867096
12.828067779541016 12.099082946777344 1.7187222242355347
12.882165908813477 12.00187873840332 1.7200593948364258
13.786216735839844 12.687480926513672 1.5955733060836792
12.945574760437012 11.768057823181152 1.7289974689483643
14.11412525177002 12.673521041870117 1.5666929483413696
12.988842964172363 11.519977569580078 1.7403219938278198
14.429520606994629 12.640947341918945 1.5397456884384155
13.115938186645508 11.34872817993164 1.7389453649520874
13.119328498840332 11.211875915527344 1.7467803955078125
13.163314819335938 11.11068058013916 1.7486367225646973
13.213423728942871 11.015094757080078 1.7495092153549194
13.24827766418457 10.907305717468262 1.7524479627609253
13.291563987731934 10.807028770446777 1.7540756464004517
13.307767868041992 10.685468673706055 1.759413242340088
13.347906112670898 10.583881378173828 1.761256217956543
13.378691673278809 10.475460052490234 1.7642996311187744
13.41258430480957 10.370100975036621 1.7667949199676514
13.459118843078613 10.27497386932373 1.767425298690796
13.500229835510254 10.176074981689453 1.7687095403671265
13.520702362060547 10.06221866607666 1.7727349996566772
13.567521095275879 9.968507766723633 1.7730258703231812
13.594389915466309 9.860590934753418 1.7759512662887573
13.639033317565918 9.766030311584473 1.7763445377349854
13.678972244262695 9.66842269897461 1.7772841453552246
13.721487998962402 9.572967529296875 1.7777793407440186
13.759254455566406 9.47453498840332 1.7788218259811401
13.789755821228027 9.371526718139648 1.7807453870773315
13.808782577514648 9.261302947998047 1.7841054201126099
13.861784934997559 9.174240112304688 1.7828171253204346
13.887613296508789 9.069479942321777 1.7850676774978638
13.93272876739502 8.977670669555664 1.7846559286117554
13.960467338562012 8.874981880187988 1.7864594459533691
13.995891571044922 8.777571678161621 1.787150263786316
14.035717010498047 8.683196067810059 1.787170648574829
14.064733505249023 8.582449913024902 1.7885230779647827
14.108366966247559 8.490898132324219 1.7878680229187012
14.155681610107422 8.4016695022583 1.7866498231887817
14.195570945739746 8.308161735534668 1.7863185405731201
14.233124732971191 8.213485717773438 1.7862062454223633
14.26832389831543 8.11767864227295 1.7863136529922485
14.308951377868652 8.02514934539795 1.7856340408325195
14.430721282958984 7.977628707885742 1.7744123935699463
14.918027877807617 8.128158569335938 1.7161517143249512
15.874281883239746 8.52359676361084 1.5979092121124268
27.468929290771484 14.53476333618164 0.11829975247383118
27.480470657348633 14.326044082641602 0.1246170699596405
27.53026008605957 14.138157844543457 0.12587206065654755
27.55218505859375 13.93674087524414 0.1305067539215088
27.54332733154297 13.720963478088379 0.1388700008392334
27.597984313964844 13.537765502929688 0.13899637758731842
27.701534271240234 13.37861156463623 0.13278427720069885
19.264707565307617 0.7549577951431274 1.2778894901275635
19.254785537719727 0.6363233923912048 1.2770823240280151
19.299697875976562 0.5193384289741516 1.2694683074951172
12.884858131408691 -0.682114839553833 2.031705856323242
12.853480339050293 -0.7595546841621399 2.033351421356201
12.863229751586914 -0.8393436074256897 2.029815673828125
12.684666633605957 -1.4554388523101807 2.031543254852295
12.621119499206543 -1.5266679525375366 2.036735773086548
20.182613372802734 -6.341121673583984 0.892520010471344
20.170366287231445 -6.473575115203857 0.886107325553894
20.133689880371094 -6.598401069641113 0.8829112648963928
20.110349655151367 -6.7277398109436035 0.877784788608551
18.967493057250977 -6.475265979766846 1.0264737606048584
18.96547508239746 -6.604846000671387 1.0186541080474854
18.944822311401367 -6.728342533111572 1.0132849216461182
18.941082000732422 -6.858247756958008 1.0054563283920288
19.173192977905273 -7.209744930267334 0.9559396505355835
19.06992530822754 -7.30486536026001 0.9615599513053894
18.985610961914062 -7.406558990478516 0.9644725322723389
18.938095092773438 -8.342421531677246 0.9050043225288391
18.962217330932617 -8.492448806762695 0.8914753198623657
19.000545501708984 -8.650068283081055 0.8757045269012451
19.151016235351562 -8.860919952392578 0.8433929681777954
19.331897735595703 -9.089122772216797 0.806307852268219
20.39007568359375 -13.025215148925781 0.3701680898666382
20.13633155822754 -13.038008689880371 0.39524346590042114
19.867469787597656 -13.037856101989746 0.4229198694229126
19.658796310424805 -13.074411392211914 0.4410056173801422
19.457006454467773 -13.11333179473877 0.4580623209476471
19.301315307617188 -13.181567192077637 0.4676421582698822
19.222942352294922 -13.301952362060547 0.46448612213134766
19.190879821777344 -13.454863548278809 0.45353829860687256
19.426687240600586 -13.798943519592285 0.39776477217674255
19.3267765045166 -13.9074125289917 0.39755019545555115
19.211854934692383 -14.004673957824707 0.39977604150772095
19.203283309936523 -14.179913520812988 0.38393986225128174
19.213911056518555 -14.371004104614258 0.3645819127559662
19.206321716308594 -14.550193786621094 0.3480454683303833
19.221620559692383 -14.748525619506836 0.3273053467273712
19.206249237060547 -14.925102233886719 0.31155499815940857
19.222131729125977 -15.127778053283691 0.29010576009750366
19.233142852783203 -15.328739166259766 0.26918014883995056
19.232376098632812 -15.522314071655273 0.2500016689300537
19.211538314819336 -15.701411247253418 0.23406703770160675
19.201435089111328 -15.890942573547363 0.21594968438148499
19.230728149414062 -16.115299224853516 0.19047659635543823
19.231536865234375 -16.318180084228516 0.16974404454231262
19.28092384338379 -16.564926147460938 0.13987068831920624
19.24651527404785 -16.742023468017578 0.12482519447803497
12.77422046661377 12.21846866607666 1.6097358465194702
12.824121475219727 12.116695404052734 1.612034559249878
12.916108131408691 12.054759979248047 1.6076042652130127
12.998321533203125 11.983396530151367 1.6046421527862549
12.975104331970215 11.815826416015625 1.617992877960205
13.010892868041992 11.703472137451172 1.6219884157180786
13.056191444396973 11.600359916687012 1.6243820190429688
13.020819664001465 11.427019119262695 1.6390167474746704
13.092671394348145 11.348896026611328 1.6370614767074585
13.100662231445312 11.216053009033203 1.6447240114212036
13.146968841552734 11.116891860961914 1.6464266777038574
13.19483757019043 11.01949405670166 1.6477811336517334
13.231281280517578 10.913077354431152 1.6507399082183838
13.273848533630371 10.812273979187012 1.652661681175232
13.292457580566406 10.692679405212402 1.6580328941345215
13.328768730163574 10.588092803955078 1.6606420278549194
13.37524127960205 10.492044448852539 1.6616352796554565
13.40768814086914 10.385481834411621 1.6645857095718384
13.443279266357422 10.281933784484863 1.6669573783874512
13.481274604797363 10.180732727050781 1.6688647270202637
13.5225191116333 10.08242130279541 1.6701910495758057
13.56706714630127 9.986928939819336 1.6709351539611816
13.58764934539795 9.874335289001465 1.675034999847412
13.62592601776123 9.77518081665039 1.6764689683914185
13.663498878479004 9.67592716217041 1.6778994798660278
13.702810287475586 9.578286170959473 1.6789792776107788
13.7398042678833 9.479398727416992 1.6802877187728882
13.779385566711426 9.382652282714844 1.6811277866363525
13.81087875366211 9.280790328979492 1.68301260471344
13.854059219360352 9.187127113342285 1.6831468343734741
13.874171257019043 9.078598976135254 1.686427354812622
13.924347877502441 8.990102767944336 1.6853870153427124
13.965583801269531 8.895994186401367 1.6855093240737915
13.982645034790039 8.786920547485352 1.6889034509658813
14.03012752532959 8.697333335876465 1.6879661083221436
14.079580307006836 8.60904598236084 1.6866705417633057
14.111467361450195 8.51021957397461 1.6877151727676392
14.146942138671875 8.413865089416504 1.6881701946258545
14.193758010864258 8.324426651000977 1.6869761943817139
14.227974891662598 8.22776985168457 1.6874231100082397
14.260677337646484 8.130512237548828 1.687984585762024
14.299649238586426 8.037055015563965 1.6876006126403809
14.371888160705566 7.962191581726074 1.6826106309890747
14.902182579040527 8.137045860290527 1.6154946088790894
15.866227149963379 8.537644386291504 1.4899787902832031
19.250749588012695 0.7719342112541199 1.1638411283493042
19.245882034301758 0.6535437703132629 1.162481427192688
19.25813865661621 0.5357362031936646 1.1588281393051147
12.87286376953125 -0.6689276695251465 1.9559026956558228
12.869294166564941 -0.7479273676872253 1.9540890455245972
12.871176719665527 -0.8272914886474609 1.9514983892440796
19.746959686279297 -6.051960468292236 0.8359761238098145
19.448110580444336 -6.091212272644043 0.8704499006271362
19.208999633789062 -6.146055698394775 0.8965216279029846
19.113128662109375 -6.244981288909912 0.9021825790405273
18.952852249145508 -6.321643352508545 0.9170283675193787
18.954639434814453 -6.451817035675049 0.9085714817047119
18.924650192260742 -6.571526050567627 0.9045640826225281
18.903244018554688 -6.6944193840026855 0.8992068767547607
18.9024715423584 -6.825038433074951 0.890736997127533
18.901735305786133 -6.956243515014648 0.8821258544921875
18.898244857788086 -7.087002754211426 0.8737789988517761
18.886451721191406 -7.215153217315674 0.866511344909668
18.891338348388672 -7.350253582000732 0.8566603660583496
18.93211555480957 -7.500283241271973 0.8413649201393127
18.943273544311523 -7.6396026611328125 0.8302686214447021
18.935102462768555 -7.771819114685059 0.8218845129013062
18.958011627197266 -7.917587757110596 0.8087260127067566
18.986934661865234 -8.20494556427002 0.7844159603118896
18.96217918395996 -8.332799911499023 0.7779141664505005
18.731260299682617 -8.368928909301758 0.802453875541687
18.975934982299805 -8.618430137634277 0.7549141645431519
18.97719955444336 -8.759977340698242 0.744016170501709
18.967571258544922 -8.897237777709961 0.7346178293228149
18.95697021484375 -9.034711837768555 0.725213348865509
18.99264144897461 -9.195269584655762 0.7085233926773071
19.204818725585938 -9.444026947021484 0.6643198132514954
20.49245262145996 -13.065560340881348 0.2091105580329895
20.140361785888672 -13.015782356262207 0.2518753409385681
19.891555786132812 -13.02892017364502 0.27752751111984253
19.648311614990234 -13.0427885055542 0.3023952841758728
19.451662063598633 -13.08512020111084 0.3194754719734192
19.294513702392578 -13.152305603027344 0.32987067103385925
19.21222686767578 -13.269830703735352 0.32739362120628357
19.205474853515625 -13.440205574035645 0.31173279881477356
19.22157859802246 -13.628179550170898 0.2918475270271301
19.197494506835938 -13.789129257202148 0.27869275212287903
19.242597579956055 -14.001561164855957 0.25315147638320923
19.22285270690918 -14.168658256530762 0.2387075424194336
19.22239875793457 -14.351438522338867 0.22059257328510284
19.205411911010742 -14.523401260375977 0.20514342188835144
19.23340606689453 -14.731212615966797 0.18135923147201538
19.216541290283203 -14.906539916992188 0.16532127559185028
19.213031768798828 -15.09383487701416 0.14658893644809723
19.23505210876465 -15.303220748901367 0.12289319187402725
19.24905014038086 -15.508472442626953 0.10030926764011383
13.256850242614746 12.985770225524902 1.3907036781311035
12.731696128845215 12.31949520111084 1.490826964378357
12.801015853881836 12.235692024230957 1.490221381187439
12.759347915649414 12.047223091125488 1.5080145597457886
12.944538116455078 12.073015213012695 1.487899899482727
13.03341293334961 12.007523536682129 1.483772873878479
13.007437705993652 11.837162017822266 1.4984420537948608
13.150406837463379 11.820870399475098 1.4852509498596191
13.047215461730957 11.584449768066406 1.5121246576309204
13.055013656616211 11.308501243591309 1.530294418334961
13.103506088256836 11.210796356201172 1.5319452285766602
13.149775505065918 11.111639976501465 1.5338340997695923
13.198371887207031 11.014880180358887 1.535233736038208
13.229425430297852 10.904050827026367 1.5392975807189941
13.257308959960938 10.791376113891602 1.5437254905700684
