# .PCD v0.7 - Point Cloud Data file format
VERSION 0.7
FIELDS x y z
SIZE 4 4 4
TYPE F F F
COUNT 1 1 1
WIDTH 855
HEIGHT 1
VIEWPOINT 0 0 0 1 0 0 0
POINTS 855
DATA ascii
45.13261795043945 6.708199977874756 3.451913595199585
45.16299819946289 6.429799556732178 3.4461169242858887
45.190673828125 6.151144504547119 3.440319299697876
45.21364974975586 5.872004985809326 3.4345321655273438
45.23887252807617 5.593306541442871 3.4287221431732178
45.266357421875 5.314985275268555 3.4228906631469727
45.29610061645508 5.0369791984558105 3.41703462600708
45.31717300415039 4.758077621459961 3.4112071990966797
45.349464416503906 4.4803853034973145 3.4053099155426025
45.38204574584961 4.202659606933594 3.399397134780884
45.409934997558594 3.9244446754455566 3.3934919834136963
45.44010925292969 3.646365165710449 3.3875603675842285
45.46857833862305 3.368063449859619 3.3816206455230713
45.48037338256836 3.088533401489258 3.375760078430176
45.51939392089844 2.810771942138672 3.3697283267974854
13.070430755615234 0.726925790309906 3.5554699897766113
45.565372467041016 2.2528388500213623 3.3577988147735596
17.293331146240234 0.7489594221115112 3.5261051654815674
12.278149604797363 0.4564344584941864 3.555419683456421
12.253727912902832 0.38026943802833557 3.5539944171905518
19.179534912109375 0.4772148132324219 3.5070724487304688
45.70384979248047 0.8561029434204102 3.32751727104187
45.71620178222656 0.5758199691772461 3.3215057849884033
12.599329948425293 0.08169665187597275 3.54524827003479
12.2955961227417 0.004308674950152636 3.545753240585327
45.80194091796875 -0.26604774594306946 3.3030216693878174
12.835657119750977 -0.15300817787647247 3.5385804176330566
13.81128215789795 -0.24941420555114746 3.529618978500366
11.793133735656738 -0.2852865159511566 3.5431196689605713
11.815142631530762 -0.35835400223731995 3.541393995285034
13.67541790008545 -0.4988269805908203 3.525218963623047
13.783985137939453 -0.5874811410903931 3.5225369930267334
12.8902006149292 -0.6286015510559082 3.5279605388641357
13.405291557312012 -0.7361933588981628 3.521988868713379
12.785683631896973 -0.7808448672294617 3.525391101837158
12.900368690490723 -0.867316484451294 3.5226964950561523
12.840943336486816 -0.9424824118614197 3.5214731693267822
12.713298797607422 -1.011556625366211 3.520859956741333
13.349458694458008 -1.144647479057312 3.5134565830230713
46.17628860473633 -4.2459025382995605 3.2141153812408447
11.981945037841797 -1.175600290298462 3.5223987102508545
12.006324768066406 -1.25240159034729 3.520529270172119
11.912931442260742 -1.3165806531906128 3.5197629928588867
12.675348281860352 -1.479629635810852 3.5107901096343994
12.230326652526855 -1.503772258758545 3.513373613357544
12.232759475708008 -1.5803080797195435 3.5116488933563232
29.838058471679688 -4.041524887084961 3.3333635330200195
13.638110160827637 -1.9323089122772217 3.493934392929077
43.058929443359375 -6.371376037597656 3.1886661052703857
12.609280586242676 -1.9446032047271729 3.5008416175842285
12.694844245910645 -2.037609100341797 3.4981462955474854
12.578531265258789 -2.098168134689331 3.497586488723755
43.17022705078125 -7.474542140960693 3.16296648979187
43.19535446166992 -7.7521209716796875 3.156485080718994
29.4276065826416 -5.467687606811523 3.3040010929107666
12.727462768554688 -2.445405960083008 3.488654375076294
12.731823921203613 -2.527330160140991 3.486750364303589
12.690597534179688 -2.600165605545044 3.485365629196167
12.644065856933594 -2.6715571880340576 3.484046697616577
12.557077407836914 -2.7337534427642822 3.4832136631011963
12.580060005187988 -2.819700241088867 3.4810726642608643
12.719382286071777 -2.932997465133667 3.477496385574341
12.70405387878418 -3.011660099029541 3.475778579711914
34.2744255065918 -8.348343849182129 3.2042856216430664
12.590453147888184 -3.1483712196350098 3.473376989364624
43.52153778076172 -11.168213844299316 3.075498580932617
43.56431198120117 -11.464502334594727 3.0682826042175293
43.63018035888672 -11.768506050109863 3.0607142448425293
43.653472900390625 -12.062561988830566 3.0536537170410156
43.669029235839844 -12.355711936950684 3.0466530323028564
43.66629409790039 -12.644779205322266 3.0398569107055664
43.74314498901367 -12.958418846130371 3.031931161880493
43.72782516479492 -13.246225357055664 3.025221586227417
43.58645248413086 -13.495882034301758 3.0202465057373047
34.50520706176758 -10.916345596313477 3.1423134803771973
34.23582077026367 -11.062626838684082 3.140627384185791
34.204288482666016 -11.284653663635254 3.1355385780334473
34.10877227783203 -11.485647201538086 3.1313657760620117
34.1161003112793 -11.721634864807129 3.125662326812744
34.2161750793457 -11.991216659545898 3.118527412414551
34.22288513183594 -12.22982406616211 3.112741708755493
44.02780532836914 -16.039106369018555 2.956429958343506
44.08222961425781 -16.365962982177734 2.948176622390747
44.06228256225586 -16.66684913635254 2.941023349761963
44.1559944152832 -17.012683868408203 2.9320240020751953
44.125179290771484 -17.312450408935547 2.9249391555786133
44.103485107421875 -17.616928100585938 2.917665958404541
44.21772003173828 -17.977903366088867 2.9081194400787354
44.250640869140625 -18.308448791503906 2.899827241897583
44.26919174194336 -18.635028839111328 2.8917081356048584
29.84634780883789 -12.7797212600708 3.127798318862915
29.666488647460938 -12.91865348815918 3.12553071975708
29.64238929748535 -13.125090599060059 3.120598316192627
44.430110931396484 -19.9999942779541 2.857086658477783
44.4446907043457 -20.335403442382812 2.8487002849578857
44.451377868652344 -20.66921043395996 2.8403871059417725
44.4701042175293 -21.010698318481445 2.8317928314208984
43.57678985595703 -20.9166202545166 2.8397231101989746
34.67060470581055 -16.90409278869629 2.9952380657196045
34.5840950012207 -17.125329971313477 2.99025297164917
34.20317840576172 -17.198806762695312 2.9907736778259277
34.08982849121094 -17.404661178588867 2.9863150119781494
34.02849578857422 -17.63737678527832 2.980851173400879
34.14875793457031 -17.966365814208984 2.9718430042266846
34.54671859741211 -18.4472599029541 2.9573023319244385
34.53919219970703 -18.716474533081055 2.9505538940429688
34.32551193237305 -18.874040603637695 2.947861909866333
30.533889770507812 -17.033946990966797 3.017303466796875
30.314754486083984 -17.156415939331055 3.015510082244873
34.58169174194336 -19.85245704650879 2.9215011596679688
34.48941421508789 -20.08182716369629 2.916210412979126
34.62376022338867 -20.445537567138672 2.906137466430664
42.83878707885742 -25.652488708496094 2.724673271179199
34.809410095214844 -21.13550567626953 2.887401819229126
34.5546989440918 -21.272111892700195 2.885387897491455
34.54475021362305 -21.55938148498535 2.8780677318573
34.53511428833008 -21.84893035888672 2.8706748485565186
34.56697463989258 -22.167236328125 2.8622891902923584
34.58030319213867 -22.47640037536621 2.8542327880859375
34.45503234863281 -22.696903228759766 2.84924578666687
34.38822555541992 -22.956684112548828 2.8428971767425537
34.36425018310547 -23.246753692626953 2.835507869720459
43.2303581237793 -29.63292694091797 2.619755506515503
43.30384063720703 -30.075502395629883 2.6078271865844727
30.095495223999023 -21.176715850830078 2.913245439529419
43.34327697753906 -30.898174285888672 2.586143970489502
43.39918518066406 -31.341421127319336 2.5742459297180176
43.435951232910156 -31.77529525756836 2.562678575515747
43.52122116088867 -32.24948501586914 2.549774408340454
43.51594161987305 -32.66109085083008 2.538987636566162
43.56852340698242 -33.12042999267578 2.5266153812408447
43.60679626464844 -33.57371520996094 2.5144636631011963
43.66557693481445 -34.04775619506836 2.501636505126953
35.09381103515625 -27.711809158325195 2.7144601345062256
34.85120391845703 -27.869115829467773 2.7115683555603027
34.644508361816406 -28.054065704345703 2.7077419757843018
34.61466598510742 -28.38333511352539 2.6991515159606934
34.78437805175781 -28.881261825561523 2.6850314140319824
34.7487678527832 -29.213764190673828 2.676356792449951
34.68221664428711 -29.522932052612305 2.6684463024139404
34.8918571472168 -30.07258415222168 2.6527011394500732
34.89567565917969 -30.4510498046875 2.642554998397827
34.962825775146484 -30.889604568481445 2.630467653274536
34.809810638427734 -31.13681983947754 2.6245923042297363
34.91147232055664 -31.615522384643555 2.6112277507781982
34.87297058105469 -31.97231674194336 2.601814031600952
34.83871841430664 -32.33662796020508 2.5921621322631836
34.77872085571289 -32.68049240112305 2.5831716060638428
32.42693328857422 23.165302276611328 3.576373338699341
32.793983459472656 23.125 3.5719003677368164
32.876949310302734 22.882831573486328 3.567913293838501
32.70050048828125 19.626855850219727 3.526906728744507
32.79273986816406 19.409589767456055 3.5228822231292725
32.90340805053711 19.203519821166992 3.5187783241271973
45.369056701660156 25.73805046081543 3.4653382301330566
45.02248001098633 25.177623748779297 3.4615299701690674
45.078853607177734 24.847379684448242 3.456228733062744
44.95977020263672 24.42335319519043 3.451626777648926
44.760494232177734 23.96067237854004 3.4473886489868164
44.64303970336914 23.546615600585938 3.442852258682251
44.522193908691406 23.134902954101562 3.438361883163452
44.37039566040039 22.711442947387695 3.4340405464172363
44.174015045166016 22.2700138092041 3.4299614429473877
44.07331848144531 21.881214141845703 3.4254798889160156
43.912925720214844 21.466821670532227 3.4213106632232666
43.75722122192383 21.059131622314453 3.417156219482422
43.665061950683594 20.68584632873535 3.4127190113067627
43.488399505615234 20.276453018188477 3.408738374710083
43.337459564208984 19.883358001708984 3.404663562774658
43.278133392333984 19.535669326782227 3.4001312255859375
43.09461975097656 19.135486602783203 3.3962931632995605
42.9674072265625 18.764307022094727 3.3921806812286377
42.83267593383789 18.39344024658203 3.3881397247314453
42.73002624511719 18.039716720581055 3.3839409351348877
42.59140396118164 17.674148559570312 3.3799777030944824
42.46010208129883 17.315120697021484 3.376000165939331
42.40397644042969 16.98961067199707 3.3715872764587402
42.174251556396484 16.598060607910156 3.3682730197906494
42.11294937133789 16.276304244995117 3.3639330863952637
41.963279724121094 15.923287391662598 3.3601770401000977
41.883033752441406 15.599599838256836 3.3559937477111816
41.755313873291016 15.261018753051758 3.3521440029144287
41.6222038269043 14.923583984375 3.3483564853668213
41.52143478393555 14.600632667541504 3.344369888305664
41.388031005859375 14.269052505493164 3.3406310081481934
41.30801773071289 13.958548545837402 3.3365352153778076
41.18588638305664 13.636363983154297 3.332759380340576
41.0880012512207 13.324843406677246 3.328826665878296
40.96592712402344 13.008077621459961 3.325092077255249
40.833885192871094 12.690938949584961 3.3214550018310547
40.7655143737793 12.395986557006836 3.3173489570617676
40.62413787841797 12.081257820129395 3.313825845718384
40.53805160522461 11.785482406616211 3.3098864555358887
40.4287109375 11.485208511352539 3.3061482906341553
40.3239631652832 11.188591003417969 3.3023900985717773
40.20552062988281 10.890555381774902 3.2987618446350098
40.34114456176758 10.662110328674316 3.2930126190185547
40.86860275268555 10.533743858337402 3.283879518508911
41.33877182006836 10.384927749633789 3.2751126289367676
41.80183410644531 10.229070663452148 3.2662904262542725
42.250911712646484 10.064676284790039 3.257476329803467
42.73069381713867 9.902375221252441 3.248271942138672
43.17201232910156 9.725994110107422 3.2392961978912354
43.64988327026367 9.552690505981445 3.229870319366455
44.141902923583984 9.377002716064453 3.2201895713806152
44.66473388671875 9.202093124389648 3.210090398788452
44.907588958740234 8.965320587158203 3.2025394439697266
44.931251525878906 8.683788299560547 3.19704270362854
44.971832275390625 8.405792236328125 3.1913628578186035
44.83061218261719 8.095107078552246 3.1874663829803467
45.01729202270508 7.843977451324463 3.1802923679351807
45.046756744384766 7.564692974090576 3.174659013748169
45.07350158691406 7.285184860229492 3.169032096862793
45.09654235839844 7.005324363708496 3.1634230613708496
45.12278366088867 6.726192474365234 3.15775990486145
45.15522003173828 6.44813346862793 3.1520073413848877
45.18792724609375 6.170199871063232 3.1462299823760986
45.2070198059082 5.890556812286377 3.140575647354126
45.232322692871094 5.611896991729736 3.134831428527832
45.260868072509766 5.333731651306152 3.129028797149658
45.28671646118164 5.055317401885986 3.1232311725616455
45.307861328125 4.7764716148376465 3.117462635040283
45.346195220947266 4.49943208694458 3.111473560333252
45.37188720703125 4.221083641052246 3.105602979660034
45.39985275268555 3.9429337978363037 3.099679708480835
45.429100036621094 3.6648411750793457 3.0937156677246094
45.449668884277344 3.3860175609588623 3.0878286361694336
12.472908020019531 0.8520352244377136 3.481630802154541
45.51559829711914 2.8298988342285156 3.075674533843994
45.542015075683594 2.551193952560425 3.069634199142456
45.557743072509766 2.2718231678009033 3.063699245452881
45.575748443603516 1.9925296306610107 3.0577096939086914
13.059650421142578 0.49041613936424255 3.466295003890991
13.247289657592773 0.41610705852508545 3.462214946746826
13.298555374145508 0.33607420325279236 3.459853172302246
12.36660099029541 0.23659375309944153 3.4703786373138428
45.72703552246094 0.5953686833381653 3.026536703109741
45.740753173828125 0.3149259388446808 3.020427942276001
12.612788200378418 0.009165416471660137 3.4622437953948975
12.300623893737793 -0.06652990728616714 3.464855670928955
45.817562103271484 -0.5277672410011292 3.001436948776245
12.317843437194824 -0.21777114272117615 3.4613800048828125
12.019371032714844 -0.2862688899040222 3.4639406204223633
12.903885841369629 -0.3865210711956024 3.449803352355957
13.436848640441895 -0.48498648405075073 3.440453052520752
13.343690872192383 -0.5636094808578491 3.4399948120117188
12.896528244018555 -0.6240127086639404 3.444714069366455
13.437569618225098 -0.732825517654419 3.4350061416625977
12.779073715209961 -0.77558833360672 3.4429550170898438
12.879807472229004 -0.8610319495201111 3.439696788787842
12.78251838684082 -0.9333295822143555 3.4393973350524902
12.819393157958984 -1.0151175260543823 3.437068223953247
46.138851165771484 -3.9374284744262695 2.9221274852752686
13.374486923217773 -1.2243460416793823 3.424872398376465
11.722732543945312 -1.1457486152648926 3.44889760017395
12.0088472366333 -1.2481211423873901 3.4427170753479004
12.098344802856445 -1.3324885368347168 3.4395859241485596
12.751379013061523 -1.4836176633834839 3.4273436069488525
12.72613525390625 -1.5598658323287964 3.425926923751831
12.764897346496582 -1.6441607475280762 3.423457622528076
13.679036140441895 -1.847251296043396 3.4064900875091553
43.05757141113281 -6.08289098739624 2.914337158203125
12.70471477508545 -1.874698281288147 3.4188923835754395
43.106014251708984 -6.630138874053955 2.900864362716675
43.109859466552734 -6.901712894439697 2.8944127559661865
12.7212553024292 -2.117036819458008 3.4129598140716553
12.768106460571289 -2.2054131031036377 3.4102368354797363
12.753329277038574 -2.2835195064544678 3.408571720123291
12.708580017089844 -2.3560612201690674 3.407430648803711
12.73117733001709 -2.441129684448242 3.4050872325897217
12.763996124267578 -2.528701066970825 3.402540922164917
12.759974479675293 -2.609355926513672 3.4006426334381104
12.759354591369629 -2.6908817291259766 3.3986706733703613
33.935543060302734 -7.373870849609375 3.004915475845337
12.72630500793457 -2.847435712814331 3.3952836990356445
33.78683090209961 -7.776870250701904 2.996997356414795
33.88240432739258 -8.018058776855469 2.989797830581665
34.017093658447266 -8.270631790161133 2.981783628463745
34.06070327758789 -8.50287914276123 2.9754481315612793
34.156009674072266 -8.749617576599121 2.9680559635162354
34.0580940246582 -8.947546005249023 2.9643874168395996
34.146331787109375 -9.195035934448242 2.957028865814209
34.23955535888672 -9.445804595947266 2.9495036602020264
34.33867645263672 -9.700237274169922 2.9417896270751953
34.09498596191406 -9.857662200927734 2.940957546234131
34.34921646118164 -10.159921646118164 2.929980516433716
34.024898529052734 -10.291420936584473 2.9308111667633057
34.02981185913086 -10.521209716796875 2.92486310005188
33.99123764038086 -10.738194465637207 2.919783353805542
33.9788703918457 -10.964004516601562 2.9141197204589844
33.97071075439453 -11.19194507598877 2.908327341079712
33.96765899658203 -11.4224271774292 2.902383804321289
33.986698150634766 -11.661405563354492 2.8959176540374756
33.99935531616211 -11.899395942687988 2.889538049697876
33.959529876708984 -12.119831085205078 2.8842642307281494
34.022560119628906 -12.378169059753418 2.8766722679138184
34.004947662353516 -12.608536720275879 2.8708159923553467
44.11846160888672 -16.66695785522461 2.636044502258301
44.146827697753906 -16.987905502319336 2.627164840698242
44.1663932800293 -17.307273864746094 2.6184115409851074
44.18183517456055 -17.626781463623047 2.6096789836883545
44.22743606567383 -17.960290908813477 2.600168466567993
44.25859069824219 -18.290058135986328 2.590912103652954
44.283668518066406 -18.619335174560547 2.5817174911499023
44.2962532043457 -18.94527816772461 2.5727405548095703
29.697528839111328 -12.917718887329102 2.916212797164917
29.64506721496582 -13.11178207397461 2.9115729331970215
44.43482971191406 -19.979829788208008 2.54286527633667
44.449501037597656 -20.315195083618164 2.5334982872009277
44.47804260253906 -20.659072875976562 2.5237016677856445
44.5040283203125 -21.004064559936523 2.5138773918151855
34.44808578491211 -16.517356872558594 2.759521245956421
34.3549919128418 -16.732736587524414 2.754671573638916
34.37883758544922 -17.0061092376709 2.7467827796936035
34.27732849121094 -17.218475341796875 2.742075204849243
34.16114807128906 -17.42342185974121 2.7377285957336426
34.10499954223633 -17.6593074798584 2.731778621673584
34.13396453857422 -17.94074249267578 2.7235169410705566
34.43507766723633 -18.369529724121094 2.7078638076782227
34.37525177001953 -18.609451293945312 2.7017786502838135
34.2620849609375 -18.82093048095703 2.6971042156219482
30.570789337158203 -17.038267135620117 2.79093337059021
30.34288215637207 -17.15610122680664 2.790221691131592
34.34577941894531 -19.698400497436523 2.671091318130493
34.443660736083984 -20.036394119262695 2.6602632999420166
34.380252838134766 -20.282861709594727 2.6539011001586914
34.50127029418945 -20.640676498413086 2.6421921253204346
34.4508056640625 -20.898591995239258 2.6353063583374023
34.3712158203125 -21.139902114868164 2.6292102336883545
34.42399215698242 -21.464597702026367 2.6191701889038086
34.294921875 -21.677494049072266 2.614415168762207
34.45914077758789 -22.078372955322266 2.6008527278900146
34.479705810546875 -22.391151428222656 2.5914535522460938
34.448455810546875 -22.672584533691406 2.583529233932495
34.42502212524414 -22.961130142211914 2.5752859115600586
34.425018310546875 -23.267595291137695 2.566232204437256
34.70296096801758 -23.766969680786133 2.5483944416046143
34.70667266845703 -24.08369255065918 2.5389490127563477
30.106937408447266 -21.16676139831543 2.6757259368896484
34.79425811767578 -24.782562255859375 2.51716947555542
34.840858459472656 -25.13942527770996 2.505990982055664
34.849674224853516 -25.472421646118164 2.4959096908569336
34.8749885559082 -25.820741653442383 2.4851677417755127
34.863746643066406 -26.145139694213867 2.4755101203918457
34.89599609375 -26.50543785095215 2.464284896850586
34.894229888916016 -26.843339920043945 2.454071044921875
34.92353439331055 -27.208629608154297 2.4426772594451904
34.865684509277344 -27.509031295776367 2.434135913848877
34.797645568847656 -27.803504943847656 2.425856828689575
34.6783447265625 -28.05856704711914 2.419282913208008
34.64537048339844 -28.38543128967285 2.4096038341522217
34.84663772583008 -28.909523010253906 2.391465902328491
34.866722106933594 -29.289260864257812 2.3795745372772217
34.87202453613281 -29.660615921020508 2.368065118789673
34.88771057128906 -30.044872283935547 2.3560268878936768
34.877376556396484 -30.410724639892578 2.3447909355163574
34.94853973388672 -30.85232925415039 2.3303747177124023
34.83149719238281 -31.131412506103516 2.322833299636841
34.947296142578125 -31.62282371520996 2.306378126144409
34.913902282714844 -31.984474182128906 2.2953946590423584
34.84585952758789 -32.31767654418945 2.2856087684631348
34.869041442871094 -32.739498138427734 2.272143602371216
32.3833122253418 24.030479431152344 3.348443031311035
32.50346755981445 23.811872482299805 3.344637393951416
32.494136810302734 23.500104904174805 3.341963291168213
32.53998947143555 23.23060417175293 3.33878493309021
32.64507293701172 23.00463104248047 3.335052490234375
32.68293380737305 22.732563018798828 3.3319125175476074
32.768150329589844 22.494853973388672 3.3283205032348633
32.6654167175293 22.13075828552246 3.326467752456665
32.59852981567383 21.794897079467773 3.3242857456207275
32.649784088134766 21.540544509887695 3.3209803104400635
32.79216766357422 21.34694480895996 3.316779375076294
33.01838302612305 21.20699119567871 3.3117311000823975
32.6849479675293 20.71072769165039 3.3121261596679688
33.107269287109375 20.694822311401367 3.3050901889801025
32.859901428222656 20.26093292236328 3.3046605587005615
32.659732818603516 19.862041473388672 3.3037891387939453
32.785213470458984 19.66389274597168 3.299636125564575
32.633216857910156 19.301532745361328 3.2982962131500244
32.74146270751953 19.095441818237305 3.2942841053009033
32.86661911010742 18.89921760559082 3.290067195892334
32.69657516479492 18.535484313964844 3.288923501968384
32.88207244873047 18.375051498413086 3.2840309143066406
32.79882049560547 18.065404891967773 3.281970262527466
33.36772155761719 18.112897872924805 3.2728803157806396
44.73420333862305 23.92927360534668 3.1462323665618896
44.602333068847656 23.50800132751465 3.143624782562256
44.505149841308594 23.109067916870117 3.1406443119049072
44.366477966308594 22.6926326751709 3.1381306648254395
44.16365432739258 22.24818229675293 3.1363494396209717
44.04395294189453 21.850187301635742 3.133650779724121
43.91924285888672 21.453624725341797 3.131016254425049
43.73726272583008 21.033416748046875 3.129051923751831
43.64940643310547 20.662464141845703 3.12601375579834
43.51423263549805 20.272687911987305 3.123530864715576
43.35047912597656 19.87368392944336 3.121397018432617
43.26005172729492 19.511993408203125 3.1184070110321045
43.062625885009766 19.105934143066406 3.116701602935791
42.96633529663086 18.74862289428711 3.113797426223755
42.78642272949219 18.3585205078125 3.1119141578674316
42.70838928222656 18.015642166137695 3.1088006496429443
42.642539978027344 17.6805419921875 3.1055357456207275
42.44640350341797 17.294858932495117 3.1038918495178223
42.361331939697266 16.957963943481445 3.10087513923645
42.20301055908203 16.594951629638672 3.0987865924835205
42.11553192138672 16.26298713684082 3.095808982849121
41.92646408081055 15.8951416015625 3.0941381454467773
41.86193084716797 15.57766342163086 3.0908753871917725
41.73966979980469 15.241339683532715 3.0883629322052
41.650634765625 14.919920921325684 3.0854201316833496
41.497920989990234 14.578624725341797 3.083322525024414
41.46076583862305 14.280472755432129 3.079697370529175
41.22541046142578 13.917118072509766 3.078725576400757
41.16184616088867 13.614974975585938 3.0754587650299072
41.08662033081055 13.311054229736328 3.0723459720611572
40.954891204833984 12.991334915161133 3.070007801055908
40.81220245361328 12.671067237854004 3.067830801010132
40.72932434082031 12.371932983398438 3.0648298263549805
40.6328125 12.070876121520996 3.0620205402374268
40.546627044677734 11.775096893310547 3.0590662956237793
40.39870834350586 11.463903427124023 3.056992530822754
40.355464935302734 11.184618949890137 3.0534279346466064
40.20994186401367 10.879134178161621 3.0513319969177246
40.41796875 10.669787406921387 3.0440990924835205
40.87282180786133 10.52211856842041 3.033182144165039
41.327369689941406 10.369266510009766 3.0221540927886963
41.77962112426758 10.210756301879883 3.011045217514038
42.2353515625 10.04800796508789 2.999767541885376
42.70915603637695 9.884333610534668 2.988098621368408
43.173736572265625 9.713244438171387 2.976447582244873
43.6475830078125 9.538959503173828 2.9645321369171143
44.15023422241211 9.365447044372559 2.95204758644104
44.66903305053711 9.18954849243164 2.939181089401245
44.87157440185547 8.944684028625488 2.9311232566833496
44.93140411376953 8.670392990112305 2.925243854522705
44.96891784667969 8.391853332519531 2.9196815490722656
44.85512924194336 8.086211204528809 2.9165029525756836
45.00723648071289 7.828895092010498 2.9090492725372314
45.043479919433594 7.550837993621826 2.903412103652954
45.07010269165039 7.27135705947876 2.8978986740112305
45.09203338623047 6.991372585296631 2.8924307823181152
45.11716842651367 6.712128639221191 2.886878728866577
45.14948654174805 6.434108734130859 2.8811755180358887
45.180084228515625 6.155944347381592 2.875466823577881
45.20798110961914 5.877517223358154 2.86976957321167
45.230194091796875 5.598487377166748 2.864135980606079
45.25465393066406 5.319873332977295 2.858431100845337
45.279388427734375 5.041390419006348 2.8526864051818848
45.307369232177734 4.763326644897461 2.8468520641326904
45.33863067626953 4.48560094833374 2.8409249782562256
45.36320114135742 4.207208633422852 2.8350789546966553
45.38905334472656 3.9289419651031494 2.8291749954223633
45.33745574951172 3.6444249153137207 2.8246145248413086
45.44959259033203 3.372976779937744 2.8170995712280273
45.47332000732422 3.094381093978882 2.8111233711242676
12.532902717590332 0.774747908115387 3.4048025608062744
45.53660202026367 2.5378754138946533 2.7987701892852783
45.555206298828125 2.2586886882781982 2.7927751541137695
45.57708740234375 1.9795855283737183 2.7866804599761963
19.50298309326172 0.7265526652336121 3.268289566040039
19.220218658447266 0.597959578037262 3.271146774291992
13.00854778289795 0.3244490921497345 3.3863766193389893
12.959284782409668 0.2436804473400116 3.3856542110443115
45.72879409790039 0.5823858380317688 2.754822254180908
12.573325157165527 0.08210054785013199 3.3897736072540283
12.608558654785156 0.004987023305147886 3.387453079223633
12.238401412963867 -0.07027158886194229 3.393054723739624
12.310693740844727 -0.1462043970823288 3.3900182247161865
12.31253719329834 -0.22177353501319885 3.3883514404296875
12.17098617553711 -0.29393357038497925 3.389540195465088
12.059000968933105 -0.3652706444263458 3.3901617527008057
11.906635284423828 -0.43379321694374084 3.3916218280792236
11.951671600341797 -0.5088609457015991 3.389086961746216
13.20854377746582 -0.6434409618377686 3.3616530895233154
13.17636489868164 -0.7229238152503967 3.3605024814605713
12.8313570022583 -0.78300541639328 3.3658573627471924
46.0712776184082 -3.0919859409332275 2.667914867401123
12.767876625061035 -0.9364961385726929 3.3636114597320557
46.12430953979492 -3.6644935607910156 2.653836965560913
12.891837120056152 -1.1047489643096924 3.3573498725891113
13.315875053405762 -1.223376750946045 3.3463869094848633
11.836475372314453 -1.1608633995056152 3.3765053749084473
12.156256675720215 -1.2675291299819946 3.367821216583252
12.469194412231445 -1.3775027990341187 3.3591818809509277
11.760391235351562 -1.372346043586731 3.3730101585388184
12.797607421875 -1.5729068517684937 3.3482067584991455
13.589836120605469 -1.7548927068710327 3.3285672664642334
13.54905891418457 -1.8342032432556152 3.327450752258301
12.75253963470459 -1.8061809539794922 3.343477964401245
12.778768539428711 -1.8899298906326294 3.3409423828125
13.554404258728027 -2.089616537094116 3.3211541175842285
13.533397674560547 -2.1714577674865723 3.3195526599884033
13.537535667419434 -2.2573935985565186 3.317356824874878
12.771761894226074 -2.2103841304779053 3.333204984664917
29.423593521118164 -5.276771545410156 2.937960147857666
13.58402156829834 -2.522915840148926 3.3098604679107666
13.001757621765137 -2.4974365234375 3.321626901626587
29.604644775390625 -5.8735432624816895 2.9195034503936768
33.73139953613281 -6.907463073730469 2.814607858657837
33.713722229003906 -7.119621753692627 2.8095335960388184
33.758209228515625 -7.345637321472168 2.8028948307037354
33.746551513671875 -7.560230255126953 2.7975897789001465
12.689435958862305 -2.9254629611968994 3.316624879837036
33.770694732666016 -8.002021789550781 2.785672187805176
33.9122200012207 -8.255607604980469 2.7763729095458984
33.90059280395508 -8.473417282104492 2.7708740234375
33.85948944091797 -8.68419361114502 2.7660892009735107
33.88282012939453 -8.91207504272461 2.7596120834350586
34.069671630859375 -9.185060501098633 2.74883770942688
34.06460952758789 -9.40825080871582 2.7429633140563965
34.006141662597656 -9.617035865783691 2.738447427749634
33.91470718383789 -9.816286087036133 2.734776496887207
33.91891860961914 -10.043441772460938 2.72853946685791
33.9091796875 -10.267252922058105 2.722625255584717
33.94858169555664 -10.506985664367676 2.7153356075286865
33.959625244140625 -10.739148139953613 2.7087509632110596
33.988121032714844 -10.977986335754395 2.701632499694824
34.01116180419922 -11.216324806213379 2.694600820541382
33.96054458618164 -11.431124687194824 2.689551591873169
34.0418815612793 -11.691506385803223 2.680776596069336
34.014686584472656 -11.915970802307129 2.674970865249634
34.00295639038086 -12.146594047546387 2.668680429458618
34.02819061279297 -12.391545295715332 2.6612818241119385
34.169776916503906 -12.68108081817627 2.650470495223999
34.31843185424805 -12.976353645324707 2.639338254928589
34.33787536621094 -13.225067138671875 2.631852149963379
34.33879470825195 -13.467937469482422 2.624840021133423
34.338958740234375 -13.711685180664062 2.6177878379821777
34.34852981567383 -13.96045970916748 2.610391855239868
34.355411529541016 -14.209484100341797 2.6030080318450928
34.3614501953125 -14.459505081176758 2.5955803394317627
34.3574333190918 -14.706594467163086 2.5883889198303223
29.68465805053711 -12.922677993774414 2.724057197570801
34.42277908325195 -15.23703670501709 2.571545124053955
34.421504974365234 -15.489745140075684 2.5640501976013184
34.42115020751953 -15.744258880615234 2.556457281112671
34.411712646484375 -15.995977401733398 2.5490775108337402
34.376976013183594 -16.237075805664062 2.5424306392669678
34.38652801513672 -16.50040054321289 2.5343093872070312
34.365394592285156 -16.75044059753418 2.527095317840576
34.35322570800781 -17.006160736083984 2.5195226669311523
34.278480529785156 -17.231834411621094 2.5139198303222656
34.1871223449707 -17.449506759643555 2.508819341659546
34.111244201660156 -17.675443649291992 2.5031673908233643
34.118804931640625 -17.945775985717773 2.494687557220459
34.29363250732422 -18.307235717773438 2.480499029159546
34.32379150390625 -18.59486198425293 2.471036911010742
34.260616302490234 -18.83346939086914 2.4646544456481934
30.67247772216797 -17.10708236694336 2.5792877674102783
30.19274139404297 -17.083267211914062 2.588099241256714
34.333438873291016 -19.705013275146484 2.4360179901123047
34.30937957763672 -19.97207260131836 2.4279606342315674
34.47441482543945 -20.35237693786621 2.413130521774292
34.50312805175781 -20.6558780670166 2.402975559234619
34.4439697265625 -20.908628463745117 2.3958616256713867
34.49876403808594 -21.232677459716797 2.3845560550689697
34.41180419921875 -21.471412658691406 2.3782856464385986
34.446537017822266 -21.787885665893555 2.367488384246826
34.444175720214844 -22.083471298217773 2.357938766479492
34.53921890258789 -22.444652557373047 2.3446497917175293
34.423255920410156 -22.670942306518555 2.339125871658325
34.425533294677734 -22.976552963256836 2.329077959060669
34.66462326049805 -23.444860458374023 2.3098771572113037
34.70713806152344 -23.785310745239258 2.2979774475097656
34.699974060058594 -24.09467315673828 2.2878589630126953
30.06827735900879 -21.153390884399414 2.458265781402588
34.802677154541016 -24.804536819458008 2.262657403945923
34.823909759521484 -25.14334487915039 2.2510147094726562
34.83341598510742 -25.476848602294922 2.2396974563598633
34.858604431152344 -25.825098037719727 2.227609872817993
34.853633880615234 -26.15421485900879 2.2165958881378174
34.87617111206055 -26.507219314575195 2.2043206691741943
34.88142395019531 -26.85051155090332 2.192603826522827
34.89244079589844 -27.201614379882812 2.1804986000061035
34.910648345947266 -27.561912536621094 2.167938709259033
34.82269287109375 -27.84107208251953 2.1597063541412354
34.68446350097656 -28.081195831298828 2.1535255908966064
34.74632263183594 -28.486051559448242 2.138683557510376
34.82373809814453 -28.90867805480957 2.1229639053344727
34.61188888549805 -29.09345054626465 2.1196718215942383
34.850425720214844 -29.660831451416016 2.0965142250061035
34.79859924316406 -29.98691749572754 2.085919141769409
34.924827575683594 -30.471168518066406 2.0672073364257812
34.927303314208984 -30.85288429260254 2.053818464279175
34.804222106933594 -31.126510620117188 2.0459694862365723
34.928035736083984 -31.62517547607422 2.0266788005828857
34.9622917175293 -32.048851013183594 2.011253595352173
34.87617492675781 -32.36604690551758 2.0012388229370117
34.94626998901367 -32.83256149291992 1.9837247133255005
36.9466438293457 28.81993865966797 3.0425312519073486
37.177330017089844 28.634855270385742 3.037055492401123
32.62125778198242 24.182266235351562 3.1052045822143555
32.204917907714844 23.568893432617188 3.110285758972168
32.30263137817383 23.337514877319336 3.107015371322632
32.44593811035156 23.139497756958008 3.1029655933380127
32.390987396240234 22.8018798828125 3.1021242141723633
32.37992477416992 22.498332977294922 3.1005423069000244
32.5123176574707 22.295886993408203 3.0965707302093506
32.43312072753906 21.950302124023438 3.096062660217285
32.477298736572266 21.69095230102539 3.093489170074463
32.45439910888672 21.38896369934082 3.092005968093872
32.527095794677734 21.151857376098633 3.0889015197753906
32.64102554321289 20.94220733642578 3.0850727558135986
32.58379364013672 20.62445831298828 3.0840904712677
32.7003059387207 20.41836166381836 3.080153703689575
32.658016204833984 20.11459732055664 3.078873872756958
32.50043487548828 19.74359130859375 3.079538345336914
32.61229705810547 19.538711547851562 3.075594902038574
32.67552185058594 19.305227279663086 3.072449207305908
32.738834381103516 19.07270622253418 3.069269895553589
32.41644287109375 18.6195011138916 3.072725534439087
32.609161376953125 18.465133666992188 3.067263603210449
32.56809616088867 18.178970336914062 3.065825939178467
32.70433807373047 17.992822647094727 3.0612711906433105
32.86852264404297 17.821414947509766 3.056185007095337
33.27787780761719 17.78014373779297 3.0467357635498047
44.583560943603516 23.47104835510254 2.844527244567871
44.551753997802734 23.10641860961914 2.841993570327759
44.37112808227539 22.668458938598633 2.842085838317871
44.24220275878906 22.261455535888672 2.841247797012329
44.013206481933594 21.808944702148438 2.842195510864258
43.94837188720703 21.442081451416016 2.8401854038238525
43.76173400878906 21.019685745239258 2.840360164642334
43.724342346191406 20.672624588012695 2.8378190994262695
43.51845169067383 20.249616622924805 2.8383290767669678
43.366302490234375 19.856143951416016 2.8378562927246094
43.20003890991211 19.46037483215332 2.8376355171203613
43.094547271728516 19.095754623413086 2.836287498474121
43.029300689697266 18.75193977355957 2.834179639816284
42.84566116333008 18.360021591186523 2.8342583179473877
42.705841064453125 17.990863800048828 2.8335165977478027
42.668426513671875 17.667726516723633 2.830842971801758
42.4647331237793 17.279022216796875 2.831284999847412
42.358158111572266 16.93357276916504 2.829888105392456
42.229408264160156 16.582406997680664 2.8289027214050293
42.164188385009766 16.25900650024414 2.8266947269439697
41.93857192993164 15.877198219299316 2.827547788619995
41.89262771606445 15.566692352294922 2.824944496154785
41.75239944458008 15.223780632019043 2.824146270751953
41.65003204345703 14.897656440734863 2.8226068019866943
41.537696838378906 14.570717811584473 2.821248769760132
41.41630554199219 14.243444442749023 2.8200600147247314
41.23183059692383 13.89776611328125 2.8201067447662354
41.14247512817383 13.587191581726074 2.818272829055786
41.08701705932617 13.28993034362793 2.815751791000366
40.9570198059082 12.970916748046875 2.8147006034851074
40.81989288330078 12.652521133422852 2.8137869834899902
40.69954299926758 12.342101097106934 2.812530279159546
40.652652740478516 12.056096076965332 2.809779167175293
40.53273010253906 11.750528335571289 2.808492422103882
40.40675354003906 11.445796966552734 2.807323694229126
40.36817932128906 11.167851448059082 2.8043534755706787
40.241817474365234 10.867605209350586 2.8031723499298096
40.47294616699219 10.66411304473877 2.7945799827575684
40.87544631958008 10.502487182617188 2.7823493480682373
41.31238555908203 10.345065116882324 2.7692909240722656
41.75960159301758 10.185279846191406 2.755901575088501
42.21806335449219 10.023164749145508 2.742157220840454
42.6984977722168 9.860980033874512 2.7278261184692383
43.17168426513672 9.691740036010742 2.71352219581604
43.648284912109375 9.517914772033691 2.699019193649292
44.15957260131836 9.34605598449707 2.683640718460083
44.65666961669922 9.1654634475708 2.6684329509735107
44.89137268066406 8.927044868469238 2.6587817668914795
44.92946243286133 8.64847469329834 2.6533362865448
44.97368621826172 8.371236801147461 2.647711992263794
44.86171340942383 8.065997123718262 2.645481824874878
45.001834869384766 7.806545734405518 2.637664318084717
45.03889083862305 7.528695106506348 2.6320714950561523
45.06040954589844 7.2484588623046875 2.626781463623047
45.08710861206055 6.969310760498047 2.62133526802063
45.113059997558594 6.690253734588623 2.6158626079559326
45.145206451416016 6.412265300750732 2.610206365585327
45.1776237487793 6.134402751922607 2.6045007705688477
45.20832443237305 5.856383800506592 2.5987892150878906
45.236324310302734 5.578094482421875 2.593095541000366
45.24671936035156 5.297820568084717 2.5877630710601807
33.37641906738281 3.7000277042388916 2.8581626415252686
33.38546371459961 3.493863582611084 2.854137659072876
33.41114807128906 3.2894911766052246 2.84969162940979
45.36056137084961 4.185923099517822 2.5643227100372314
45.388248443603516 3.907845973968506 2.5583651065826416
45.35641860961914 3.6249639987945557 2.553776979446411
45.44945526123047 3.351963758468628 2.546171188354492
45.48099136352539 3.0739095211029053 2.5399789810180664
45.500850677490234 2.794980525970459 2.534020185470581
12.57205867767334 0.6934038996696472 3.3277392387390137
45.541419982910156 2.2370409965515137 2.521942377090454
45.578121185302734 1.9586654901504517 2.515430212020874
19.45782470703125 0.7154576182365417 3.153414249420166
12.01658821105957 0.36726805567741394 3.3352742195129395
12.046565055847168 0.29423588514328003 3.333012819290161
12.269002914428711 0.2244100421667099 3.3259165287017822
12.522013664245605 0.15224777162075043 3.3179826736450195
12.654631614685059 0.07624737918376923 3.3130147457122803
12.698810577392578 -0.0013791415840387344 3.3102469444274902
12.758504867553711 -0.07964228838682175 3.307058334350586
12.953660011291504 -0.1602989137172699 3.300363779067993
12.95439338684082 -0.23979423940181732 3.2986209392547607
12.71279239654541 -0.31338199973106384 3.303149938583374
12.725580215454102 -0.39181920886039734 3.301098108291626
12.449178695678711 -0.45980948209762573 3.3066086769104004
12.123495101928711 -0.5223238468170166 3.3134799003601074
12.958722114562988 -0.6378315687179565 3.289682149887085
12.870683670043945 -0.7126829624176025 3.2902185916900635
12.842082977294922 -0.7901525497436523 3.289175033569336
12.836955070495605 -0.868914783000946 3.2874934673309326
12.850284576416016 -0.9490399956703186 3.28529953956604
46.11996078491211 -3.685415267944336 2.37876296043396
13.234975814819336 -1.1408116817474365 3.271068811416626
11.930678367614746 -1.1023606061935425 3.3049800395965576
12.029105186462402 -1.1859041452407837 3.3005013465881348
12.171688079833984 -1.2753766775131226 3.294752597808838
12.68420696258545 -1.4077110290527344 3.2786142826080322
33.961669921875 -3.9767162799835205 2.679211139678955
11.677767753601074 -1.44142484664917 3.3031814098358154
12.722447395324707 -1.6494863033294678 3.2717337608337402
12.797231674194336 -1.739060640335083 3.267630100250244
13.802672386169434 -1.961842656135559 3.2367794513702393
12.670036315917969 -1.8803918361663818 3.267289400100708
14.086671829223633 -2.178809881210327 3.2241780757904053
14.337482452392578 -2.307713508605957 3.2146077156066895
13.33315372467041 -2.230203628540039 3.2417564392089844
13.269930839538574 -2.303410530090332 3.2414519786834717
13.246650695800781 -2.383176803588867 3.2399656772613525
13.219943046569824 -2.462196111679077 3.2385711669921875
12.759899139404297 -2.457674026489258 3.250164031982422
12.693557739257812 -2.5257649421691895 3.250018358230591
12.593573570251465 -2.586303472518921 3.250897169113159
33.71867370605469 -7.137068271636963 2.6043741703033447
33.732723236083984 -7.356548309326172 2.598123073577881
33.805816650390625 -7.590041160583496 2.5899956226348877
33.76627731323242 -7.799070835113525 2.5852854251861572
33.859657287597656 -8.039759635925293 2.576389789581299
33.92609786987305 -8.27573013305664 2.5682549476623535
33.90073776245117 -8.490240097045898 2.5629396438598633
33.73751449584961 -8.669681549072266 2.5619547367095947
33.874935150146484 -8.926892280578613 2.551377058029175
34.058712005615234 -9.199142456054688 2.5392050743103027
34.05544662475586 -9.42281723022461 2.5329489707946777
34.043025970458984 -9.64461898803711 2.5269339084625244
34.04067611694336 -9.869961738586426 2.5205373764038086
34.00426483154297 -10.085978507995605 2.5152018070220947
33.889957427978516 -10.278716087341309 2.5123965740203857
33.951194763183594 -10.525174140930176 2.503737449645996
34.046875 -10.7842378616333 2.493840456008911
34.034141540527344 -11.010417938232422 2.4874913692474365
34.03984069824219 -11.243431091308594 2.4804608821868896
34.00228500366211 -11.462881088256836 2.474837303161621
34.079566955566406 -11.722273826599121 2.4652295112609863
34.05402374267578 -11.94764518737793 2.4590694904327393
34.036407470703125 -12.176511764526367 2.4525768756866455
34.04355239868164 -12.415199279785156 2.4451608657836914
34.2008171081543 -12.71082878112793 2.432403326034546
34.32207489013672 -12.996112823486328 2.4207799434661865
34.326412200927734 -13.239130973815918 2.4131879806518555
34.328121185302734 -13.48232364654541 2.40561580657959
34.339271545410156 -13.730489730834961 2.3976290225982666
34.34033203125 -13.975908279418945 2.3899285793304443
34.33967208862305 -14.221856117248535 2.382213830947876
34.35109329223633 -14.474142074584961 2.373979330062866
34.34141540527344 -14.718833923339844 2.366441249847412
34.37308883666992 -14.982720375061035 2.3572921752929688
34.4146842956543 -15.25281047821045 2.34767746925354
34.395938873291016 -15.497702598571777 2.34022855758667
34.392738342285156 -15.750842094421387 2.332118272781372
34.42487716674805 -16.021814346313477 2.3225789070129395
34.40799331665039 -16.271556854248047 2.314816474914551
34.4046516418457 -16.529050827026367 2.3064522743225098
34.34375762939453 -16.75994300842285 2.300234079360962
34.32877731323242 -17.014230728149414 2.292163372039795
34.289649963378906 -17.257734298706055 2.284958839416504
34.190975189208984 -17.471839904785156 2.280036687850952
34.08386993408203 -17.681705474853516 2.275406837463379
34.19211959838867 -18.00498390197754 2.2621045112609863
34.3029670715332 -18.333080291748047 2.248542547225952
34.35835266113281 -18.634624481201172 2.2370755672454834
34.251094818115234 -18.8493709564209 2.2321279048919678
30.650432586669922 -17.113933563232422 2.3709630966186523
30.181228637695312 -17.09576416015625 2.381899833679199
34.221099853515625 -19.662132263183594 2.2048451900482178
34.36214828491211 -20.02463150024414 2.1892025470733643
34.48625564575195 -20.38145637512207 2.174086332321167
34.36296081542969 -20.594158172607422 2.169321298599243
34.47065353393555 -20.947265625 2.154609441757202
34.46638870239258 -21.235368728637695 2.1445517539978027
34.431907653808594 -21.506736755371094 2.1356923580169678
34.36583709716797 -21.75977325439453 2.128114938735962
34.52839660644531 -22.16069221496582 2.110375165939331
34.5206184387207 -22.45598602294922 2.099973440170288
34.45459747314453 -22.715167999267578 2.0920517444610596
34.4639778137207 -23.02600860595703 2.0806474685668945
34.656192779541016 -23.463298797607422 2.0608108043670654
34.72483444213867 -23.82184600830078 2.046359062194824
34.69108200073242 -24.11310386657715 2.0364367961883545
30.033842086791992 -21.150800704956055 2.240705966949463
34.796531677246094 -24.825300216674805 2.00815749168396
34.80131530761719 -25.152414321899414 1.9959994554519653
34.82112503051758 -25.493505477905273 1.9829773902893066
34.831626892089844 -25.831018447875977 1.9702328443527222
34.8209114074707 -26.15581512451172 1.9583441019058228
34.86397933959961 -26.524402618408203 1.943699598312378
34.843666076660156 -26.848146438598633 1.9319548606872559
34.85928726196289 -27.2027587890625 1.9182931184768677
34.88597106933594 -27.56972312927246 1.903901219367981
34.837677001953125 -27.880592346191406 1.8930615186691284
34.67974090576172 -28.10508918762207 1.8876006603240967
34.68257522583008 -28.46180534362793 1.87393057346344
34.82143783569336 -28.935195922851562 1.8531221151351929
34.8403205871582 -29.31421661376953 1.8381973505020142
34.82695388793945 -29.66992950439453 1.8247411251068115
34.848350524902344 -30.059206008911133 1.809280514717102
34.903907775878906 -30.48272132873535 1.7918013334274292
34.90017318725586 -30.85906410217285 1.7772243022918701
34.86259460449219 -31.209182739257812 1.7642556428909302
34.914573669433594 -31.64386558532715 1.7462668418884277
34.98976516723633 -32.105350494384766 1.7267508506774902
34.92222595214844 -32.4404182434082 1.7147836685180664
34.95888900756836 -32.87648391723633 1.6968797445297241
32.209991455078125 30.3348388671875 2.868065595626831
32.34413528442383 30.089014053344727 2.8653104305267334
32.50666427612305 29.870420455932617 2.8618264198303223
32.84244918823242 29.809553146362305 2.8541784286499023
32.375423431396484 29.025531768798828 2.8655099868774414
32.42926788330078 28.717018127441406 2.8644349575042725
32.721378326416016 28.61957359313965 2.8576581478118896
36.99137496948242 28.549362182617188 2.7548716068267822
37.330322265625 28.447349548339844 2.7463538646698
32.715946197509766 24.615392684936523 2.85549259185791
32.39751052856445 24.066064834594727 2.862558364868164
32.20903778076172 23.620912551879883 2.8664968013763428
32.19126510620117 23.305627822875977 2.8663322925567627
32.334346771240234 23.10829734802246 2.862290143966675
32.318538665771484 22.79886245727539 2.861989974975586
32.3912353515625 22.55390739440918 2.85953426361084
32.327003479003906 22.216053009033203 2.8603055477142334
32.34922409057617 21.940446853637695 2.8589696884155273
32.35100555419922 21.653175354003906 2.8580806255340576
32.376346588134766 21.383787155151367 2.856585741043091
32.289031982421875 21.04285430908203 2.8577537536621094
32.41069030761719 20.84006118774414 2.853862762451172
32.50574493408203 20.62050437927246 2.850564956665039
32.54084777832031 20.36396598815918 2.8486669063568115
32.55020523071289 20.093069076538086 2.84734845161438
32.41998291015625 19.739124298095703 2.849365472793579
32.2335090637207 19.355623245239258 2.8527140617370605
32.24229049682617 19.09283447265625 2.8513050079345703
32.40792465209961 18.923425674438477 2.8460488319396973
32.418460845947266 18.663911819458008 2.844515323638916
32.4879035949707 18.439529418945312 2.8415074348449707
32.399635314941406 18.12761688232422 2.8423070907592773
32.52326202392578 17.93577003479004 2.8378970623016357
32.75906753540039 17.804670333862305 2.8306918144226074
32.97509765625 17.660966873168945 2.823915719985962
