# .PCD v0.7 - Point Cloud Data file format
VERSION 0.7
FIELDS x y z
SIZE 4 4 4
TYPE F F F
COUNT 1 1 1
WIDTH 854
HEIGHT 1
VIEWPOINT 0 0 0 1 0 0 0
POINTS 854
DATA ascii
31.220943450927734 28.690378189086914 0.3557833135128021
12.93925666809082 11.888298034667969 1.3274763822555542
12.959039688110352 11.907561302185059 0.4424731731414795
32.54616165161133 29.697616577148438 2.3964855670928955
31.296695709228516 28.55941390991211 0.3559986650943756
12.953003883361816 11.817997932434082 1.331174373626709
12.987544059753418 11.850658416748047 0.4445623457431793
32.538394927978516 29.483173370361328 2.3979625701904297
13.022356033325195 11.801578521728516 2.195056676864624
12.979288101196289 11.759406089782715 1.3327226638793945
13.012161254882812 11.790393829345703 0.44750669598579407
32.50027847290039 29.253087997436523 2.4003782272338867
13.048340797424316 11.746670722961426 2.1954851150512695
12.994068145751953 11.694746017456055 1.3358519077301025
13.028986930847168 11.727429389953613 0.4517817795276642
32.452999114990234 29.00625991821289 2.4031307697296143
13.070562362670898 11.684453010559082 2.196422576904297
13.017984390258789 11.634459495544434 1.3377063274383545
13.054909706115723 11.668774604797363 0.4542964696884155
32.467952728271484 28.8165225982666 2.403752565383911
13.088781356811523 11.618915557861328 2.197730779647827
13.030505180358887 11.564269065856934 1.3414047956466675
13.069530487060547 11.600271224975586 0.459382563829422
32.51948547363281 28.66008186340332 2.403113603591919
13.104832649230957 11.55174446105957 2.1992244720458984
13.057583808898926 11.507251739501953 1.3426425457000732
13.094918251037598 11.541577339172363 0.4618956446647644
32.5797233581543 28.511863708496094 2.4021568298339844
13.128076553344727 11.491168022155762 2.1999752521514893
13.076956748962402 11.443653106689453 1.345110297203064
13.110788345336914 11.474738121032715 0.46655285358428955
32.60347366333008 28.33242416381836 2.402404308319092
13.147297859191895 11.427301406860352 2.201097011566162
13.096047401428223 11.380059242248535 1.3475779294967651
13.137508392333984 11.417619705200195 0.46863535046577454
32.607452392578125 28.136842727661133 2.403289794921875
13.17000675201416 11.36669921875 2.2018463611602783
13.116729736328125 11.318090438842773 1.3497370481491089
13.158395767211914 11.355627059936523 0.47200411558151245
32.58389663696289 27.91881561279297 2.405073404312134
13.188666343688965 11.30282974243164 2.2029671669006348
13.140909194946289 11.259343147277832 1.3512794971466064
13.186491966247559 11.300037384033203 0.47365492582321167
32.61061096191406 27.745019912719727 2.405141592025757
13.212737083435059 11.243816375732422 2.203529119491577
13.166728973388672 11.202173233032227 1.352512240409851
13.203106880187988 11.23481273651123 0.47788143157958984
32.62506103515625 27.56169891357422 2.4055967330932617
13.23655891418457 11.184772491455078 2.204090118408203
13.182832717895508 11.136955261230469 1.3552864789962769
13.226951599121094 11.175968170166016 0.48038917779922485
32.634788513183594 27.37540626525879 2.406183958053589
13.254398345947266 11.120893478393555 2.205209493637085
13.208145141601562 11.079731941223145 1.3565176725387573
13.24111270904541 11.109177589416504 0.4850452244281769
32.655147552490234 27.198978424072266 2.4063892364501953
13.277700424194336 11.061810493469238 2.2057690620422363
13.231314659118652 11.020878791809082 1.3580563068389893
13.266325950622559 11.05188274383545 0.48712167143821716
32.67937469482422 27.017038345336914 2.4064834117889404
13.298824310302734 10.997204780578613 2.2066543102264404
13.250402450561523 10.954944610595703 1.3604743480682373
13.289409637451172 10.98908805847168 0.49001064896583557
32.6806526184082 26.82672691345215 2.407275676727295
13.325455665588379 10.941240310668945 2.2068381309509277
13.271129608154297 10.894482612609863 1.3623203039169312
13.314126014709473 10.931718826293945 0.49208489060401917
32.68680953979492 26.641469955444336 2.4078800678253174
13.344132423400879 10.878924369812012 2.2077691555023193
13.285825729370117 10.829303741455078 1.36509370803833
13.332874298095703 10.869644165039062 0.49544912576675415
32.6816291809082 26.45747947692871 2.4087979793548584
13.362590789794922 10.820512771606445 2.208559513092041
13.308000564575195 10.77428150177002 1.3663675785064697
13.357135772705078 10.816097259521484 0.4971381723880768
32.703548431396484 26.286907196044922 2.4088282585144043
13.380738258361816 10.758200645446777 2.2094898223876953
13.329886436462402 10.715350151062012 1.3679027557373047
13.371538162231445 10.75091552734375 0.5013628005981445
32.69342803955078 26.091564178466797 2.409902334213257
13.406407356262207 10.70211410522461 2.209669589996338
13.349583625793457 10.654850006103516 1.3697469234466553
13.399124145507812 10.696517944335938 0.5025724172592163
32.715633392333984 25.922992706298828 2.409874200820923
13.427942276000977 10.64288330078125 2.210223436355591
13.369020462036133 10.594341278076172 1.3715908527374268
13.414911270141602 10.632882118225098 0.5063658356666565
32.719383239746094 25.740680694580078 2.41043758392334
13.443346977233887 10.579004287719727 2.2113401889801025
13.388198852539062 10.53382682800293 1.3734335899353027
13.43428897857666 10.572311401367188 0.5092968940734863
32.724239349365234 25.56019401550293 2.4109394550323486
13.466331481933594 10.521289825439453 2.211704969406128
13.409074783325195 10.474834442138672 1.3749665021896362
13.451470375061035 10.510217666625977 0.5126587748527527
32.72625732421875 25.378461837768555 2.411513090133667
13.489073753356934 10.463541984558105 2.212068796157837
13.429699897766113 10.415824890136719 1.3764985799789429
13.466434478759766 10.446623802185059 0.5164517760276794
32.75358200073242 25.20807647705078 2.4112510681152344
13.505487442016602 10.397323608398438 2.213136911392212
13.459741592407227 10.360502243041992 1.3767414093017578
13.48877239227295 10.38520622253418 0.5189028978347778
32.75189971923828 25.025348663330078 2.4118988513946533
13.52772331237793 10.339539527893066 2.2134993076324463
13.475939750671387 10.298416137695312 1.3788923025131226
13.505141258239746 10.32313060760498 0.5222641229629517
32.76926040649414 24.858041763305664 2.4118919372558594
13.545748710632324 10.27871322631836 2.214237928390503
13.491870880126953 10.236343383789062 1.3810430765151978
13.538895606994629 10.274462699890137 0.5217395424842834
32.75790023803711 24.66986846923828 2.4128148555755615
13.573469161987305 10.225384712219238 2.2140326499938965
13.51347541809082 10.178760528564453 1.382261872291565
13.55280590057373 10.210866928100586 0.5255314707756042
32.75736618041992 24.499765396118164 2.4133288860321045
13.585240364074707 10.163908004760742 2.215195655822754
13.539046287536621 10.127968788146973 1.3825949430465698
13.574538230895996 10.157044410705566 0.52721107006073
32.73222351074219 24.30337142944336 2.4146628379821777
13.612519264221191 10.110496520996094 2.2149882316589355
13.548254013061523 10.061445236206055 1.3856770992279053
13.591882705688477 10.09640884399414 0.5301386117935181
32.59947967529297 24.028860092163086 2.419537305831909
13.627553939819336 10.048144340515137 2.2159135341644287
13.56914234161377 10.003808975219727 1.3868939876556396
13.622843742370605 10.046006202697754 0.5300391316413879
32.477325439453125 23.764432907104492 2.4240353107452393
13.644330978393555 9.987282752990723 2.2166495323181152
13.595799446105957 9.950545310974121 1.3871761560440063
13.637723922729492 9.983874320983887 0.5333970189094543
32.42045211791992 23.54961395263672 2.4263477325439453
13.668914794921875 9.932283401489258 2.216628074645996
13.616231918334961 9.892842292785645 1.3883906602859497
13.662293434143066 9.928996086120605 0.53459233045578
32.490196228027344 23.42756462097168 2.424448013305664
13.687217712402344 9.872862815856934 2.2171738147735596
13.644474983215332 9.840922355651855 1.38835871219635
13.66268539428711 9.856783866882324 0.5409790277481079
32.53712463378906 23.28931427001953 2.423283576965332
13.711352348327637 9.817788124084473 2.2171499729156494
13.658400535583496 9.778816223144531 1.3905059099197388
13.70077896118164 9.81192398071289 0.5391432046890259
32.5488395690918 23.12641716003418 2.4232616424560547
13.733235359191895 9.761219024658203 2.2173147201538086
13.676103591918945 9.71960735321045 1.392030119895935
13.666475296020508 9.71556568145752 0.5528927445411682
32.56791687011719 22.960920333862305 2.422992706298828
13.75861930847168 9.703655242919922 2.2172393798828125
13.69523811340332 9.658004760742188 1.3935049772262573
13.703761100769043 9.666855812072754 0.5514394044876099
32.610782623291016 22.812780380249023 2.42191481590271
13.773551940917969 9.638888359069824 2.218113422393799
13.720203399658203 9.600654602050781 1.3940430879592896
13.724735260009766 9.606708526611328 0.5534499883651733
32.58952713012695 22.629005432128906 2.422917127609253
13.798815727233887 9.585081100463867 2.2178947925567627
13.745311737060547 9.547067642211914 1.3943161964416504
13.743796348571777 9.548934936523438 0.5555081963539124
32.55297088623047 22.43572235107422 2.4244041442871094
13.81360912322998 9.524140357971191 2.2186267375946045
13.764087677001953 9.489195823669434 1.3955250978469849
13.772757530212402 9.49813175201416 0.5553979277610779
32.48659896850586 22.223224639892578 2.4268534183502197
13.836373329162598 9.468843460083008 2.2185964584350586
13.786720275878906 9.434112548828125 1.3961085081100464
13.97220516204834 9.564044952392578 0.51884925365448
32.51838302612305 22.07883644104004 2.4260425567626953
13.85892105102539 9.413504600524902 2.218564987182617
13.809137344360352 9.378983497619629 1.3966904878616333
14.180419921875 9.634214401245117 0.48053866624832153
32.560237884521484 21.9499568939209 2.424868106842041
13.88169002532959 9.361936569213867 2.218390703201294
13.829717636108398 9.326227188110352 1.3973203897476196
14.193693161010742 9.574772834777832 0.4834858775138855
32.61163330078125 21.81952476501465 2.4233710765838623
13.89345932006836 9.299577713012695 2.2193117141723633
13.847588539123535 9.268260955810547 1.3985260725021362
14.048791885375977 9.406044960021973 0.5202494263648987
32.52342224121094 21.604822158813477 2.4264516830444336
13.915811538696289 9.24795150756836 2.2191357612609863
13.86568832397461 9.214073181152344 1.3994674682617188
13.895143508911133 9.236783027648926 0.558388352394104
32.45664596557617 21.397663116455078 2.4288127422332764
13.929168701171875 9.186985969543457 2.219865322113037
13.893455505371094 9.162907600402832 1.3991056680679321
13.922959327697754 9.185537338256836 0.558266818523407
32.43693161010742 21.222700119018555 2.4296016693115234
13.961044311523438 9.138325691223145 2.218872308731079
13.910656929016113 9.10486888885498 1.4003088474273682
13.95676326751709 9.138254165649414 0.5568398237228394
32.418479919433594 21.049501419067383 2.4303295612335205
13.976024627685547 9.078695297241211 2.2194089889526367
13.923463821411133 9.044119834899902 1.4021390676498413
13.961505889892578 9.072071075439453 0.561496376991272
32.44964599609375 20.9091739654541 2.4294023513793945
13.99704647064209 9.023120880126953 2.2193706035614014
13.94852352142334 8.99145221710205 1.402086615562439
13.9907865524292 9.021971702575684 0.5609356760978699
32.50759506225586 20.7863826751709 2.42757248878479
14.017848014831543 8.967508316040039 2.2193310260772705
13.965028762817383 8.93337631225586 1.4032881259918213
14.015741348266602 8.969124794006348 0.5612422823905945
32.56024169921875 20.652406692504883 2.425900936126709
14.039981842041016 8.90941047668457 2.219240188598633
13.995407104492188 8.880826950073242 1.4025553464889526
14.029570579528809 8.90584945678711 0.564108669757843
32.596073150634766 20.516029357910156 2.4247612953186035
14.062450408935547 8.85505485534668 2.2190065383911133
14.009360313415527 8.821370124816895 1.404068946838379
14.068673133850098 8.86209487915039 0.5613653659820557
32.62287521362305 20.374353408813477 2.4238998889923096
14.084709167480469 8.800647735595703 2.218771457672119
14.037792205810547 8.771120071411133 1.4033827781677246
14.099289894104004 8.812958717346191 0.5603605508804321
32.530120849609375 20.159032821655273 2.4269607067108154
14.106760025024414 8.746194839477539 2.2185349464416504
14.053399085998535 8.712940216064453 1.404581069946289
14.240617752075195 8.832472801208496 0.5362628698348999
32.47323226928711 19.975141525268555 2.4288227558135986
14.124968528747559 8.692852973937988 2.2185401916503906
14.07783031463623 8.663711547851562 1.4042561054229736
14.378620147705078 8.852324485778809 0.5126343369483948
32.48933029174805 19.829153060913086 2.4282588958740234
14.157244682312012 8.644810676574707 2.2173376083374023
14.093000411987305 8.605494499206543 1.405452847480774
32.521907806396484 19.693649291992188 2.4271328449249268
14.17230224609375 8.586318969726562 2.2176756858825684
14.127025604248047 8.558838844299316 1.4038152694702148
32.493953704833984 19.52212905883789 2.427985191345215
14.20421314239502 8.53809642791748 2.2164688110351562
14.146017074584961 8.503108024597168 1.404380202293396
32.46519470214844 19.351043701171875 2.428845167160034
14.216694831848145 8.47826862335205 2.2169981002807617
14.166921615600586 8.44861888885498 1.404628872871399
14.161619186401367 8.449052810668945 0.5783332586288452
32.42607879638672 19.16710662841797 2.430023193359375
14.245414733886719 8.42485523223877 2.21612286567688
14.18907642364502 8.391611099243164 1.404825210571289
14.17318058013916 8.385836601257324 0.5811978578567505
32.43448257446289 19.01970672607422 2.4296207427978516
14.261727333068848 8.367528915405273 2.216264247894287
14.207418441772461 8.335779190063477 1.4053871631622314
14.221243858337402 8.347551345825195 0.5762527585029602
32.468170166015625 18.887557983398438 2.4283666610717773
14.284276962280273 8.313953399658203 2.2158241271972656
14.231973648071289 8.283662796020508 1.4050008058547974
14.218154907226562 8.279305458068848 0.5817875266075134
32.50998306274414 18.76039695739746 2.426826000213623
14.31525993347168 8.265305519104004 2.214606761932373
14.249892234802246 8.227754592895508 1.4055602550506592
14.242475509643555 8.227189064025879 0.5816430449485779
32.61746597290039 18.6785945892334 2.4231104850769043
14.340325355529785 8.216567039489746 2.2138264179229736
14.268329620361328 8.175542831420898 1.4058542251586914
14.275867462158203 8.183609962463379 0.5793619751930237
32.68671417236328 18.567123413085938 2.420628786087036
14.351470947265625 8.156625747680664 2.2143516540527344
14.300925254821777 8.128161430358887 1.4041991233825684
14.304117202758789 8.133752822875977 0.5783388018608093
32.738162994384766 18.445585250854492 2.4187161922454834
14.40146255493164 8.11873722076416 2.2113797664642334
14.320399284362793 8.073343276977539 1.4044389724731445
14.300031661987305 8.065664291381836 0.5838755965232849
32.760799407958984 18.30806541442871 2.4177374839782715
14.412199974060059 8.05870532989502 2.211902618408203
14.34399700164795 8.020907402038574 1.4040449857711792
14.3514986038208 8.028940200805664 0.5780358910560608
32.764408111572266 18.167848587036133 2.4173808097839355
14.381196975708008 7.97933292388916 1.4014843702316284
14.3670654296875 7.975356578826904 0.5792469382286072
32.889801025390625 18.080175399780273 2.412958860397339
14.417523384094238 7.934537887573242 0.5737849473953247
32.9460334777832 17.961702346801758 2.4108152389526367
14.935287475585938 8.147260665893555 2.1696150302886963
33.008426666259766 17.846620559692383 2.4084506034851074
14.94686222076416 8.086575508117676 1.3282623291015625
33.01755905151367 17.702983856201172 2.4078266620635986
33.063602447509766 17.579444885253906 2.4059653282165527
33.08708190917969 17.444143295288086 2.4048328399658203
27.754045486450195 14.639803886413574 1.0381587743759155
33.08345031738281 17.295007705688477 2.4045796394348145
27.800363540649414 14.540559768676758 1.0365548133850098
33.0954704284668 17.147226333618164 2.403770685195923
27.80900001525879 14.415667533874512 1.0383737087249756
33.1016731262207 17.004226684570312 2.4031567573547363
27.845651626586914 14.31170654296875 1.0375498533248901
33.10282897949219 16.859127044677734 2.4026939868927
27.848604202270508 14.190693855285645 1.0396666526794434
33.11452865600586 16.7198543548584 2.4018642902374268
33.11448669433594 16.575115203857422 2.401407241821289
33.12440872192383 16.443021774291992 2.4006266593933105
33.13890075683594 16.306367874145508 2.3996541500091553
33.13936996459961 16.16324234008789 2.3991312980651855
33.14373779296875 16.022483825683594 2.3984620571136475
33.152034759521484 15.884051322937012 2.3976454734802246
32.72068786621094 15.686187744140625 0.62728351354599
33.15977096557617 15.745757102966309 2.39683198928833
32.58816909790039 15.483155250549316 0.6413151621818542
33.16740798950195 15.600752830505371 2.3959763050079346
32.68278884887695 15.381690979003906 0.6354875564575195
33.178524017333984 15.46485710144043 2.3950154781341553
33.00482940673828 15.392891883850098 0.6095910668373108
33.17549133300781 15.32278823852539 2.394509792327881
33.116943359375 15.304808616638184 0.6020628213882446
33.18777084350586 15.188206672668457 2.393479108810425
33.15633773803711 15.182931900024414 0.6008614897727966
33.19268798828125 15.050630569458008 2.392677068710327
33.188480377197266 15.057876586914062 0.6002530455589294
33.199012756347656 14.921046257019043 2.3918442726135254
33.194820404052734 14.928357124328613 0.6017471551895142
33.20057678222656 14.782743453979492 2.391122817993164
33.203243255615234 14.793166160583496 0.6031230688095093
33.21300506591797 14.649651527404785 2.3900225162506104
33.165523529052734 14.637975692749023 0.608476996421814
33.21574783325195 14.512650489807129 2.3892295360565186
33.16138458251953 14.49820327758789 0.6108550429344177
33.21794891357422 14.375810623168945 2.3884387016296387
33.16352844238281 14.361604690551758 0.612639307975769
33.2195930480957 14.239131927490234 2.3876519203186035
33.178871154785156 14.231060981750488 0.6132314205169678
33.24138641357422 14.11140251159668 2.386173963546753
33.20058822631836 14.103507041931152 0.6132258176803589
33.23518371582031 13.96530818939209 2.385578155517578
33.20816421508789 13.963418006896973 0.6144959926605225
33.24441146850586 13.832924842834473 2.384488582611084
33.21736145019531 13.831171989440918 0.615490198135376
33.24618911743164 13.697793006896973 2.383633852005005
33.23065185546875 13.700933456420898 0.6160848736763
33.265926361083984 13.570365905761719 2.38215970993042
33.25727844238281 13.576417922973633 0.615480899810791
33.28980255126953 13.451583862304688 2.3805716037750244
33.26030731201172 13.4492826461792 0.6167981624603271
33.257564544677734 13.303780555725098 2.3808138370513916
33.27443313598633 13.32017707824707 0.6171949505805969
33.196834564208984 13.1453275680542 2.382000684738159
33.19770431518555 13.1553373336792 0.6254169940948486
33.17029571533203 13.001136779785156 2.3820252418518066
33.15503692626953 13.004842758178711 0.6306412220001221
33.157127380371094 12.862714767456055 2.3815841674804688
33.165157318115234 12.875543594360352 0.6312520503997803
33.22272491455078 12.754985809326172 2.378472089767456
33.19571304321289 12.754376411437988 0.630054771900177
33.36545181274414 12.679574012756348 0.6168583631515503
33.51190948486328 12.601655960083008 0.6055746674537659
33.73810577392578 12.542571067810059 2.3581998348236084
33.73996353149414 12.553278923034668 0.5872143507003784
33.79564666748047 12.42993450164795 2.3552756309509277
33.74592590332031 12.421696662902832 0.5879946351051331
33.77768325805664 12.289712905883789 2.3548905849456787
33.7607536315918 12.293638229370117 0.587969183921814
33.79698944091797 12.17004680633545 2.353278875350952
33.761260986328125 12.167292594909668 0.5890765190124512
33.773258209228516 12.02856159210205 2.353060722351074
33.7774772644043 12.04020881652832 0.588850200176239
33.79608154296875 11.903989791870117 2.351247787475586
33.7838134765625 11.909846305847168 0.5894339084625244
33.80429458618164 11.774474143981934 2.3499159812927246
33.784950256347656 11.777945518493652 0.5904245376586914
33.802555084228516 11.641792297363281 2.3489062786102295
33.7973518371582 11.650239944458008 0.5904027223587036
33.81450271606445 11.514097213745117 2.3474161624908447
33.795127868652344 11.517768859863281 0.5915994048118591
33.80663299560547 11.373387336730957 2.3465304374694824
33.81089401245117 11.385124206542969 0.5912547707557678
33.812835693359375 11.244307518005371 2.345205068588257
33.817100524902344 11.256056785583496 0.5916418433189392
33.837528228759766 11.121563911437988 2.3432319164276123
33.81808090209961 11.125528335571289 0.5924384593963623
33.83564376831055 10.9902925491333 2.342151165008545
33.8209342956543 10.995902061462402 0.5930328965187073
33.845149993896484 10.862988471984863 2.340665817260742
33.828041076660156 10.867913246154785 0.5932219624519348
33.85231018066406 10.741658210754395 2.3393054008483887
33.830421447753906 10.745155334472656 0.5937385559082031
33.851348876953125 10.611501693725586 2.338148593902588
33.841346740722656 10.61883544921875 0.593522310256958
33.85943603515625 10.4844388961792 2.336667060852051
33.84703063964844 10.491094589233398 0.5937141180038452
33.885581970214844 10.356650352478027 2.3344876766204834
33.86119079589844 10.359724044799805 0.5931705236434937
33.85923385620117 10.21957015991211 2.3341591358184814
33.846824645996094 10.226372718811035 0.5950028300285339
33.87064743041992 10.09421443939209 2.3325161933898926
33.860595703125 10.101794242858887 0.5943799614906311
33.85524368286133 9.96114730834961 2.3317830562591553
33.857181549072266 9.97231674194336 0.5951924920082092
33.88250732421875 9.840852737426758 2.3295633792877197
33.877197265625 9.849940299987793 0.5939555764198303
33.83079147338867 9.704360961914062 2.33012056350708
33.868743896484375 9.725895881652832 0.5950999855995178
33.86436080932617 9.586244583129883 2.327652931213379
33.88787078857422 9.603578567504883 0.593863844871521
33.86623001098633 9.459274291992188 2.326265811920166
33.889766693115234 9.47654914855957 0.5940659642219543
33.88689422607422 9.337715148925781 2.3242123126983643
33.8959846496582 9.350948333740234 0.5938576459884644
33.90149688720703 9.208247184753418 2.322284460067749
33.90678024291992 9.082775115966797 2.3207316398620605
33.90677261352539 8.956101417541504 2.3193488121032715
33.911128997802734 8.83079719543457 2.317798137664795
33.87920379638672 8.83329963684082 0.5962182283401489
33.92470169067383 8.708059310913086 2.3159117698669434
33.89995574951172 8.712546348571777 0.5945698618888855
33.93149948120117 8.59002685546875 2.3143177032470703
33.90911865234375 8.59522533416748 0.5938723683357239
33.919960021972656 8.461283683776855 2.3132786750793457
33.91210174560547 8.470209121704102 0.5936726927757263
33.93220520019531 8.338690757751465 2.3113937377929688
33.92429733276367 8.347658157348633 0.592644453048706
33.934288024902344 8.213763236999512 2.309847831726074
33.93362808227539 8.224535942077637 0.5918242931365967
33.94218444824219 8.084157943725586 2.308009624481201
33.92694854736328 8.091483116149902 0.5923337340354919
33.943336486816406 7.959388732910156 2.3064663410186768
33.937782287597656 7.969061374664307 0.5913066267967224
33.93915939331055 7.833585262298584 2.3050971031188965
33.926326751708984 7.841615200042725 0.5921520590782166
33.954017639160156 7.7123332023620605 2.303041696548462
33.93382263183594 7.7187628746032715 0.5913349986076355
33.979305267333984 7.599728107452393 2.300680637359619
33.94929122924805 7.604053974151611 0.5898080468177795
33.97380447387695 7.474127769470215 2.2993125915527344
33.958370208740234 7.4817914962768555 0.5887827277183533
33.982486724853516 7.351826190948486 2.297429323196411
33.97431182861328 7.361140727996826 0.5871307849884033
33.98828887939453 7.229036808013916 2.2956316471099854
33.987388610839844 7.239950180053711 0.5856865048408508
33.98876190185547 7.105273723602295 2.294008731842041
33.98784255981445 7.116204738616943 0.5852872133255005
33.99243927001953 6.976166248321533 2.292174816131592
34.001258850097656 6.989121437072754 0.5837180018424988
33.99443817138672 6.853057861328125 2.290466785430908
33.998355865478516 6.865010738372803 0.583530604839325
33.98863983154297 6.728566646575928 2.289022207260132
34.01210403442383 6.7443952560424805 0.581875741481781
34.0008544921875 6.613942623138428 2.2870032787323
34.012062072753906 6.627323150634766 0.5813949108123779
34.04572296142578 6.499465465545654 2.283720016479492
34.01762390136719 6.505324363708496 0.5803700685501099
34.01787185668945 6.37735652923584 2.2831037044525146
34.01431655883789 6.3879241943359375 0.5801013112068176
34.04090881347656 6.252666473388672 2.280482530593872
34.01521301269531 6.259200572967529 0.5793732404708862
34.032920837402344 6.1285247802734375 2.2790415287017822
34.02926254272461 6.13914155960083 0.5775084495544434
34.03432083129883 6.006251335144043 2.277249336242676
34.02082443237305 6.015158176422119 0.5775387287139893
34.04513168334961 5.885744094848633 2.275104284286499
34.04383087158203 5.89683198928833 0.5748299956321716
34.045658111572266 5.763566493988037 2.273313522338867
34.03942108154297 5.773837566375732 0.5744402408599854
34.05067825317383 5.642273426055908 2.271345615386963
34.04930877685547 5.6533918380737305 0.5727843642234802
34.051292419433594 5.5142741203308105 2.26943039894104
34.05235290527344 5.525808811187744 0.5716375708580017
34.05788803100586 5.393459320068359 2.2673745155334473
34.05644607543945 5.404609680175781 0.5704044699668884
34.05171203613281 5.270754337310791 2.265765428543091
34.05025863647461 5.28192138671875 0.5700196623802185
34.0599250793457 5.150400638580322 2.2636191844940186
34.038700103759766 5.158595561981201 0.5700594186782837
34.06683349609375 5.035996437072754 2.261599063873291
34.05293655395508 5.0453643798828125 0.5678938627243042
34.07915496826172 4.916369915008545 2.259273052215576
34.07011413574219 4.926507949829102 0.5653888583183289
34.07374572753906 4.794283390045166 2.2575767040252686
34.0671501159668 4.804811000823975 0.564582347869873
34.075313568115234 4.673311233520508 2.2556114196777344
34.08101272583008 4.6855669021606445 0.562288224697113
34.088836669921875 4.554040431976318 2.2531938552856445
34.08952331542969 4.5656232833862305 0.5604182481765747
34.07050704956055 4.424600601196289 2.251828193664551
34.083560943603516 4.437798500061035 0.5597007870674133
34.120338439941406 4.310060024261475 2.248047351837158
34.098609924316406 4.318839073181152 0.5571910738945007
34.115238189697266 4.188530921936035 2.246262311935425
34.08358383178711 4.196176528930664 0.5572401285171509
34.12458419799805 4.068862438201904 2.243931531906128
34.10026931762695 4.077514171600342 0.5545158982276917
33.558353424072266 3.6514530181884766 2.2589080333709717
33.55339431762695 3.5324926376342773 2.257077693939209
33.57039260864258 3.415886163711548 2.2544186115264893
33.2823600769043 3.3979287147521973 0.6184393167495728
33.62733459472656 3.2972421646118164 2.2501556873321533
33.3959846496582 3.2859559059143066 0.6070572137832642
33.67584991455078 3.1833982467651367 2.2462868690490723
33.302879333496094 3.1595280170440674 0.6136203408241272
33.69908905029297 3.0669922828674316 2.243337869644165
33.308528900146484 3.0428481101989746 0.611592710018158
33.69902038574219 2.9543843269348145 2.2413463592529297
33.052734375 2.909064292907715 0.6322917938232422
33.71649169921875 2.8373959064483643 2.238579511642456
32.60083770751953 2.754732370376587 0.6699258685112
33.71862030029297 2.7191174030303955 2.2363698482513428
32.89305114746094 2.6638600826263428 0.6429356932640076
33.70288848876953 2.5995137691497803 2.2348134517669678
33.31414794921875 2.580976963043213 0.6046799421310425
33.71165466308594 2.4818859100341797 2.232323408126831
32.835880279541016 2.4287333488464355 0.6445566415786743
33.72001647949219 2.3642282485961914 2.229832887649536
32.95326232910156 2.3218352794647217 0.6326174139976501
33.71549987792969 2.245713233947754 2.227810859680176
33.19951629638672 2.2227914333343506 0.6094107031822205
33.72837829589844 2.1224725246429443 2.2250053882598877
33.070491790771484 2.0924947261810303 0.6187447905540466
33.69558334350586 2.0023903846740723 2.2240216732025146
32.95057678222656 1.9695134162902832 0.6273540258407593
33.69477844238281 1.884373426437378 2.221813440322876
15.814018249511719 0.8909154534339905 2.120454788208008
33.691070556640625 1.766255497932434 2.219700813293457
15.809460639953613 0.8353350162506104 2.119936466217041
33.70412826538086 1.6549211740493774 2.2170474529266357
15.821990013122559 0.7834141254425049 2.1179561614990234
15.827005386352539 0.7283140420913696 2.116568088531494
15.834320068359375 0.6732935309410095 2.1149611473083496
12.475502014160156 0.48298484086990356 3.022089719772339
15.836462020874023 0.6180367469787598 2.1137890815734863
19.313383102416992 0.7567712664604187 0.8500264286994934
12.459592819213867 0.43883419036865234 3.0218355655670166
15.835922241210938 0.5626847743988037 2.1128344535827637
19.32807731628418 0.6898189783096313 0.8468971252441406
12.446090698242188 0.3927074074745178 3.02144193649292
15.845231056213379 0.5048969984054565 2.110948085784912
12.55472183227539 0.35226818919181824 3.016390085220337
15.851762771606445 0.4497438073158264 2.1093380451202393
19.30486488342285 0.5507780909538269 0.8477051258087158
15.87055778503418 0.3948589563369751 2.106633424758911
19.34360694885254 0.4843423664569855 0.8411681652069092
15.86674690246582 0.3393716812133789 2.1058948040008545
12.560054779052734 0.2230519950389862 3.0135486125946045
15.872661590576172 0.28686168789863586 2.104339361190796
33.7852783203125 0.47863852977752686 2.190326452255249
15.878434181213379 0.23154552280902863 2.102724552154541
33.779144287109375 0.3606567680835724 2.188112258911133
15.871562957763672 0.17605571448802948 2.102205276489258
33.792579650878906 0.24286572635173798 2.185121774673462
12.559273719787598 0.04770699888467789 3.0099198818206787
12.60678482055664 0.0038863574154675007 3.0071351528167725
32.975746154785156 0.018398413434624672 0.5885757207870483
12.641639709472656 -0.042429450899362564 3.0047848224639893
32.92306137084961 -0.10225601494312286 0.5906280875205994
12.728804588317871 -0.08715658634901047 3.000420093536377
32.934730529785156 -0.21722103655338287 0.5870827436447144
12.7858304977417 -0.13217805325984955 2.9972190856933594
33.05805969238281 -0.33340656757354736 0.573615312576294
12.782748222351074 -0.1767602413892746 2.996367931365967
32.87220764160156 -0.44624561071395874 0.5874866247177124
12.68214225769043 -0.2174074351787567 2.999403476715088
32.85539627075195 -0.5549600124359131 0.586492121219635
12.678764343261719 -0.2616102993488312 2.9985599517822266
33.7219352722168 -0.6873664259910583 0.5069283246994019
33.8375358581543 -0.8197252750396729 2.160367965698242
33.72408676147461 -0.8051518797874451 0.5039794445037842
33.84435272216797 -0.9380793571472168 2.157456874847412
33.586421966552734 -0.9191381931304932 0.5134264230728149
33.83576965332031 -1.0560227632522583 2.155139207839966
33.00284957885742 -1.0183990001678467 0.5625481605529785
33.84675216674805 -1.1746124029159546 2.152026653289795
33.33732986450195 -1.1452012062072754 0.529939591884613
33.31797409057617 -1.2609566450119019 0.5287916660308838
12.938850402832031 -0.5359333753585815 2.344993829727173
12.543407440185547 -0.5677515864372253 2.996912717819214
12.949246406555176 -0.5816396474838257 2.3429195880889893
12.686015129089355 -0.6185997128486633 2.9901721477508545
33.3442497253418 -1.6175252199172974 0.5174505710601807
13.010523796081543 -0.6799962520599365 2.9760875701904297
13.138648986816406 -0.6820945143699646 2.323624849319458
13.010649681091309 -0.7232635021209717 2.975066900253296
13.128767967224121 -0.725231409072876 2.3233642578125
12.97153377532959 -0.7141103148460388 1.6925902366638184
12.818486213684082 -0.757433295249939 2.9817490577697754
12.964488983154297 -0.761522650718689 2.3368828296661377
12.931744575500488 -0.757189154624939 1.6967968940734863
12.91903305053711 -0.7515924572944641 1.0474278926849365
12.909582138061523 -0.7527113556861877 0.3861164450645447
12.823198318481445 -0.8026297092437744 2.9804916381835938
12.91443920135498 -0.8038100004196167 2.340158224105835
12.911581993103027 -0.8012294173240662 1.6982488632202148
12.918593406677246 -0.7968130707740784 1.0460000038146973
12.87995433807373 -0.7960909605026245 0.39159974455833435
11.965343475341797 -0.790729820728302 3.0141940116882324
12.879162788391113 -0.8467402458190918 2.342100143432617
12.933273315429688 -0.8478988409042358 1.6938351392745972
12.915544509887695 -0.8418802618980408 1.0450377464294434
12.908388137817383 -0.8430843949317932 0.3830212652683258
11.95748519897461 -0.8321319222450256 3.013504981994629
12.930685043334961 -0.8954687118530273 2.3362221717834473
12.10627555847168 -0.8871010541915894 3.006382465362549
12.914802551269531 -0.9419314861297607 2.336329221725464
12.182761192321777 -0.9354750514030457 3.0022284984588623
12.901412010192871 -0.9862299561500549 2.3362622261047363
12.430856704711914 -0.9982181787490845 2.9910390377044678
12.88538932800293 -1.0302480459213257 2.336421251296997
12.501928329467773 -1.0478622913360596 2.9870526790618896
12.91387939453125 -1.0779016017913818 2.3325440883636475
12.446085929870605 -1.084739327430725 2.988312005996704
12.414813995361328 -1.1256792545318604 2.988509178161621
33.65062713623047 -3.161212205886841 0.44753578305244446
12.769522666931152 -1.2478232383728027 2.971660614013672
33.63419723510742 -3.2781310081481934 0.44547486305236816
12.794867515563965 -1.295400619506836 2.9694724082946777
33.595069885253906 -3.39272141456604 0.44544151425361633
12.815065383911133 -1.342648983001709 2.9674863815307617
33.704132080078125 -3.5226173400878906 0.4318874776363373
13.187466621398926 -1.4306011199951172 2.9507830142974854
33.76996612548828 -3.6546590328216553 0.42202436923980713
15.938006401062012 -1.7147821187973022 0.4442148506641388
13.353625297546387 -1.4958242177963257 2.9426589012145996
33.88790512084961 -3.787137746810913 0.4075343608856201
15.941454887390137 -1.771464467048645 0.44114983081817627
13.358199119567871 -1.5435625314712524 2.941246509552002
33.87425231933594 -3.9053637981414795 0.40500256419181824
15.937381744384766 -1.8273522853851318 0.4394902288913727
13.253471374511719 -1.5783382654190063 2.944401741027832
33.7390251159668 -4.009138584136963 0.41355428099632263
15.874584197998047 -1.8763090372085571 0.44908496737480164
12.665489196777344 -1.5508321523666382 2.9679033756256104
33.789581298828125 -4.128815650939941 0.405272901058197
15.907055854797363 -1.9336607456207275 0.4404521882534027
12.60791015625 -1.5884554386138916 2.969144821166992
33.67345428466797 -4.233955383300781 0.4120350480079651
16.090028762817383 -2.0129480361938477 0.40265822410583496
33.98938751220703 -4.406311988830566 2.066965341567993
33.59897232055664 -4.3437652587890625 0.41495874524116516
15.907317161560059 -2.0464913845062256 0.4352572560310364
33.98111343383789 -4.525885105133057 2.0641098022460938
33.775875091552734 -4.4865617752075195 0.3947473168373108
15.868196487426758 -2.097790479660034 0.4401733875274658
33.98727798461914 -4.647487163543701 2.0606250762939453
33.84857940673828 -4.616509914398193 0.38404542207717896
15.79241943359375 -2.14388370513916 0.45214176177978516
33.98805236816406 -4.76849365234375 2.057346820831299
33.9306526184082 -4.748402118682861 0.3724222779273987
15.813789367675781 -2.203038454055786 0.4453200399875641
34.01473617553711 -4.899410724639893 2.0527844429016113
33.989166259765625 -4.883669376373291 0.36270418763160706
16.011966705322266 -2.2905361652374268 0.40410950779914856
34.00719451904297 -5.019538879394531 2.049816608428955
15.906466484069824 -2.332127332687378 0.421726793050766
34.021461486816406 -5.14303731918335 2.045898914337158
15.871286392211914 -2.3835947513580322 0.4257124066352844
34.02139663696289 -5.258467197418213 2.042738676071167
33.997894287109375 -5.242768287658691 0.3495011627674103
15.81454086303711 -2.4287269115448 0.4339977502822876
34.032325744628906 -5.38184118270874 2.0389206409454346
34.00619888305664 -5.365638732910156 0.34444454312324524
15.796030044555664 -2.4823617935180664 0.4346972107887268
34.0354118347168 -5.504159450531006 2.0354163646698
33.99440002441406 -5.485457897186279 0.3412110507488251
15.806428909301758 -2.5405771732330322 0.42974504828453064
34.038055419921875 -5.626564979553223 2.031909465789795
33.99937057495117 -5.608098030090332 0.33637866377830505
15.826303482055664 -2.600489854812622 0.42290517687797546
34.050113677978516 -5.750720977783203 2.027975559234619
34.00635528564453 -5.7312541007995605 0.3313145935535431
15.717626571655273 -2.639010429382324 0.4410494267940521
34.04695510864258 -5.872481346130371 2.024676561355591
34.0006217956543 -5.8524169921875 0.3273911476135254
15.712926864624023 -2.69466233253479 0.4389282464981079
34.06057357788086 -5.997323036193848 2.0206291675567627
15.758810997009277 -2.7592129707336426 0.4268976151943207
34.08003616333008 -6.129603385925293 2.016127586364746
15.905430793762207 -2.8450419902801514 0.39497512578964233
34.08042907714844 -6.252551555633545 2.0126070976257324
15.810640335083008 -2.885082483291626 0.4103091061115265
34.12948226928711 -6.384765148162842 2.006936550140381
34.01141357421875 -6.350594520568848 0.3078857660293579
34.05780792236328 -6.4944658279418945 2.006526231765747
33.98146438598633 -6.467838287353516 0.3060232996940613
16.091127395629883 -3.052564859390259 0.34886595606803894
34.06294631958008 -6.612575531005859 2.002912759780884
34.010921478271484 -6.590396404266357 0.29876983165740967
16.010791778564453 -3.092372417449951 0.36142832040786743
34.076290130615234 -6.738672256469727 1.998737096786499
34.038761138916016 -6.719162940979004 0.2913815677165985
16.062284469604492 -3.160543918609619 0.3479304611682892
34.045108795166016 -6.856065273284912 1.9965020418167114
34.05391311645508 -6.845749378204346 0.28513896465301514
16.091835021972656 -3.2247700691223145 0.33868172764778137
33.97191619873047 -6.964793682098389 1.9961107969284058
33.97591018676758 -6.953550815582275 0.28765445947647095
16.176448822021484 -3.300534963607788 0.31854164600372314
33.93017578125 -7.079729080200195 1.9943175315856934
33.93657302856445 -7.069018363952637 0.2864861488342285
16.142959594726562 -3.3524577617645264 0.32158732414245605
33.90025329589844 -7.197052955627441 1.9919847249984741
33.91387939453125 -7.187909126281738 0.28370532393455505
16.11650848388672 -3.405712366104126 0.32321637868881226
33.91258239746094 -7.329662322998047 1.9875683784484863
33.867591857910156 -7.307914733886719 0.2828782796859741
16.221250534057617 -3.4900434017181396 0.298726886510849
33.91351318359375 -7.453859806060791 1.9838200807571411
33.85865783691406 -7.429784774780273 0.2787128686904907
16.129596710205078 -3.529292106628418 0.31314995884895325
33.89936447143555 -7.57488489151001 1.9807240962982178
33.9075927734375 -7.564692974090576 0.2689903974533081
16.09777069091797 -3.5812785625457764 0.3157312273979187
33.91400909423828 -7.702541828155518 1.9763157367706299
33.9001579284668 -7.687369346618652 0.2645871043205261
16.08318519592285 -3.63407301902771 0.3150549530982971
33.855464935302734 -7.801162242889404 1.9755529165267944
33.99691390991211 -7.8217058181762695 0.2506989538669586
16.128231048583984 -3.7005412578582764 0.3025168478488922
33.87898635864258 -7.931217193603516 1.970701813697815
33.98370361328125 -7.9436869621276855 0.24674931168556213
16.09107208251953 -3.751213312149048 0.3060505986213684
33.87770080566406 -8.055750846862793 1.9669431447982788
34.04270935058594 -8.082926750183105 0.23583248257637024
16.063308715820312 -3.8039350509643555 0.3076896071434021
33.87354278564453 -8.179786682128906 1.9632927179336548
34.038246154785156 -8.207503318786621 0.2309456169605255
33.95867919921875 -8.325901985168457 1.9555604457855225
34.0695915222168 -8.341028213500977 0.2225688099861145
34.050472259521484 -8.47452163696289 1.9474798440933228
34.06418228149414 -8.465864181518555 0.21767489612102509
34.07868576049805 -8.607977867126465 1.9422599077224731
34.08727264404297 -8.598072052001953 0.20998497307300568
34.100006103515625 -8.746442794799805 1.9371267557144165
34.1010856628418 -8.73464298248291 0.20285826921463013
34.107826232910156 -8.87545108795166 1.9327808618545532
34.12314987182617 -8.867358207702637 0.1951565146446228
34.11032485961914 -9.00334644317627 1.9286528825759888
34.13987731933594 -8.999064445495605 0.18791399896144867
34.12440490722656 -9.13459587097168 1.9239659309387207
34.1536979675293 -9.130353927612305 0.1809004694223404
34.118717193603516 -9.260820388793945 1.9201656579971313
34.133384704589844 -9.252730369567871 0.17715561389923096
34.12699890136719 -9.391092300415039 1.9156934022903442
34.10063552856445 -9.371779441833496 0.17458193004131317
34.12516403198242 -9.518851280212402 1.9116640090942383
34.093833923339844 -9.49806022644043 0.1694328486919403
34.132469177246094 -9.649430274963379 1.9071835279464722
34.043460845947266 -9.612234115600586 0.168501615524292
34.12487030029297 -9.77604866027832 1.9033725261688232
34.07645034790039 -9.750141143798828 0.15936362743377686
34.1287956237793 -9.906211853027344 1.8989973068237305
34.05630874633789 -9.873147010803223 0.15538290143013
34.14004898071289 -10.045299530029297 1.8940385580062866
34.07695007324219 -10.014705657958984 0.14704392850399017
34.135772705078125 -10.173649787902832 1.8899931907653809
34.02483367919922 -10.128580093383789 0.14611677825450897
34.123844146728516 -10.2999267578125 1.8862851858139038
33.958045959472656 -10.23790168762207 0.14660602807998657
19.76466941833496 -5.954532146453857 0.5219593644142151
34.14910125732422 -10.431238174438477 1.881006121635437
19.616798400878906 -5.981032371520996 0.5398321151733398
34.157691955566406 -10.56436538696289 1.8762716054916382
19.46082305908203 -6.007826805114746 0.5587226152420044
34.18246078491211 -10.702905654907227 1.870737075805664
19.302541732788086 -6.032867908477783 0.5779924988746643
34.19000244140625 -10.836463928222656 1.8659924268722534
34.0546989440918 -10.78159236907959 0.11240942776203156
19.179712295532227 -6.0680766105651855 0.5919173955917358
34.21129608154297 -10.974782943725586 1.8605589866638184
34.11141586303711 -10.930742263793945 0.10038574784994125
19.038022994995117 -6.09646463394165 0.6087232828140259
34.194034576416016 -11.101040840148926 1.8569447994232178
18.959924697875977 -6.144542217254639 0.6158785820007324
34.190547943115234 -11.231990814208984 1.852643370628357
18.884069442749023 -6.19291877746582 0.6226853132247925
34.17707443237305 -11.35990047454834 1.8487976789474487
18.845687866210938 -6.253314018249512 0.6237659454345703
34.18207550048828 -11.494224548339844 1.844033122062683
18.828218460083008 -6.320606231689453 0.6216220855712891
34.17471694946289 -11.624696731567383 1.839837908744812
18.838621139526367 -6.397402763366699 0.6151725649833679
34.18134307861328 -11.766912460327148 1.8347060680389404
18.82651710510254 -6.470398426055908 0.6118797659873962
34.182395935058594 -11.90090274810791 1.8300436735153198
16.39434814453125 -5.692183017730713 0.10580677539110184
34.19941329956055 -12.040850639343262 1.824570894241333
34.178218841552734 -12.167659759521484 1.820939302444458
16.358325958251953 -5.808080196380615 0.10236333310604095
34.144622802734375 -12.283434867858887 1.818131446838379
16.64154624938965 -5.977189064025879 0.9296543598175049
34.14365768432617 -12.417878150939941 1.8134570121765137
18.91547203063965 -6.868894577026367 0.5731639266014099
34.16326904296875 -12.560220718383789 1.8077346086502075
16.243925094604492 -5.9566969871521 0.10977119207382202
34.243160247802734 -12.72547435760498 1.7989833354949951
18.843427658081055 -6.992114067077637 0.5738990306854248
16.195175170898438 -6.0030975341796875 0.11431293934583664
34.31996536254883 -12.890559196472168 1.7903319597244263
18.86037826538086 -7.073458671569824 0.565981924533844
16.176166534423828 -6.0604248046875 0.11260310560464859
34.30499267578125 -13.021766662597656 1.7862128019332886
18.833040237426758 -7.138345241546631 0.564911425113678
16.1317195892334 -6.108134746551514 0.11619015038013458
34.319820404052734 -13.164654731750488 1.7805733680725098
18.851680755615234 -7.220829010009766 0.556627094745636
16.146703720092773 -6.178409576416016 0.10725987702608109
34.33640670776367 -13.315604209899902 1.7745627164840698
18.861766815185547 -7.304141044616699 0.5493490695953369
34.331443786621094 -13.45174503326416 1.7698471546173096
18.845149993896484 -7.373513698577881 0.5464721918106079
34.35148620605469 -13.598122596740723 1.7638381719589233
18.846683502197266 -7.450136661529541 0.540705144405365
34.34318923950195 -13.726760864257812 1.7594796419143677
18.856122970581055 -7.526324272155762 0.5339226126670837
34.35282516479492 -13.869897842407227 1.7539284229278564
18.843280792236328 -7.597620964050293 0.5303197503089905
34.36420440673828 -14.014214515686035 1.7482534646987915
18.864532470703125 -7.682919025421143 0.5212888717651367
34.363433837890625 -14.154019355773926 1.7431632280349731
18.84881591796875 -7.75339937210083 0.5180447101593018
34.36671829223633 -14.295910835266113 1.7378324270248413
18.871667861938477 -7.840000152587891 0.508643627166748
34.38325119018555 -14.443802833557129 1.7317864894866943
18.857648849487305 -7.9115400314331055 0.5050340294837952
34.3830680847168 -14.58515453338623 1.726562738418579
18.877521514892578 -7.997556209564209 0.4959864020347595
34.391502380371094 -14.730615615844727 1.7208606004714966
18.87883186340332 -8.076022148132324 0.48983481526374817
34.38298416137695 -14.876361846923828 1.715734839439392
18.892009735107422 -8.163778305053711 0.4814312756061554
34.3787727355957 -15.017251014709473 1.7106163501739502
18.881311416625977 -8.237560272216797 0.47708824276924133
18.90201187133789 -8.325325012207031 0.46765968203544617
34.49909210205078 -15.350335121154785 1.6938140392303467
18.957714080810547 -8.425108909606934 0.4528462290763855
34.422393798828125 -15.460397720336914 1.6923813819885254
16.531389236450195 -7.4158220291137695 0.8375118970870972
34.418121337890625 -15.603108406066895 1.6871241331100464
16.446622848510742 -7.446924686431885 0.8457090854644775
34.42916488647461 -15.753253936767578 1.6810224056243896
16.440574645996094 -7.513516902923584 0.8411803245544434
34.42597961425781 -15.897383689880371 1.675635576248169
16.429773330688477 -7.578087329864502 0.8373780846595764
34.42845153808594 -16.051910400390625 1.6696317195892334
16.352352142333984 -7.615250587463379 0.8440765738487244
34.430824279785156 -16.199596405029297 1.6638740301132202
16.314281463623047 -7.666997909545898 0.8446510434150696
34.44386291503906 -16.35284996032715 1.657508134841919
16.30733299255371 -7.733412742614746 0.8401250243186951
34.45463943481445 -16.498226165771484 1.6515072584152222
16.281410217285156 -7.787422180175781 0.8389426469802856
34.459659576416016 -16.64877700805664 1.6454908847808838
34.477516174316406 -16.806129455566406 1.638741374015808
34.465572357177734 -16.94948387145996 1.6335606575012207
34.470176696777344 -17.108964920043945 1.627152442932129
34.468162536621094 -17.258216857910156 1.6213552951812744
16.591812133789062 -8.298802375793457 0.7580971121788025
34.45965576171875 -17.397146224975586 1.6161726713180542
16.54854965209961 -8.345954895019531 0.7594528794288635
34.398582458496094 -17.517292022705078 1.613538384437561
16.527931213378906 -8.40812873840332 0.7567241191864014
34.35708236694336 -17.64748764038086 1.6098078489303589
16.45427131652832 -8.443161010742188 0.7627824544906616
34.33726501464844 -17.789100646972656 1.604856014251709
16.485992431640625 -8.532353401184082 0.7512677907943726
34.31244659423828 -17.92847442626953 1.6001466512680054
16.495365142822266 -8.61042308807373 0.743410050868988
34.30253982543945 -18.07604217529297 1.5945762395858765
