# .PCD v0.7 - Point Cloud Data file format
VERSION 0.7
FIELDS x y z
SIZE 4 4 4
TYPE F F F
COUNT 1 1 1
WIDTH 857
HEIGHT 1
VIEWPOINT 0 0 0 1 0 0 0
POINTS 857
DATA ascii
34.851375579833984 -30.061817169189453 1.8091223239898682
34.879825592041016 -30.461688995361328 1.7930715084075928
34.896427154541016 -30.855754852294922 1.7774237394332886
34.859615325927734 -31.206514358520508 1.76441490650177
34.89458465576172 -31.625749588012695 1.7473472356796265
34.96399688720703 -32.08171081542969 1.7281546592712402
34.95004653930664 -32.46625900268555 1.7132561206817627
34.94432830810547 -32.86279296875 1.6976860761642456
32.10590362548828 30.236814498901367 2.870537757873535
32.35072326660156 30.095142364501953 2.865154504776001
32.51108169555664 29.874479293823242 2.8617212772369385
32.79802703857422 29.76923370361328 2.855232000350952
32.383609771728516 29.032873153686523 2.865316390991211
32.43525314331055 28.722320556640625 2.864292860031128
32.71234893798828 28.61167335510254 2.8578720092773438
36.99216842651367 28.54997444152832 2.7548534870147705
37.304874420166016 28.427955627441406 2.746958017349243
32.74470901489258 24.637033462524414 2.8548085689544678
32.439247131347656 24.097064971923828 2.8615658283233643
32.234840393066406 23.639835357666016 2.865882396697998
32.20584487915039 23.316181182861328 2.8659846782684326
32.331092834472656 23.105972290039062 2.862367630004883
32.30628204345703 22.790218353271484 2.8622820377349854
32.38467025756836 22.549335479736328 2.8596909046173096
32.35090255737305 22.232473373413086 2.859734058380127
32.346744537353516 21.938762664794922 2.8590288162231445
32.35100555419922 21.653175354003906 2.8580806255340576
32.398868560791016 21.398664474487305 2.8560452461242676
32.3057861328125 21.05377197265625 2.857351064682007
32.41994094848633 20.84600830078125 2.853640079498291
32.488861083984375 20.609792709350586 2.8509719371795654
32.54084777832031 20.36396598815918 2.8486669063568115
32.591896057128906 20.118803024291992 2.846342086791992
32.40461349487305 19.72976303100586 2.849736452102661
32.246368408203125 19.363344192504883 2.852402687072754
32.253475189208984 19.099456787109375 2.851033926010132
32.390655517578125 18.91334342956543 2.846467971801758
32.4011344909668 18.6539363861084 2.8449363708496094
32.46268844604492 18.42521858215332 2.8421218395233154
32.4179573059082 18.13787078857422 2.841860055923462
32.520633697509766 17.934322357177734 2.8379616737365723
32.7669792175293 17.80896759033203 2.830498695373535
32.97509765625 17.660966873168945 2.823915719985962
33.101287841796875 17.468154907226562 2.819291591644287
44.49095916748047 23.130756378173828 2.537196636199951
44.342674255371094 22.709293365478516 2.538705348968506
44.1400260925293 22.264863967895508 2.541524887084961
44.064334869384766 21.888710021972656 2.5411720275878906
43.910255432128906 21.477432250976562 2.5427258014678955
43.7978401184082 21.090559005737305 2.5432114601135254
43.6037483215332 20.668622970581055 2.5457005500793457
43.50217056274414 20.29467010498047 2.545851945877075
43.38676071166992 19.91773796081543 2.546316385269165
43.20003128051758 19.51212501525879 2.5485384464263916
43.08945846557617 19.14487075805664 2.548821210861206
42.97509765625 18.779312133789062 2.549166440963745
42.827579498291016 18.40285301208496 2.550320863723755
42.7102165222168 18.04292106628418 2.5506842136383057
42.632530212402344 17.7027587890625 2.550010919570923
33.2386474609375 13.563745498657227 2.7865538597106934
33.254310607910156 13.332809448242188 2.7840263843536377
33.110267639160156 13.0399169921875 2.785550832748413
33.12892532348633 12.813125610351562 2.782885789871216
33.5357780456543 12.734580039978027 2.770197629928589
41.84351348876953 15.596196174621582 2.5536036491394043
41.76175308227539 15.274663925170898 2.552828311920166
41.60141372680664 14.927377700805664 2.5540611743927
41.511009216308594 14.608187675476074 2.5534563064575195
41.382347106933594 14.278279304504395 2.5538201332092285
41.262577056884766 13.954345703125 2.5539281368255615
41.174556732177734 13.64373779296875 2.553180456161499
41.054813385009766 13.325172424316406 2.5532400608062744
40.924137115478516 13.005865097045898 2.5535635948181152
40.852195739746094 12.707666397094727 2.5523135662078857
40.76666259765625 12.407347679138184 2.551393747329712
40.60808563232422 12.087454795837402 2.5523910522460938
40.60647201538086 11.816339492797852 2.5491831302642822
33.84333801269531 9.623616218566895 2.7269580364227295
33.86021041870117 9.404327392578125 2.7237277030944824
33.869873046875 9.183624267578125 2.7206554412841797
33.89356231689453 8.967247009277344 2.717168092727661
33.894588470458984 8.745430946350098 2.714257001876831
33.919368743896484 8.530278205871582 2.7106664180755615
33.902976989746094 8.305397033691406 2.708160161972046
33.916221618652344 8.088459968566895 2.7048115730285645
33.897891998291016 7.864667892456055 2.7022926807403564
33.9190559387207 7.6506428718566895 2.698655605316162
33.93691635131836 7.436225414276123 2.695071220397949
33.93191146850586 7.217301845550537 2.692082643508911
33.94312286376953 7.002354145050049 2.6886091232299805
33.946109771728516 6.786168098449707 2.685328722000122
33.966373443603516 6.573817253112793 2.6815295219421387
33.97941589355469 6.3603692054748535 2.67789363861084
33.9891471862793 6.146652698516846 2.6743130683898926
33.980796813964844 5.930133819580078 2.6712071895599365
33.98487091064453 5.716269493103027 2.667715311050415
34.0053596496582 5.505453586578369 2.6637182235717773
33.99589920043945 5.290143013000488 2.660539150238037
34.01177215576172 5.0791425704956055 2.656597852706909
34.019412994384766 4.867153644561768 2.6528549194335938
34.03364944458008 4.656346321105957 2.648883104324341
34.049556732177734 4.445934295654297 2.6448237895965576
34.04928207397461 4.233652114868164 2.64119553565979
34.057613372802734 4.022712707519531 2.6372785568237305
33.58880615234375 3.75858998298645 2.647324800491333
33.528602600097656 3.543757438659668 2.6454017162323
33.583404541015625 3.3413820266723633 2.640054225921631
33.66087341308594 3.140695333480835 2.6339848041534424
33.68136978149414 2.9343254566192627 2.6295580863952637
33.675697326660156 2.7258057594299316 2.6258716583251953
33.67072296142578 2.5176143646240234 2.622126817703247
12.556633949279785 0.8617161512374878 3.2545769214630127
33.70381546020508 2.1046555042266846 2.613224744796753
33.710975646972656 1.897587537765503 2.6089956760406494
33.71685791015625 1.6905102729797363 2.604764223098755
33.721473693847656 1.483431339263916 2.6005303859710693
33.73280334472656 1.2766610383987427 2.596050262451172
19.279016494750977 0.6114076972007751 3.037991523742676
33.746665954589844 0.8627486824989319 2.587233781814575
33.75518798828125 0.6557998061180115 2.5827136039733887
33.76743698120117 0.44884440302848816 2.578032970428467
12.877240180969238 0.09241461008787155 3.229055881500244
12.54068374633789 0.013080053962767124 3.2379872798919678
33.78757095336914 -0.17270275950431824 2.5642521381378174
33.789737701416016 -0.380005419254303 2.559715986251831
33.79263687133789 -0.5873767733573914 2.555112838745117
12.241275787353516 -0.28764453530311584 3.2409143447875977
33.82756805419922 -1.0032416582107544 2.544839382171631
12.404537200927734 -0.4438110291957855 3.2322943210601807
13.013673782348633 -0.5455768704414368 3.2108116149902344
33.73308563232422 -1.6221948862075806 2.533851385116577
12.792328834533691 -0.6936041116714478 3.2143967151641846
12.804743766784668 -0.7730867266654968 3.212165117263794
12.600260734558105 -0.8383431434631348 3.2170732021331787
12.878925323486328 -0.9362824559211731 3.206002712249756
33.88596725463867 -2.673194169998169 2.504483938217163
13.191012382507324 -1.1218329668045044 3.191767692565918
13.375925064086914 -1.2202587127685547 3.1835834980010986
12.18441104888916 -1.186936378479004 3.221782922744751
33.91100311279297 -3.5142714977264404 2.4832847118377686
12.768879890441895 -1.4022420644760132 3.1981492042541504
12.761970520019531 -1.4807733297348022 3.1964046955108643
33.94332504272461 -4.15031099319458 2.4663891792297363
13.41679573059082 -1.723854899406433 3.1697781085968018
12.739336013793945 -1.7162986993789673 3.1911370754241943
33.966644287109375 -4.789151191711426 2.449324607849121
13.333197593688965 -1.9631739854812622 3.1662206649780273
13.419629096984863 -2.060093402862549 3.1609914302825928
34.00355911254883 -5.434360027313232 2.431288719177246
12.429045677185059 -2.064394950866699 3.191697120666504
12.359957695007324 -2.1309187412261963 3.1920626163482666
12.478426933288574 -2.2302629947662354 3.1857082843780518
29.359683990478516 -5.434082508087158 2.57547926902771
34.0488395690918 -6.518345832824707 2.400653123855591
33.98942947387695 -6.723401069641113 2.3968379497528076
13.07674789428711 -2.6699063777923584 3.155123472213745
33.61167907714844 -7.078303337097168 2.398608446121216
33.85654830932617 -7.347085952758789 2.383500576019287
33.837013244628906 -7.560514450073242 2.3780508041381836
33.89307403564453 -7.7916693687438965 2.3697304725646973
33.90672302246094 -8.014142036437988 2.362917900085449
33.94416046142578 -8.243206024169922 2.35514235496521
33.945152282714844 -8.464327812194824 2.348670244216919
33.99988555908203 -8.6998929977417 2.340090036392212
34.054935455322266 -8.936955451965332 2.3314132690429688
34.071685791015625 -9.165156364440918 2.3241214752197266
34.09943389892578 -9.397350311279297 2.316333055496216
34.0938720703125 -9.621273040771484 2.3097598552703857
34.083003997802734 -9.84437370300293 2.3033275604248047
34.08600997924805 -10.072233200073242 2.296288251876831
34.07602310180664 -10.29703140258789 2.2896904945373535
34.06550979614258 -10.522381782531738 2.2830467224121094
34.0706672668457 -10.753405570983887 2.2757129669189453
34.14464569091797 -11.007577896118164 2.2655482292175293
34.145591735839844 -11.239628791809082 2.2582199573516846
34.129817962646484 -11.467011451721191 2.2514939308166504
34.136165618896484 -11.702727317810059 2.2437994480133057
34.133358001708984 -11.93631362915039 2.2363998889923096
34.111080169677734 -12.163928985595703 2.2297260761260986
34.09950256347656 -12.396158218383789 2.2225418090820312
34.202537536621094 -12.671751976013184 2.2105164527893066
34.352081298828125 -12.967425346374512 2.196417808532715
34.32113265991211 -13.196908950805664 2.189758539199829
34.3370475769043 -13.44544792175293 2.181049108505249
34.33076858520508 -13.686538696289062 2.1731903553009033
34.34689712524414 -13.937825202941895 2.1642916202545166
34.37139129638672 -14.19402027130127 2.154938220977783
34.372840881347656 -14.442136764526367 2.146481513977051
34.36701965332031 -14.68844985961914 2.138249635696411
34.38237380981445 -14.9451904296875 2.12900447845459
34.39952087402344 -15.204290390014648 2.1195788383483887
34.43574142456055 -15.473580360412598 2.109208106994629
34.432682037353516 -15.726866722106934 2.1004717350006104
34.44593048095703 -15.98910903930664 2.090909242630005
34.44188690185547 -16.24485969543457 2.082019805908203
34.40176010131836 -16.48475456237793 2.074667453765869
34.368064880371094 -16.72870445251465 2.0669424533843994
34.3828239440918 -16.997657775878906 2.0569119453430176
34.342891693115234 -17.240970611572266 2.049290657043457
34.234500885009766 -17.450403213500977 2.0447604656219482
34.119503021240234 -17.65639877319336 2.0404932498931885
34.25005340576172 -17.99127769470215 2.0246493816375732
34.1458854675293 -18.204792022705078 2.0197112560272217
34.221412658691406 -18.515655517578125 2.0061774253845215
34.22696304321289 -18.791099548339844 1.9958314895629883
34.28365707397461 -19.096965789794922 1.9829046726226807
34.34309387207031 -19.407182693481445 1.9696927070617676
34.38093948364258 -19.70791244506836 1.957375168800354
34.26954650878906 -19.92446517944336 1.9522312879562378
34.420997619628906 -20.296184539794922 1.934057354927063
34.35565185546875 -20.54283905029297 1.9264297485351562
34.155296325683594 -20.70864486694336 1.9254640340805054
34.48019027709961 -21.196123123168945 1.8980664014816284
34.421363830566406 -21.4521484375 1.8897557258605957
34.330284118652344 -21.68903160095215 1.8829916715621948
34.54046630859375 -22.119577407836914 1.8606908321380615
34.41060256958008 -22.335384368896484 1.8556694984436035
34.51809310913086 -22.70747184753418 1.8382506370544434
34.45937728881836 -22.97309112548828 1.8293100595474243
34.62138748168945 -23.3892879486084 1.808628797531128
34.71196746826172 -23.762056350708008 1.7914694547653198
34.75083541870117 -24.10321617126465 1.776849389076233
30.044355392456055 -21.11298942565918 2.017251968383789
34.81418991088867 -24.785560607910156 1.74782133102417
34.80547332763672 -25.10266876220703 1.735224962234497
34.819976806640625 -25.4394588470459 1.721192479133606
34.83325958251953 -25.778560638427734 1.7070428133010864
34.86686706542969 -26.136152267456055 1.6915738582611084
34.8631706237793 -26.469148635864258 1.677991271018982
34.87886047363281 -26.820127487182617 1.663132905960083
34.87579345703125 -27.160018920898438 1.6491421461105347
34.90279769897461 -27.526859283447266 1.6332391500473022
34.88679122924805 -27.863252639770508 1.6196002960205078
34.735923767089844 -28.093687057495117 1.6136170625686646
34.704105377197266 -28.422060012817383 1.6005882024765015
34.88255310058594 -28.927743911743164 1.574974536895752
34.867889404296875 -29.278644561767578 1.560471773147583
34.904258728027344 -29.6763916015625 1.5427089929580688
34.8946533203125 -30.039182662963867 1.5274680852890015
34.925575256347656 -30.441038131713867 1.5095455646514893
34.88845443725586 -30.787555694580078 1.49553382396698
34.93927001953125 -31.215957641601562 1.4758912324905396
34.958717346191406 -31.621339797973633 1.4579120874404907
34.98849105834961 -32.040950775146484 1.4390203952789307
34.96680450439453 -32.41796112060547 1.4230995178222656
34.99569320678711 -32.846500396728516 1.4037213325500488
32.34473419189453 30.091541290283203 2.579958915710449
32.47043991088867 29.83912467956543 2.577857494354248
32.52098083496094 29.5197811126709 2.578122854232788
32.47356033325195 29.11551856994629 2.581481456756592
32.42839431762695 28.718259811401367 2.584676742553711
32.563194274902344 28.483251571655273 2.5819764137268066
32.58890914916992 28.154869079589844 2.582724094390869
32.595855712890625 27.81361961364746 2.583998441696167
32.61590576171875 27.486873626708984 2.584772825241089
32.63163757324219 27.159656524658203 2.58561110496521
32.64536666870117 26.833919525146484 2.586437940597534
32.65089416503906 26.504629135131836 2.587454080581665
32.65986251831055 26.18128776550293 2.5882866382598877
32.67707443237305 25.867521286010742 2.588784694671631
32.67354965209961 25.540374755859375 2.5898735523223877
32.71315002441406 25.249675750732422 2.5895164012908936
32.71940994262695 24.93582534790039 2.5901544094085693
32.68950653076172 24.59760284423828 2.591876983642578
32.255462646484375 23.96261215209961 2.6063947677612305
32.18649673461914 23.606443405151367 2.6092159748077393
32.22936248779297 23.335275650024414 2.6084144115448
32.31403350830078 23.095863342285156 2.606222152709961
32.276092529296875 22.770999908447266 2.6078648567199707
32.33382797241211 22.51602554321289 2.606405735015869
32.411075592041016 22.275924682617188 2.6042680740356445
32.42372131347656 21.99307632446289 2.604120969772339
32.39175796508789 21.682552337646484 2.605330467224121
32.31633758544922 21.34625244140625 2.607858419418335
32.2916145324707 21.0466365814209 2.6087191104888916
32.436805725097656 20.858970642089844 2.6041338443756104
32.53616714477539 20.641929626464844 2.6009440422058105
32.59341812133789 20.398998260498047 2.599034070968628
32.36821746826172 19.982852935791016 2.606029987335205
32.356021881103516 19.702295303344727 2.6062138080596924
32.398162841796875 19.45661163330078 2.6046183109283447
32.4127082824707 19.195871353149414 2.603844165802002
32.34758758544922 18.890316009521484 2.6055471897125244
32.48005676269531 18.701509475708008 2.6009209156036377
32.517539978027344 18.4584903717041 2.599256992340088
32.657073974609375 18.273807525634766 2.594295024871826
32.70278549194336 18.036928176879883 2.5922629833221436
32.827613830566406 17.844097137451172 2.587658405303955
32.980384826660156 17.66598892211914 2.5821075439453125
33.04026794433594 17.438152313232422 2.579461097717285
33.053367614746094 17.18672752380371 2.5782558917999268
33.06551742553711 16.93625259399414 2.57702898979187
33.06424331665039 16.6804256439209 2.5761818885803223
33.0870361328125 16.438148498535156 2.5745158195495605
33.09284210205078 16.188753128051758 2.57334303855896
33.10493850708008 15.94381046295166 2.571920394897461
33.114376068115234 15.698902130126953 2.5705344676971436
33.126590728759766 15.456589698791504 2.569010019302368
33.13616943359375 15.214303970336914 2.5675230026245117
33.14493942260742 14.972893714904785 2.566013813018799
33.151084899902344 14.731541633605957 2.564541816711426
33.174747467041016 14.499086380004883 2.5624570846557617
33.18854904174805 14.263341903686523 2.560642957687378
33.18782043457031 14.022529602050781 2.5592520236968994
33.1973876953125 13.787245750427246 2.557481527328491
33.2164192199707 13.556905746459961 2.555356740951538
33.23295593261719 13.326478958129883 2.553267002105713
33.1112060546875 13.042510032653809 2.5556299686431885
33.12893295288086 12.815350532531738 2.5534143447875977
33.55158233642578 12.74284553527832 2.537935495376587
33.68798828125 12.55879020690918 2.5317254066467285
33.72483444213867 12.337481498718262 2.528717041015625
33.73765182495117 12.108088493347168 2.5264477729797363
33.75364685058594 11.88066291809082 2.5240280628204346
33.76811599731445 11.653495788574219 2.5216121673583984
33.76687240600586 11.421794891357422 2.519667625427246
33.77923583984375 11.195579528808594 2.5172297954559326
33.81101608276367 10.976430892944336 2.514103412628174
33.80232238769531 10.74489974975586 2.51227068901062
33.809242248535156 10.519231796264648 2.5098772048950195
33.829010009765625 10.298251152038574 2.5070104598999023
33.80040740966797 10.063446998596191 2.5057106018066406
33.83161163330078 9.847257614135742 2.502371311187744
33.84798049926758 9.627238273620605 2.499481678009033
33.859073638916016 9.406316757202148 2.49672269821167
33.858116149902344 9.182741165161133 2.49432373046875
33.8663215637207 8.962347984313965 2.4915716648101807
33.88180923461914 8.744443893432617 2.4885289669036865
33.89590072631836 8.526686668395996 2.4854884147644043
33.89500427246094 8.305756568908691 2.482909679412842
33.908233642578125 8.088868141174316 2.4798073768615723
33.92104721069336 7.872354507446289 2.476672887802124
33.9168815612793 7.652468681335449 2.4740724563598633
33.930824279785156 7.437209129333496 2.4708092212677
33.937538146972656 7.220818519592285 2.4677486419677734
33.94777297973633 7.00563383102417 2.464521646499634
33.962520599365234 6.791771411895752 2.461092710494995
33.9818115234375 6.579131126403809 2.4574601650238037
33.96735382080078 6.360438346862793 2.454951047897339
33.9927978515625 6.149642467498779 2.451012134552002
33.994293212890625 5.93481969833374 2.447859764099121
34.0042839050293 5.721867561340332 2.4443657398223877
34.01886749267578 5.509974479675293 2.440664768218994
34.02619934082031 5.297194480895996 2.4371705055236816
34.024295806884766 5.083349704742432 2.433955669403076
34.039852142333984 4.872417449951172 2.4300804138183594
34.04716491699219 4.660536766052246 2.426448106765747
34.062076568603516 4.44991397857666 2.422499179840088
34.06874465942383 4.2384185791015625 2.4187965393066406
34.07906723022461 4.027594566345215 2.4149160385131836
33.579586029052734 3.7598609924316406 2.4292643070220947
33.52534103393555 3.5457119941711426 2.427663803100586
33.58807373046875 3.3441529273986816 2.4218101501464844
33.6466064453125 3.1416780948638916 2.4160499572753906
33.66609191894531 2.9353103637695312 2.4116475582122803
33.67832946777344 2.728337287902832 2.407459259033203
33.68431091308594 2.5209507942199707 2.403449535369873
33.69799041748047 2.314208507537842 2.399111032485962
33.69344711303711 2.106332540512085 2.3953909873962402
12.603382110595703 0.7100523114204407 3.1686694622039795
33.71044921875 1.6925177574157715 2.3868496417999268
33.70906066894531 1.485215663909912 2.3828723430633545
33.7183723449707 1.2784477472305298 2.3784477710723877
19.317733764648438 0.6136212348937988 2.911940574645996
33.742191314697266 0.8649724125862122 2.369255304336548
33.75170135498047 0.6580726504325867 2.364671468734741
33.75194549560547 0.45098093152046204 2.360386848449707
12.884395599365234 0.09285284578800201 3.1456239223480225
12.88266658782959 0.013813430443406105 3.144019603729248
33.77802276611328 -0.1703038215637207 2.346266984939575
12.705886840820312 -0.14227059483528137 3.147380828857422
33.79204559326172 -0.5850117206573486 2.3367202281951904
33.80364227294922 -0.7926617860794067 2.3316924571990967
12.4402494430542 -0.36834490299224854 3.152475595474243
33.820003509521484 -1.2083426713943481 2.321735382080078
12.556480407714844 -0.5260342955589294 3.1444833278656006
11.669648170471191 -0.5606434941291809 3.1773409843444824
13.368135452270508 -0.7244032025337219 3.109086513519287
12.83275032043457 -0.7743892073631287 3.1282150745391846
12.813738822937012 -0.8521653413772583 3.1270859241485596
33.87819290161133 -2.4611756801605225 2.2901837825775146
33.877227783203125 -2.670121192932129 2.285151243209839
13.162093162536621 -1.11894953250885 3.107417583465576
12.253376960754395 -1.117479920387268 3.141838550567627
12.216395378112793 -1.1897187232971191 3.141432046890259
12.139237403869629 -1.2574299573898315 3.1426403522491455
12.751008987426758 -1.399892807006836 3.1159069538116455
33.94754409790039 -3.937204122543335 2.2506818771362305
33.9324951171875 -4.146581172943115 2.2458174228668213
13.477076530456543 -1.731144666671753 3.0799286365509033
13.419594764709473 -1.8075156211853027 3.080075263977051
33.953800201416016 -4.7849249839782715 2.228147268295288
11.812685012817383 -1.7389483451843262 3.142341375350952
34.00180435180664 -5.217933177947998 2.214644432067871
34.013370513916016 -5.433499336242676 2.208308696746826
34.01470184326172 -5.647931098937988 2.2023370265960693
34.00778579711914 -5.8613972663879395 2.1966495513916016
13.514063835144043 -2.4149301052093506 3.0598998069763184
13.523486137390137 -2.502326250076294 3.057072401046753
34.03099822998047 -6.512485980987549 2.177337884902954
33.942195892333984 -6.711617946624756 2.1749117374420166
33.879642486572266 -6.915502071380615 2.1713192462921143
33.832481384277344 -7.122370719909668 2.167015314102173
33.841670989990234 -7.341418743133545 2.1602096557617188
33.8104362487793 -7.5521368980407715 2.155099630355835
33.860652923583984 -7.781769275665283 2.1463558673858643
33.89570999145508 -8.009084701538086 2.138190507888794
33.99040985107422 -8.251973152160645 2.127298355102539
34.02135467529297 -8.48085880279541 2.119133710861206
34.03624725341797 -8.706722259521484 2.1116013526916504
34.07381057739258 -8.939424514770508 2.1029717922210693
34.09242248535156 -9.168246269226074 2.095107316970825
34.094093322753906 -9.393386840820312 2.0879263877868652
34.079864501953125 -9.614826202392578 2.081392526626587
34.068992614746094 -9.837828636169434 2.074634313583374
34.0901985168457 -10.070967674255371 2.06632661819458
34.096435546875 -10.300692558288574 2.0586230754852295
34.083946228027344 -10.525568008422852 2.0517046451568604
34.134765625 -10.771119117736816 2.0417587757110596
34.13726043701172 -11.002674102783203 2.0339715480804443
34.156219482421875 -11.240598678588867 2.025324821472168
34.146080017089844 -11.469944953918457 2.0179600715637207
34.13062286376953 -11.698294639587402 2.0107674598693848
34.14288330078125 -11.937106132507324 2.0021719932556152
34.12526321411133 -12.1664457321167 1.99491548538208
34.102352142333984 -12.3946533203125 1.987834095954895
34.28026580810547 -12.697986602783203 1.9709354639053345
34.31180191040039 -12.949647903442383 1.960991382598877
34.32940673828125 -13.197513580322266 1.9516208171844482
34.328514099121094 -13.439526557922363 1.9430574178695679
34.348209381103516 -13.690903663635254 1.9333783388137817
34.35778045654297 -13.939645767211914 1.9240959882736206
34.36281204223633 -14.187878608703613 1.9149366617202759
34.37160873413086 -14.439017295837402 1.9054852724075317
34.366676330566406 -14.68569564819336 1.896620750427246
34.38290786743164 -14.94281005859375 1.8865796327590942
29.564842224121094 -13.065207481384277 2.1233060359954834
34.428890228271484 -15.467874526977539 1.8654615879058838
34.41854476928711 -15.717777252197266 1.8564430475234985
34.438133239746094 -15.982852935791016 1.8457661867141724
34.44130325317383 -16.241941452026367 1.8358241319656372
34.43447494506836 -16.497783660888672 1.8262908458709717
34.46262741088867 -16.772077560424805 1.8148009777069092
34.42512130737305 -17.015911102294922 1.8066612482070923
34.36805725097656 -17.250953674316406 1.79946768283844
34.25601577758789 -17.458721160888672 1.7951388359069824
34.16400146484375 -17.67678451538086 1.7896753549575806
34.33324432373047 -18.032312393188477 1.769966959953308
34.414772033691406 -18.345474243164062 1.7548140287399292
34.29695129394531 -18.55385398864746 1.750425934791565
34.33372497558594 -18.84703254699707 1.737446665763855
34.32716751098633 -19.118518829345703 1.7267168760299683
34.4533576965332 -19.466787338256836 1.7084416151046753
34.404972076416016 -19.718982696533203 1.6997560262680054
34.47394561767578 -20.040586471557617 1.684329628944397
34.517024993896484 -20.350082397460938 1.6701866388320923
34.49073028564453 -20.620880126953125 1.6598387956619263
34.51536178588867 -20.924222946166992 1.6464312076568604
34.45076370239258 -21.175296783447266 1.6380233764648438
34.461524963378906 -21.474430084228516 1.625118374824524
34.496925354003906 -21.791561126708984 1.6106070280075073
34.521305084228516 -22.10454559326172 1.5965622663497925
34.41160583496094 -22.333282470703125 1.5902976989746094
34.518184661865234 -22.704755783081055 1.5710328817367554
34.50513458251953 -23.00082015991211 1.5587122440338135
34.7041015625 -23.44236946105957 1.5334042310714722
34.719261169433594 -23.764238357543945 1.5189616680145264
34.77116394042969 -24.11449432373047 1.5020780563354492
30.03549575805664 -21.104459762573242 1.7803095579147339
34.82282257080078 -24.788867950439453 1.4708815813064575
34.80672073364258 -25.100727081298828 1.457592487335205
34.817935943603516 -25.435117721557617 1.442407250404358
34.827152252197266 -25.77117919921875 1.427145004272461
34.853519439697266 -26.12328338623047 1.4105815887451172
34.84982681274414 -26.456146240234375 1.3957237005233765
34.85364532470703 -26.7978572845459 1.3801764249801636
34.874271392822266 -27.155948638916016 1.3633214235305786
34.89337158203125 -27.51653289794922 1.346333384513855
34.903106689453125 -27.873380661010742 1.3297264575958252
34.74747085571289 -28.100139617919922 1.3238767385482788
34.74026107788086 -28.448781967163086 1.3080109357833862
34.92533493041992 -28.960304260253906 1.278959035873413
34.862972259521484 -29.271595001220703 1.2662885189056396
34.89091873168945 -29.66212272644043 1.2472612857818604
34.92143249511719 -30.059303283691406 1.2277820110321045
34.9476203918457 -30.45730972290039 1.2083187103271484
34.88935470581055 -30.78540802001953 1.1944726705551147
34.93114471435547 -31.20574378967285 1.173376441001892
34.9957389831543 -31.6518611907959 1.1503479480743408
34.97440719604492 -32.02507781982422 1.1331167221069336
34.96884536743164 -32.416873931884766 1.1144895553588867
35.000553131103516 -32.84807205200195 1.0928748846054077
30.30526351928711 -28.793514251708984 1.4166558980941772
32.42544937133789 30.530555725097656 2.310896158218384
32.338958740234375 30.077159881591797 2.3180010318756104
32.4755859375 29.83493995666504 2.315922260284424
32.519412994384766 29.509557723999023 2.3175127506256104
32.47785568237305 29.110708236694336 2.322445869445801
32.44162368774414 28.721433639526367 2.3270483016967773
32.56361389160156 28.475175857543945 2.3251802921295166
32.57261276245117 28.132455825805664 2.3277580738067627
32.587764739990234 27.798486709594727 2.329986810684204
32.62221908569336 27.484071731567383 2.331346035003662
32.62485122680664 27.1459903717041 2.333878517150879
32.62920379638672 26.812719345092773 2.3362441062927246
32.61750793457031 26.469715118408203 2.3391501903533936
32.666015625 26.178499221801758 2.3395755290985107
32.68396759033203 25.8653564453125 2.341120958328247
32.690650939941406 25.546213150024414 2.3430213928222656
32.69465255737305 25.22796058654785 2.344937562942505
32.74051284790039 24.944549560546875 2.345118761062622
32.74419021606445 24.63148307800293 2.3468730449676514
32.68669128417969 24.275808334350586 2.3509411811828613
32.273834228515625 23.66349220275879 2.368839979171753
32.452232360839844 23.489686965942383 2.363478899002075
32.508544921875 23.22800064086914 2.3628242015838623
32.494266510009766 22.918115615844727 2.364849090576172
32.48479461669922 22.614425659179688 2.366605281829834
32.45964431762695 22.302658081054688 2.3688924312591553
32.50883102416992 22.04422378540039 2.3682074546813965
32.55607604980469 21.786027908325195 2.3675246238708496
32.36784744262695 21.373863220214844 2.375915765762329
32.44125747680664 21.137805938720703 2.374065637588501
32.456661224365234 20.86544418334961 2.3743958473205566
32.58220291137695 20.66488265991211 2.3703856468200684
32.579410552978516 20.384048461914062 2.3712804317474365
32.419612884521484 20.008487701416016 2.3781824111938477
32.307674407958984 19.666839599609375 2.3831558227539062
32.34786605834961 19.42044448852539 2.3821728229522705
32.344974517822266 19.149852752685547 2.3827877044677734
32.358970642089844 18.8911190032959 2.382683277130127
32.501808166503906 18.708221435546875 2.3775341510772705
32.655784606933594 18.531190872192383 2.371892213821411
32.680599212646484 18.28124237060547 2.3711750507354736
32.7718391418457 18.0693302154541 2.3678276538848877
32.85907745361328 17.855552673339844 2.3645706176757812
32.981048583984375 17.66073226928711 2.359910249710083
33.01700973510742 17.420310974121094 2.3585052490234375
33.038848876953125 17.17365837097168 2.3575832843780518
33.05979919433594 16.92784881591797 2.3566319942474365
33.07719421386719 16.681529998779297 2.3557562828063965
33.070438385009766 16.424522399902344 2.3557515144348145
33.08961486816406 16.181835174560547 2.3546838760375977
33.086341857910156 15.929561614990234 2.3544230461120605
33.10560989379883 15.689493179321289 2.3532302379608154
33.119564056396484 15.448099136352539 2.3521833419799805
33.130889892578125 15.206707000732422 2.3511784076690674
33.13686752319336 14.964115142822266 2.3503215312957764
33.14385223388672 14.723236083984375 2.3493664264678955
33.167449951171875 14.490839958190918 2.347710132598877
33.1756706237793 14.252788543701172 2.3465914726257324
33.190513610839844 14.018684387207031 2.345158338546753
33.19635009765625 13.781867027282715 2.344017267227173
33.20608139038086 13.547772407531738 2.3426685333251953
33.230892181396484 13.320770263671875 2.3406763076782227
33.09702682495117 13.03209114074707 2.3448033332824707
33.1258544921875 12.809358596801758 2.342545747756958
33.57174301147461 12.745680809020996 2.3239662647247314
33.67909622192383 12.550673484802246 2.3185129165649414
33.72525405883789 12.332860946655273 2.3153889179229736
33.726741790771484 12.0994291305542 2.3139522075653076
33.74171829223633 11.871749877929688 2.3119330406188965
33.75706481933594 11.644994735717773 2.309843063354492
33.75480270385742 11.413054466247559 2.3083884716033936
33.774688720703125 11.189438819885254 2.3060097694396973
33.80545425415039 10.970017433166504 2.303147077560425
33.807186126708984 10.741863250732422 2.3013710975646973
33.78926086425781 10.508460998535156 2.3003170490264893
33.8032112121582 10.285866737365723 2.29795241355896
33.800376892089844 10.058934211730957 2.2961971759796143
33.82673645019531 9.84135627746582 2.293231964111328
33.84593200683594 9.622194290161133 2.290494918823242
33.84349060058594 9.397550582885742 2.288562536239624
33.85211181640625 9.176698684692383 2.2861380577087402
33.86412811279297 8.95737075805664 2.2835235595703125
33.86988830566406 8.736992835998535 2.281104564666748
33.887786865234375 8.520292282104492 2.2781479358673096
33.889747619628906 8.30013370513916 2.275773525238037
33.8931999206543 8.08096694946289 2.273287296295166
33.90399932861328 7.864101886749268 2.2704527378082275
33.913421630859375 7.647407054901123 2.2676198482513428
33.93414306640625 7.4336724281311035 2.264277458190918
33.94276809692383 7.217684268951416 2.2613685131073
33.95198059082031 7.002272129058838 2.2583816051483154
33.96571350097656 6.788193702697754 2.255157947540283
33.96828079223633 6.5723114013671875 2.2523341178894043
33.96456527709961 6.355732440948486 2.2497122287750244
33.981109619140625 6.143357276916504 2.2462122440338135
33.99435806274414 5.930674076080322 2.2427926063537598
34.004302978515625 5.717726707458496 2.2394521236419678
34.0139045715332 5.505039691925049 2.236072301864624
34.01625061035156 5.29152774810791 2.232935905456543
34.01725769042969 5.078192710876465 2.2298026084899902
34.03473663330078 4.867590427398682 2.2259340286254883
34.043975830078125 4.656015872955322 2.222351551055908
34.0578498840332 4.445286273956299 2.2185213565826416
34.071407318115234 4.234684467315674 2.2146482467651367
34.0876350402832 4.024550437927246 2.2106080055236816
33.55247497558594 3.752829074859619 2.2295782566070557
33.519046783447266 3.541062116622925 2.227562427520752
33.58470153808594 3.3398356437683105 2.2213351726531982
33.63024139404297 3.13617205619812 2.2158892154693604
33.65165328979492 2.9300801753997803 2.2113993167877197
33.66283416748047 2.7231173515319824 2.2072842121124268
33.673744201660156 2.5162007808685303 2.2031242847442627
33.675411224365234 2.3087048530578613 2.1993019580841064
33.6698112487793 2.1009089946746826 2.195734739303589
12.974586486816406 0.7289551496505737 3.077796220779419
12.093673706054688 0.6049867868423462 3.1140999794006348
33.677268981933594 1.4798840284347534 2.183668613433838
12.66113567352295 0.47780412435531616 3.086735486984253
19.303213119506836 0.6105618476867676 2.797712564468384
33.73419952392578 0.8608434796333313 2.168952703475952
33.74665451049805 0.654052197933197 2.164210319519043
33.763824462890625 0.4472191631793976 2.1592023372650146
33.766746520996094 0.24010607600212097 2.154756546020508
33.76140213012695 0.03296569734811783 2.150616407394409
12.866314888000488 -0.06712929904460907 3.066512107849121
12.693768501281738 -0.14411793649196625 3.0724239349365234
33.7886848449707 -0.5888692140579224 2.1359376907348633
33.800228118896484 -0.7964982390403748 2.1308140754699707
11.514446258544922 -0.3428385555744171 3.1198105812072754
12.473487854003906 -0.44788986444473267 3.075303792953491
11.75578498840332 -0.4944148659706116 3.105738878250122
12.695422172546387 -0.6118718981742859 3.0617563724517822
13.368674278259277 -0.7264794111251831 3.0295093059539795
12.843374252319336 -0.7770298719406128 3.0513415336608887
12.823344230651855 -0.8548030853271484 3.050339698791504
33.87833023071289 -2.465123176574707 2.0882034301757812
13.08362102508545 -1.0335055589675903 3.0345406532287598
13.087910652160645 -1.1146740913391113 3.032323122024536
12.317729949951172 -1.1253061294555664 3.0657577514648438
12.358248710632324 -1.2054939270019531 3.061936140060425
12.719182014465332 -1.3194838762283325 3.043215274810791
12.688931465148926 -1.39508056640625 3.042562484741211
13.382586479187012 -1.5544242858886719 3.008080005645752
13.437171936035156 -1.6443663835525513 3.003300666809082
13.493135452270508 -1.7352917194366455 2.9984123706817627
13.840523719787598 -1.8663188219070435 2.9797182083129883
11.846546173095703 -1.6716829538345337 3.071829319000244
13.847060203552246 -2.040485143661499 2.9746220111846924
33.99129104614258 -5.220350742340088 2.0105533599853516
33.99787139892578 -5.435064315795898 2.0041885375976562
34.001129150390625 -5.649728775024414 1.9979108572006226
33.99712371826172 -5.863620281219482 1.9919110536575317
34.023231506347656 -6.083301067352295 1.984381079673767
34.01649475097656 -6.29770565032959 1.9783670902252197
34.058433532714844 -6.521836757659912 1.9699041843414307
33.992095947265625 -6.725592136383057 1.966659665107727
33.89616012573242 -6.922984600067139 1.9648232460021973
33.83720397949219 -7.127482891082764 1.9611207246780396
33.837528228759766 -7.344653606414795 1.954424500465393
33.83938980102539 -7.562750339508057 1.9475746154785156
33.80966567993164 -7.774209976196289 1.942225694656372
33.847633361816406 -8.001903533935547 1.9334110021591187
33.81806945800781 -8.214326858520508 1.9279059171676636
34.02655029296875 -8.486381530761719 1.9102802276611328
34.049102783203125 -8.71425724029541 1.901938796043396
34.08656311035156 -8.947038650512695 1.892743706703186
34.10122299194336 -9.17490005493164 1.8846180438995361
34.08162307739258 -9.394256591796875 1.8781657218933105
34.082725524902344 -9.619956970214844 1.870565414428711
34.088096618652344 -9.847689628601074 1.8626561164855957
34.097694396972656 -10.077548027038574 1.8544358015060425
34.097145080566406 -10.305295944213867 1.8466548919677734
34.110355377197266 -10.538131713867188 1.8380597829818726
34.1381721496582 -10.776629447937012 1.8285950422286987
34.13582992553711 -11.006669998168945 1.8206273317337036
34.13288879394531 -11.237401962280273 1.812598466873169
34.15774917602539 -11.478372573852539 1.802986741065979
34.150699615478516 -11.709707260131836 1.7949856519699097
34.166603088378906 -11.949959754943848 1.7856487035751343
34.1244010925293 -12.170719146728516 1.7793620824813843
34.113624572753906 -12.403355598449707 1.7712827920913696
34.276390075683594 -12.701202392578125 1.7535909414291382
34.303165435791016 -12.95107364654541 1.7432053089141846
34.30299377441406 -13.192071914672852 1.7341935634613037
34.31975173950195 -13.440838813781738 1.7241346836090088
34.330101013183594 -13.688459396362305 1.7143172025680542
34.337772369384766 -13.936336517333984 1.7045365571975708
34.35015106201172 -14.187490463256836 1.6943762302398682
34.346923828125 -14.43351936340332 1.684982419013977
34.365840911865234 -14.690247535705566 1.6742146015167236
29.640714645385742 -12.886295318603516 1.9351037740707397
29.549015045166016 -13.062621116638184 1.931822419166565
34.415931701660156 -15.467072486877441 1.6415352821350098
34.403709411621094 -15.716060638427734 1.632066011428833
34.42776870727539 -15.983139038085938 1.620361566543579
34.4290657043457 -16.24130630493164 1.6098562479019165
34.4374885559082 -16.504405975341797 1.5988043546676636
34.46462631225586 -16.778274536132812 1.586507797241211
34.45119857788086 -17.034061431884766 1.5764859914779663
34.41986083984375 -17.28225326538086 1.567415714263916
34.347625732421875 -17.510746002197266 1.5607000589370728
34.292503356933594 -17.748641967773438 1.552857518196106
34.25431442260742 -17.996273040771484 1.543880820274353
34.23023986816406 -18.252559661865234 1.5339246988296509
34.391357421875 -18.61044692993164 1.5124231576919556
34.18961715698242 -18.77347755432129 1.5131675004959106
34.50881576538086 -19.225324630737305 1.4814226627349854
34.42298889160156 -19.455307006835938 1.47470223903656
34.50281524658203 -19.780805587768555 1.4574440717697144
34.50225830078125 -20.06283950805664 1.445072889328003
34.52188491821289 -20.35879898071289 1.431257724761963
34.52117919921875 -20.64499282836914 1.4185720682144165
34.566917419433594 -20.96144676208496 1.4027273654937744
34.514793395996094 -21.220670700073242 1.3930339813232422
34.52095031738281 -21.517541885375977 1.3794069290161133
34.465667724609375 -21.777956008911133 1.3696390390396118
34.517791748046875 -22.108501434326172 1.3526442050933838
34.56044006347656 -22.436155319213867 1.3360605239868164
34.566162109375 -22.742660522460938 1.3217302560806274
34.52621841430664 -23.021278381347656 1.3102846145629883
34.64216232299805 -23.40702247619629 1.2881320714950562
34.720062255859375 -23.771360397338867 1.2682827711105347
34.749656677246094 -24.106233596801758 1.2514829635620117
34.74458694458008 -24.419971466064453 1.2368496656417847
34.81260299682617 -24.788406372070312 1.2169462442398071
34.79641342163086 -25.10018539428711 1.2026567459106445
34.80672836303711 -25.43389892578125 1.1863077878952026
34.822269439697266 -25.77462387084961 1.169365406036377
34.83493423461914 -26.116491317749023 1.152395248413086
34.83674621582031 -26.45344352722168 1.1359659433364868
34.851558685302734 -26.803569793701172 1.118370771408081
34.87125015258789 -27.1610050201416 1.1001745462417603
34.88236999511719 -27.515357971191406 1.082348346710205
34.87640380859375 -27.859651565551758 1.0655282735824585
34.764278411865234 -28.121400833129883 1.0563348531723022
34.759925842285156 -28.4726505279541 1.0389620065689087
34.924686431884766 -28.96766471862793 1.0086287260055542
34.89506530761719 -29.306537628173828 0.9925699830055237
34.92191696166992 -29.696577072143555 0.9719720482826233
34.92636489868164 -30.071762084960938 0.9527908563613892
34.91095733642578 -30.433683395385742 0.9348597526550293
34.87594985961914 -30.782011032104492 0.9181864261627197
34.95335388183594 -31.234149932861328 0.8924468159675598
34.985050201416016 -31.65088653564453 0.8699314594268799
34.95404052734375 -32.01523971557617 0.8520643711090088
34.975502014160156 -32.43198776245117 0.8297162055969238
35.00770950317383 -32.863861083984375 0.8061559200286865
34.991050720214844 -33.25471115112305 0.7862073183059692
32.37701416015625 30.84146499633789 2.051621198654175
32.40164566040039 30.48818588256836 2.055604934692383
32.3587532043457 30.075889587402344 2.062730312347412
32.4791374206543 29.818706512451172 2.0618011951446533
32.53688430786133 29.50612449645996 2.0637893676757812
32.48111343383789 29.094606399536133 2.0711188316345215
32.45520782470703 28.714689254760742 2.0768656730651855
32.570350646972656 28.462451934814453 2.0757288932800293
32.572418212890625 28.1138973236084 2.079885721206665
32.5904541015625 27.7825984954834 2.0831573009490967
32.603363037109375 27.450210571289062 2.0865519046783447
32.62572479248047 27.128936767578125 2.08937931060791
32.638427734375 26.802715301513672 2.09254789352417
32.641380310058594 26.471694946289062 2.096060037612915
32.671142578125 26.165395736694336 2.0981969833374023
32.68975830078125 25.852907180786133 2.100748300552368
32.69475555419922 25.532567977905273 2.103827714920044
32.697052001953125 25.213144302368164 2.106923818588257
32.704620361328125 24.900707244873047 2.1096651554107666
32.74394226074219 24.614953994750977 2.1108250617980957
32.72000503540039 24.28438949584961 2.114821434020996
32.53124237060547 23.83632469177246 2.126344919204712
32.43376541137695 23.460613250732422 2.133514881134033
32.49800109863281 23.204885482788086 2.133103847503662
32.52602005004883 22.92507553100586 2.134272813796997
32.5887451171875 22.671480178833008 2.13375186920166
32.51860427856445 22.328035354614258 2.1392476558685303
32.57453536987305 22.07376480102539 2.1388566493988037
32.650169372558594 21.834089279174805 2.137477397918701
32.4697151184082 21.426443099975586 2.147731304168701
32.46805191040039 21.140710830688477 2.1497039794921875
32.51118850708008 20.886056900024414 2.149542808532715
32.58280944824219 20.650924682617188 2.1479992866516113
32.56889343261719 20.363256454467773 2.1502716541290283
32.46847915649414 20.024600982666016 2.1563897132873535
32.52906036376953 19.78766632080078 2.155099630355835
32.62222671508789 19.57130241394043 2.1522512435913086
32.57551193237305 19.272619247436523 2.155672788619995
32.41071701049805 18.90777015686035 2.164361000061035
32.650634765625 18.780351638793945 2.154627799987793
32.67464065551758 18.52845001220703 2.154601812362671
32.709877014160156 18.284276962280273 2.1539909839630127
32.81073760986328 18.077499389648438 2.1503376960754395
32.94190216064453 17.887338638305664 2.145242214202881
32.99179458618164 17.653345108032227 2.1437454223632812
33.009124755859375 17.403099060058594 2.143643856048584
33.038818359375 17.160676956176758 2.1429104804992676
33.05077362060547 16.91035270690918 2.142902135848999
33.06268310546875 16.661426544189453 2.1428215503692627
33.08084487915039 16.416990280151367 2.1423861980438232
33.0802001953125 16.164621353149414 2.142726182937622
33.09391403198242 15.92067813873291 2.1423463821411133
33.11310958862305 15.680594444274902 2.1416478157043457
33.12335968017578 15.4375 2.1412816047668457
33.13187789916992 15.194870948791504 2.140923500061035
33.138671875 14.952715873718262 2.1405727863311768
33.14922332763672 14.713482856750488 2.1399829387664795
33.15076446533203 14.471485137939453 2.139730930328369
33.17445755004883 14.24027156829834 2.1384124755859375
33.179073333740234 14.001928329467773 2.137885332107544
33.19217300415039 13.76827621459961 2.1369078159332275
33.20827865600586 13.536876678466797 2.135727643966675
33.23392868041992 13.310256004333496 2.1340513229370117
33.0953483581543 13.019810676574707 2.139718532562256
33.136192321777344 12.801790237426758 2.137225389480591
33.56888961791992 12.732955932617188 2.11696457862854
33.663028717041016 12.533076286315918 2.11191987991333
33.70436096191406 12.31365966796875 2.10919451713562
33.7254638671875 12.087464332580566 2.107316017150879
33.746002197265625 11.861804962158203 2.105398178100586
33.748043060302734 11.630485534667969 2.104252576828003
33.75893020629883 11.403107643127441 2.1026415824890137
33.76070785522461 11.173519134521484 2.1013801097869873
33.78660583496094 10.952659606933594 2.098958730697632
33.80630874633789 10.730389595031738 2.096754550933838
33.78925323486328 10.497320175170898 2.096158266067505
33.80789566040039 10.27619743347168 2.0938756465911865
33.80210876464844 10.048405647277832 2.092642068862915
33.816871643066406 9.827486991882324 2.090409994125366
33.834999084472656 9.60812759399414 2.0879600048065186
33.85074996948242 9.388647079467773 2.0855557918548584
33.85254669189453 9.165940284729004 2.083726644515991
33.8499870300293 8.942798614501953 2.082035779953003
33.86628341674805 8.725268363952637 2.079418420791626
33.89377975463867 8.51103687286377 2.076223373413086
33.89760971069336 8.29133415222168 2.0740535259246826
33.92042541503906 8.076766014099121 2.0709474086761475
33.88933181762695 7.850052356719971 2.0702638626098633
33.91033935546875 7.636096477508545 2.067117929458618
33.930973052978516 7.422390460968018 2.063924789428711
33.940486907958984 7.206643104553223 2.0611844062805176
33.95450210571289 6.992266654968262 2.0581722259521484
33.953453063964844 6.775250434875488 2.0557985305786133
33.971614837646484 6.562489986419678 2.0524704456329346
33.957027435302734 6.343887805938721 2.050605535507202
33.97937774658203 6.132631778717041 2.046957492828369
33.98367691040039 5.918426036834717 2.0440895557403564
33.994510650634766 5.705719470977783 2.0408549308776855
34.00007247924805 5.492464065551758 2.0378053188323975
34.010223388671875 5.280274868011475 2.0344784259796143
34.01805877685547 5.068018913269043 2.031198263168335
34.03841781616211 4.857841491699219 2.027264356613159
34.0416374206543 4.645442008972168 2.0240774154663086
34.05146408081055 4.434216499328613 2.020515203475952
34.06294250488281 4.223413467407227 2.016812801361084
34.07809066772461 4.013219356536865 2.0128722190856934
33.52310562133789 3.7395095825195312 2.0360326766967773
33.51044464111328 3.5301403999328613 2.0333476066589355
33.575992584228516 3.3289554119110107 2.0268619060516357
33.62541961669922 3.1257095336914062 2.021076202392578
33.64773178100586 2.919734477996826 2.0165212154388428
33.6578369140625 2.712719440460205 2.0124895572662354
33.666664123535156 2.505688190460205 2.008455514907837
33.674217224121094 2.298649787902832 2.0044193267822266
11.950920104980469 0.7408460974693298 3.0538833141326904
33.64960861206055 1.8825714588165283 1.9980874061584473
