# .PCD v0.7 - Point Cloud Data file format
VERSION 0.7
FIELDS x y z
SIZE 4 4 4
TYPE F F F
COUNT 1 1 1
WIDTH 856
HEIGHT 1
VIEWPOINT 0 0 0 1 0 0 0
POINTS 856
DATA ascii
32.88207244873047 18.375051498413086 3.2840309143066406
32.745391845703125 18.035974502563477 3.282541513442993
33.4626350402832 18.16442108154297 3.2718563079833984
44.752716064453125 23.939180374145508 3.1460306644439697
44.62621307373047 23.520591735839844 3.143362283706665
44.52378463745117 23.118743896484375 3.1404383182525635
44.301490783691406 22.659393310546875 3.13885498046875
44.195804595947266 22.26437759399414 3.1359879970550537
44.04216384887695 21.849300384521484 3.1336705684661865
43.952484130859375 21.469865798950195 3.130636692047119
43.73185729980469 21.03081703186035 3.1291136741638184
43.65482711791992 20.665029525756836 3.125950574874878
43.47254180908203 20.25326156616211 3.124018907546997
43.34048080444336 19.86910057067871 3.1215147972106934
43.2418212890625 19.503772735595703 3.1186234951019287
43.113807678222656 19.128643035888672 3.116088390350342
42.98374557495117 18.756221771240234 3.113586664199829
42.81950378417969 18.37271499633789 3.11151123046875
42.71483612060547 18.018362045288086 3.1087210178375244
42.60651779174805 17.665605545043945 3.1059811115264893
42.47418212890625 17.30617904663086 3.1035451889038086
42.307491302490234 16.93640899658203 3.1015512943267822
42.2327880859375 16.60666275024414 3.0984089374542236
42.0987434387207 16.256502151489258 3.096022844314575
41.96573257446289 15.910030364990234 3.093632936477661
41.82444763183594 15.563714027404785 3.0913610458374023
41.755638122558594 15.247170448303223 3.0881540775299072
41.662872314453125 14.924304962158203 3.0852599143981934
41.474334716796875 14.570337295532227 3.0836355686187744
41.377567291259766 14.251814842224121 3.0808069705963135
41.27088165283203 13.93247127532959 3.078115224838257
41.157100677490234 13.613405227661133 3.0755231380462646
41.08091354370117 13.309205055236816 3.0724236965179443
40.91867446899414 12.979846000671387 3.070505380630493
40.84371566772461 12.680851936340332 3.067394733428955
40.750370025634766 12.378327369689941 3.0645368099212646
40.62993621826172 12.070021629333496 3.062060832977295
40.513980865478516 11.76561450958252 3.0595290660858154
40.40736770629883 11.466361045837402 3.0568687915802
40.28898239135742 11.166189193725586 3.05438232421875
40.22152328491211 10.882268905639648 3.0511648654937744
40.408302307128906 10.667234420776367 3.0442402362823486
40.91542434692383 10.533087730407715 3.0325567722320557
41.341915130615234 10.372917175292969 3.021940231323242
41.77670669555664 10.210043907165527 3.0110888481140137
42.23340606689453 10.047545433044434 2.9997968673706055
42.70720672607422 9.883883476257324 2.9881279468536377
43.18739318847656 9.716318130493164 2.9762399196624756
43.67102813720703 9.544083595275879 2.9641737937927246
44.16783905029297 9.369181632995605 2.9517767429351807
44.716041564941406 9.199220657348633 2.9384517669677734
44.87157440185547 8.944684028625488 2.9311232566833496
44.92845916748047 8.669824600219727 2.925290107727051
44.967933654785156 8.391669273376465 2.9196975231170654
44.83348083496094 8.082307815551758 2.916849136352539
45.013145446777344 7.829922676086426 2.908953905105591
45.035587310791016 7.549516201019287 2.90354061126709
45.05727005004883 7.269286632537842 2.89810848236084
45.09203338623047 6.991372585296631 2.8924307823181152
45.11815643310547 6.712275981903076 2.8868627548217773
45.14948654174805 6.434108734130859 2.8811755180358887
45.180084228515625 6.155944347381592 2.875466823577881
45.202030181884766 5.876743793487549 2.869870662689209
45.22821044921875 5.598241806030273 2.8641695976257324
45.24174499511719 5.318355560302734 2.8586513996124268
45.27839279174805 5.0412797927856445 2.852703332901001
45.31234359741211 4.763849258422852 2.8467655181884766
45.339622497558594 4.48569917678833 2.840907335281372
45.369171142578125 4.207762718200684 2.8349735736846924
45.396026611328125 3.9295456409454346 2.8290512561798096
45.35340118408203 3.645707130432129 2.8243305683135986
45.44660186767578 3.3727548122406006 2.817152738571167
12.524946212768555 0.8514110445976257 3.406484842300415
12.55385971069336 0.7760453820228577 3.404421329498291
45.527618408203125 2.537374496459961 2.7989349365234375
45.56519317626953 2.2591841220855713 2.7925896644592285
45.58607864379883 1.9799761772155762 2.7865142822265625
19.516969680786133 0.7270746827125549 3.2680280208587646
19.22121810913086 0.5979906916618347 3.2711281776428223
12.988557815551758 0.3239486813545227 3.3867554664611816
12.94728946685791 0.2434537708759308 3.385883331298828
45.71979522705078 0.5822710990905762 2.754995107650757
12.564326286315918 0.08204091340303421 3.3899478912353516
12.598560333251953 0.004982091952115297 3.3876476287841797
12.261396408081055 -0.07040131837129593 3.392604351043701
12.305695533752441 -0.1461455374956131 3.3901166915893555
12.327531814575195 -0.22204209864139557 3.3880534172058105
12.17098617553711 -0.29393357038497925 3.389540195465088
12.06999397277832 -0.3656024634838104 3.3899407386779785
11.894645690917969 -0.4333576560020447 3.391864061355591
11.915711402893066 -0.5073336362838745 3.3898203372955322
13.150625228881836 -0.6406249403953552 3.362842082977295
13.188344955444336 -0.7235798239707947 3.360255002975464
12.826367378234863 -0.7827014327049255 3.3659613132476807
46.07426834106445 -3.092186689376831 2.6678524017333984
12.796792984008789 -0.9386143088340759 3.363001823425293
46.12430953979492 -3.6644935607910156 2.653836965560913
12.915743827819824 -1.1067954301834106 3.356839418411255
13.314879417419434 -1.2232853174209595 3.3464086055755615
11.822545051574707 -1.159498691558838 3.37680721282959
12.182110786437988 -1.2702223062515259 3.367257595062256
12.51391315460205 -1.3824383020401 3.358201026916504
11.772307395935059 -1.3737353086471558 3.3727469444274902
12.794631004333496 -1.572541356086731 3.3482728004455566
13.588845252990723 -1.7547646760940552 3.32858943939209
12.77629280090332 -1.7296608686447144 3.3448665142059326
12.75352954864502 -1.806321144104004 3.3434557914733887
12.754043579101562 -1.8862756490707397 3.3415069580078125
13.546499252319336 -2.0883986949920654 3.321336030960083
13.533397674560547 -2.1714577674865723 3.3195526599884033
13.519784927368164 -2.2544353008270264 3.31777024269104
12.770776748657227 -2.2102136611938477 3.33322811126709
13.215505599975586 -2.37073016166687 3.32071590423584
13.560431480407715 -2.5185368061065674 3.3104214668273926
12.989975929260254 -2.4951746463775635 3.321908950805664
29.568363189697266 -5.86634635925293 2.9203782081604004
33.73335647583008 -6.907864570617676 2.8145596981048584
33.7293701171875 -7.122926235198975 2.8091511726379395
33.756256103515625 -7.345212459564209 2.802943468093872
33.76508331298828 -7.564382076263428 2.797131299972534
12.690410614013672 -2.925687313079834 3.3166005611419678
33.765830993652344 -8.000870704650879 2.7857937812805176
33.905418395996094 -8.253952026367188 2.7765445709228516
33.88216781616211 -8.468811988830566 2.7713425159454346
33.8285026550293 -8.676246643066406 2.7668821811676025
33.915687561035156 -8.920720100402832 2.7587647438049316
34.060020446777344 -9.182458877563477 2.7490882873535156
34.05883026123047 -9.406654357910156 2.7431142330169678
34.006141662597656 -9.617035865783691 2.738447427749634
33.95695877075195 -9.82851505279541 2.7336573600769043
33.95055389404297 -10.052806854248047 2.727695941925049
33.946495056152344 -10.278550148010254 2.721623182296753
33.931392669677734 -10.501665115356445 2.7158000469207764
33.955810546875 -10.737942695617676 2.7088544368743896
33.99287414550781 -10.979522705078125 2.7015023231506348
34.007362365722656 -11.215072631835938 2.694705009460449
33.953914642333984 -11.428893089294434 2.689735174179077
34.048500061035156 -11.693778991699219 2.680591583251953
34.00902557373047 -11.913987159729004 2.6751303672790527
34.01142883300781 -12.149620056152344 2.668440341949463
34.04885482788086 -12.399068832397461 2.660691976547241
34.15571975708008 -12.675864219665527 2.650874376296997
34.311885833740234 -12.973878860473633 2.6395275592803955
34.3453369140625 -13.227940559387207 2.631634473800659
34.34437942504883 -13.47012710571289 2.624676465988159
34.35381317138672 -13.717616081237793 2.617349147796631
34.3531608581543 -13.962342262268066 2.6102538108825684
34.3563346862793 -14.20986557006836 2.602980136871338
34.375267028808594 -14.465319633483887 2.5951626300811768
34.36018753051758 -14.70777416229248 2.5883054733276367
29.702987670898438 -12.930657386779785 2.7234957218170166
34.42277908325195 -15.23703670501709 2.571545124053955
34.441558837890625 -15.49876880645752 2.5634284019470215
34.430240631103516 -15.74841594696045 2.5561726093292236
34.405364990234375 -15.99302864074707 2.5492775440216064
34.36703109741211 -16.232379913330078 2.54274582862854
34.40455627441406 -16.509048461914062 2.533733606338501
34.37976837158203 -16.7574462890625 2.526632308959961
34.36756134033203 -17.013254165649414 2.5190584659576416
34.28651809692383 -17.23587417602539 2.513657808303833
34.172874450683594 -17.442235946655273 2.5092875957489014
34.11479187011719 -17.677282333374023 2.5030503273010254
34.141807556152344 -17.957874298095703 2.49392032623291
34.25836181640625 -18.288410186767578 2.4816839694976807
34.3299446105957 -18.598196029663086 2.470828056335449
34.25623321533203 -18.83106231689453 2.46480393409729
30.67160415649414 -17.10659408569336 2.579317808151245
30.208398818969727 -17.092126846313477 2.587557554244995
34.3464469909668 -19.71247673034668 2.435565233230591
34.33183670043945 -19.98514747619629 2.4271721839904785
34.46839141845703 -20.348819732666016 2.413343667984009
34.47482681274414 -20.638935089111328 2.403984546661377
34.449092864990234 -20.911741256713867 2.395677328109741
34.485145568847656 -21.22429656982422 2.3850486278533936
34.41519546508789 -21.473529815673828 2.378162384033203
34.44485092163086 -21.78681755065918 2.3675506114959717
34.43492126464844 -22.077537536621094 2.358281135559082
34.53754425048828 -22.443561553955078 2.344712495803833
34.42742919921875 -22.673690795898438 2.338968515396118
34.459617614746094 -22.99930191040039 2.327786922454834
34.644752502441406 -23.431421279907227 2.310635566711426
34.70136642456055 -23.781356811523438 2.2981998920440674
34.706539154052734 -24.099233627319336 2.2876040935516357
30.04702377319336 -21.138437271118164 2.4590957164764404
34.801048278808594 -24.80337905883789 2.262720823287964
34.8182373046875 -25.13924789428711 2.2512400150299072
34.806793212890625 -25.457378387451172 2.240762710571289
34.856998443603516 -25.82390785217285 2.227675199508667
34.846439361572266 -26.148815155029297 2.216888189315796
34.88810729980469 -26.51629066467285 2.2038323879241943
34.87112808227539 -26.84258460998535 2.193028688430786
34.9097785949707 -27.215133666992188 2.179777145385742
34.909080505371094 -27.560672760009766 2.1680045127868652
34.83440399169922 -27.850433349609375 2.1592109203338623
34.712425231933594 -28.103836059570312 2.1523330211639404
34.7277717590332 -28.47084617614746 2.1394805908203125
34.82988739013672 -28.91378402709961 2.122696876525879
34.661617279052734 -29.135251998901367 2.117497444152832
34.83672332763672 -29.649171829223633 2.0971179008483887
34.77815628051758 -29.969303131103516 2.0868279933929443
34.93386459350586 -30.47905158996582 2.066802978515625
34.93479537963867 -30.859498977661133 2.0534794330596924
34.775917053222656 -31.101194381713867 2.047260046005249
34.92062759399414 -31.618467330932617 2.0270187854766846
34.99176025390625 -32.07586669921875 2.0098865032196045
34.85566711425781 -32.34701156616211 2.0021982192993164
34.920772552490234 -32.80861282348633 1.9849278926849365
36.91274642944336 28.79349136352539 3.043073892593384
32.59233856201172 24.16082763671875 3.1056721210479736
32.18070602416992 23.551176071166992 3.1106784343719482
32.29047393798828 23.32872772216797 3.107213258743286
32.415000915527344 23.117435455322266 3.10347056388855
32.331298828125 22.75986099243164 3.103102207183838
32.383209228515625 22.5006160736084 3.10048770904541
32.50654602050781 22.291929244995117 3.096666097640991
32.424842834472656 21.944698333740234 3.0961995124816895
32.45069122314453 21.67317771911621 3.0939316749572754
32.460243225097656 21.3928165435791 3.0919086933135986
32.507816314697266 21.139320373535156 3.089224100112915
32.64270782470703 20.943286895751953 3.0850448608398438
32.566898345947266 20.61376190185547 3.0843749046325684
32.674861907958984 20.40247344970703 3.0805838108062744
32.63502883911133 20.100439071655273 3.079263687133789
32.48505401611328 19.7342472076416 3.0798003673553467
32.62773513793945 19.547962188720703 3.075331926345825
32.6626091003418 19.297595977783203 3.0726702213287354
32.736244201660156 19.071195602416992 3.069314479827881
32.43552017211914 18.63045883178711 3.0723953247070312
32.637874603271484 18.48139190673828 3.0667662620544434
32.610877990722656 18.202852249145508 3.0650808811187744
32.71747589111328 18.00005340576172 3.0610415935516357
32.886104583740234 17.830947875976562 3.0558764934539795
33.299930572509766 17.79192543029785 3.04634690284729
44.596832275390625 23.4780330657959 2.844292640686035
44.50382614135742 23.081560134887695 2.842844247817993
44.344417572021484 22.654809951782227 2.8425614833831787
44.2082633972168 22.24437713623047 2.8418548107147217
44.02126693725586 21.81294059753418 2.8420512676239014
43.94207763671875 21.439010620117188 2.840299129486084
43.83203125 21.053455352783203 2.8390870094299316
43.632144927978516 20.629030227661133 2.8394954204559326
43.514827728271484 20.247928619384766 2.8383963108062744
43.39812469482422 19.87071418762207 2.837272882461548
43.233768463134766 19.475570678710938 2.837014675140381
43.10186004638672 19.098995208740234 2.8361520767211914
42.973384857177734 18.72757339477539 2.835216999053955
42.85025405883789 18.361989974975586 2.8341727256774902
42.711368560791016 17.993194580078125 2.8334131240844727
42.626853942871094 17.6505126953125 2.8316237926483154
42.47677230834961 17.283920288085938 2.831056833267212
42.351661682128906 16.93097496032715 2.8300118446350098
42.268497467041016 16.597759246826172 2.8281588554382324
42.09142303466797 16.230945587158203 2.8280863761901855
41.95914077758789 15.88498592376709 2.827153444290161
41.84107971191406 15.54753589630127 2.825939178466797
41.764610290527344 15.228233337402344 2.8239102363586426
41.625553131103516 14.888900756835938 2.823082685470581
41.45561599731445 14.541922569274902 2.822852849960327
41.382266998291016 14.231736183166504 2.820728063583374
41.26878356933594 13.910223007202148 2.819377899169922
41.18329620361328 13.600675582885742 2.817464590072632
41.07274627685547 13.285313606262207 2.8160359859466553
40.937957763671875 12.964879035949707 2.8150811195373535
40.8342170715332 12.656961441040039 2.813499689102173
40.74546813964844 12.356030464172363 2.8116044998168945
40.680450439453125 12.064340591430664 2.8092164993286133
40.50968551635742 11.74384593963623 2.8089613914489746
40.39905548095703 11.44361686706543 2.8074803352355957
40.273746490478516 11.141721725463867 2.8062915802001953
40.236026763916016 10.86604118347168 2.8032915592193604
40.446842193603516 10.657233238220215 2.7951207160949707
40.91999053955078 10.513935089111328 2.7814218997955322
41.3482666015625 10.354052543640137 2.768540620803833
41.76057052612305 10.185516357421875 2.7558813095092773
42.19374465942383 10.017390251159668 2.742670774459839
42.72772216796875 9.867731094360352 2.7272067070007324
43.191192626953125 9.696121215820312 2.7131073474884033
43.663917541503906 9.521324157714844 2.6986842155456543
44.162506103515625 9.346677780151367 2.6835777759552
44.703678131103516 9.175114631652832 2.667417287826538
44.88254928588867 8.92529010772705 2.6589736938476562
44.9235725402832 8.647340774536133 2.6534643173217773
44.965824127197266 8.369772911071777 2.6478843688964844
44.87450408935547 8.06829833984375 2.645199775695801
45.00380325317383 7.806888103485107 2.637620449066162
45.03297424316406 7.527706146240234 2.632202625274658
45.056461334228516 7.247823715209961 2.6268701553344727
45.088096618652344 6.969463348388672 2.6213126182556152
45.118995666503906 6.691133499145508 2.6157283782958984
45.14817810058594 6.412687301635742 2.6101393699645996
45.18257522583008 6.135075569152832 2.6043879985809326
45.19841003417969 5.855098247528076 2.599015951156616
45.223426818847656 5.576503276824951 2.5933921337127686
45.234806060791016 5.296424865722656 2.588038921356201
33.39529800415039 3.7021219730377197 2.857724666595459
33.41131591796875 3.4965708255767822 2.85353422164917
33.429054260253906 3.291255474090576 2.8492720127105713
45.357574462890625 4.185647487640381 2.564392328262329
45.386253356933594 3.907674551010132 2.5584123134613037
45.35542297363281 3.6248843669891357 2.553800582885742
45.45942306518555 3.3526995182037354 2.5459322929382324
45.47002029418945 3.073167562484741 2.540242910385132
45.49785614013672 2.7947964668273926 2.534092664718628
12.56706714630127 0.6931278705596924 3.3278605937957764
45.541419982910156 2.2370409965515137 2.521942377090454
45.582115173339844 1.9588373899459839 2.515331745147705
19.456825256347656 0.7154208421707153 3.1534390449523926
12.040570259094238 0.36800503730773926 3.3346803188323975
12.039569854736328 0.2940638065338135 3.3331868648529053
12.3079833984375 0.22512950003147125 3.3249411582946777
12.51701545715332 0.15218618512153625 3.318108558654785
12.655632019042969 0.07625356316566467 3.3129897117614746
45.751136779785156 0.00034846883499994874 2.470489501953125
12.78549575805664 -0.07980645447969437 3.3063690662384033
12.947663307189941 -0.16022562980651855 3.3005177974700928
12.938401222229004 -0.2395007312297821 3.2990336418151855
12.75876235961914 -0.3145078420639038 3.301957368850708
12.562712669372559 -0.3868306875228882 3.305344581604004
12.493133544921875 -0.4614257514476776 3.3054566383361816
12.114506721496582 -0.5219380855560303 3.3137166500091553
12.942747116088867 -0.6370478272438049 3.290105104446411
12.865693092346191 -0.7124074697494507 3.290351629257202
12.83310317993164 -0.7896013855934143 3.2894153594970703
12.860891342163086 -0.8705312609672546 3.2868492603302
12.851282119750977 -0.9491134881973267 3.2852725982666016
46.131919860839844 -3.6863701343536377 2.3784379959106445
13.224020957946777 -1.1398690938949585 3.2713682651519775
11.941628456115723 -1.1033704280853271 3.3046791553497314
12.030099868774414 -1.1860021352767944 3.300473928451538
12.161745071411133 -1.2743366956710815 3.2950286865234375
12.683213233947754 -1.4076008796691895 3.278641939163208
33.96564483642578 -3.9771811962127686 2.679100275039673
11.701577186584473 -1.4443596601486206 3.302509069442749
12.72343921661377 -1.649614691734314 3.2717056274414062
12.764545440673828 -1.734623908996582 3.2685630321502686
13.77793025970459 -1.958329677581787 3.2374894618988037
12.668058395385742 -1.880098581314087 3.2673463821411133
14.098526000976562 -2.1806414127349854 3.2238340377807617
14.302940368652344 -2.3021585941314697 3.2156150341033936
13.324280738830566 -2.2287206649780273 3.242016553878784
13.234475135803223 -2.2972614765167236 3.242497682571411
13.259440422058105 -2.3854758739471436 3.239586591720581
13.23959732055664 -2.465853452682495 3.237985134124756
12.735360145568848 -2.452951669692993 3.2509000301361084
12.680813789367676 -2.523230791091919 3.2504026889801025
12.582802772521973 -2.5840933322906494 3.2512240409851074
33.71965408325195 -7.137275218963623 2.604343891143799
33.741512298583984 -7.358464241027832 2.5978541374206543
33.80874252319336 -7.590697765350342 2.589905261993408
33.75556564331055 -7.796597003936768 2.5856175422668457
33.867435455322266 -8.041605949401855 2.57614803314209
33.922210693359375 -8.27478313446045 2.5683767795562744
33.90364456176758 -8.490967750549316 2.56284761428833
33.69298553466797 -8.65824031829834 2.563368082046509
33.922298431396484 -8.939370155334473 2.5498647689819336
34.068359375 -9.201748847961426 2.538895606994629
34.0833854675293 -9.430545806884766 2.5320465564727783
34.04783248901367 -9.645980834960938 2.52677845954895
34.0281982421875 -9.866345405578613 2.520944595336914
34.00522232055664 -10.086262702941895 2.515169858932495
33.89665985107422 -10.280745506286621 2.5121750831604004
33.961692810058594 -10.52842903137207 2.5033881664276123
34.03163146972656 -10.77940845489502 2.4943501949310303
34.04460144042969 -11.013801574707031 2.4871394634246826
34.03984069824219 -11.243431091308594 2.4804608821868896
34.005123138427734 -11.463839530944824 2.474740505218506
34.087127685546875 -11.724874496459961 2.4649710655212402
34.05308151245117 -11.947315216064453 2.459101915359497
34.052406311035156 -12.182234764099121 2.4520225524902344
34.0670280456543 -12.423758506774902 2.4443416595458984
34.17271423339844 -12.700385093688965 2.433389902114868
34.31085968017578 -12.991866111755371 2.421175956726074
34.315223693847656 -13.23481559753418 2.4135854244232178
34.32346725463867 -13.480497360229492 2.4057819843292236
34.329063415527344 -13.726408004760742 2.397996425628662
34.337554931640625 -13.974778175354004 2.390029191970825
34.35906219482422 -14.229886054992676 2.381507158279419
34.36491012573242 -14.479962348937988 2.3734734058380127
34.35152053833008 -14.723164558410645 2.3660671710968018
34.37400436401367 -14.983119010925293 2.3572583198547363
34.421993255615234 -15.256050109863281 2.347404718399048
34.41142654418945 -15.504681587219238 2.339646339416504
34.41091537475586 -15.759163856506348 2.331430673599243
34.420345306396484 -16.019704818725586 2.322751045227051
34.42064666748047 -16.277538299560547 2.314331531524658
34.400142669677734 -16.526887893676758 2.3066258430480957
34.35992431640625 -16.767831802368164 2.2996065616607666
34.34758377075195 -17.023548126220703 2.2914295196533203
34.311073303222656 -17.26851463317871 2.284115791320801
34.1891975402832 -17.470930099487305 2.280106544494629
34.067012786865234 -17.672962188720703 2.276078462600708
34.21953201293945 -18.01941680908203 2.2610056400299072
34.308258056640625 -18.335906982421875 2.2483291625976562
34.38031768798828 -18.646535873413086 2.2361831665039062
34.252845764160156 -18.85033416748047 2.2320573329925537
30.650432586669922 -17.113933563232422 2.3709630966186523
30.170793533325195 -17.089853286743164 2.3823323249816895
34.218502044677734 -19.6606388092041 2.204953908920288
34.348331451416016 -20.01658058166504 2.1897826194763184
34.47248840332031 -20.373323440551758 2.174668073654175
34.35953140258789 -20.592103958129883 2.1694676876068115
34.46125793457031 -20.94155502319336 2.155012845993042
34.447669982910156 -21.223834991455078 2.145360231399536
34.408172607421875 -21.491914749145508 2.136723756790161
34.358238220214844 -21.754962921142578 2.1284477710723877
34.553627014160156 -22.176881790161133 2.109262228012085
34.52480697631836 -22.458709716796875 2.0997865200042725
34.43540954589844 -22.702516555786133 2.092909812927246
34.468963623046875 -23.02933692932129 2.080423355102539
34.661983489990234 -23.467220306396484 2.0605483055114746
34.71000289916992 -23.811670303344727 2.04703688621521
34.69436264038086 -24.115385055541992 2.036285400390625
30.042831420898438 -21.157127380371094 2.2402896881103516
34.78351974487305 -24.816015243530273 2.0087649822235107
34.811031341552734 -25.15943717956543 1.9955430030822754
34.78645324707031 -25.468122482299805 1.9846205711364746
34.826812744140625 -25.82744789123535 1.9704625606536865
34.827301025390625 -26.160615921020508 1.9580371379852295
34.87113571166992 -26.52984619140625 1.9433530569076538
34.857120513916016 -26.8585147857666 1.9312983751296997
34.87819290161133 -27.217512130737305 1.917363166809082
34.882049560546875 -27.566625595092773 1.9040952920913696
34.854061126708984 -27.89370346069336 1.8922432661056519
34.696041107177734 -28.11829948425293 1.8867802619934082
34.69570541381836 -28.47258186340332 1.8732647895812988
34.81989669799805 -28.933917999267578 1.8532010316848755
34.848731994628906 -29.321290969848633 1.8377646207809448
34.85129165649414 -29.690664291381836 1.8234776258468628
34.85516357421875 -30.065080642700195 1.8089244365692139
34.92046356201172 -30.497180938720703 1.7909284830093384
34.90690994262695 -30.865020751953125 1.7768659591674805
34.882694244384766 -31.227174758911133 1.7631782293319702
34.90494918823242 -31.635143280029297 1.7467867136001587
34.978721618652344 -32.095218658447266 1.7273528575897217
34.93906021118164 -32.45606231689453 1.7138596773147583
34.98509216308594 -32.901126861572266 1.6954288482666016
32.35145568847656 30.0958251953125 2.8651366233825684
32.52874755859375 29.890714645385742 2.861302614212036
32.80691146850586 29.77729606628418 2.855020761489868
32.383609771728516 29.032873153686523 2.865316390991211
32.41579055786133 28.705087661743164 2.8647539615631104
32.721378326416016 28.61957359313965 2.8576581478118896
36.982669830322266 28.54264259338379 2.7550787925720215
37.31123733520508 28.432804107666016 2.7468068599700928
32.69597625732422 24.600364685058594 2.855966806411743
32.33330535888672 24.018369674682617 2.8640849590301514
32.2243537902832 23.63214683532715 2.8661322593688965
32.19693374633789 23.30973243713379 2.866197109222412
32.32133483886719 23.0989990234375 2.862600564956665
32.282588958740234 22.77350425720215 2.8628475666046143
32.39533615112305 22.5567626953125 2.85943603515625
32.327003479003906 22.216053009033203 2.8603055477142334
32.34095001220703 21.93483543395996 2.8591675758361816
32.32192611694336 21.633710861206055 2.8587772846221924
32.41972732543945 21.412439346313477 2.8555452823638916
32.29322052001953 21.045583724975586 2.8576529026031494
32.40900802612305 20.838977813720703 2.853903293609619
32.508277893066406 20.622108459472656 2.8505043983459473
32.52304458618164 20.352827072143555 2.8490958213806152
32.57828140258789 20.11039924621582 2.8466711044311523
32.43706130981445 19.749523162841797 2.848952054977417
32.23865509033203 19.35871124267578 2.8525896072387695
32.24917221069336 19.09691047668457 2.85113787651062
32.375118255615234 18.90427017211914 2.8468451499938965
32.41066360473633 18.659423828125 2.8447043895721436
32.48616409301758 18.438541412353516 2.84155011177063
32.40748977661133 18.13201141357422 2.842115640640259
32.52851867675781 17.93866729736328 2.837768077850342
32.73008346557617 17.788917541503906 2.831402063369751
32.991844177246094 17.66993522644043 2.82350492477417
33.12162399291992 17.4788875579834 2.8187918663024902
44.47055435180664 23.120149612426758 2.5376992225646973
44.412078857421875 22.74483871459961 2.5369930267333984
44.18019104003906 22.28512191772461 2.540531873703003
44.0589599609375 21.886043548583984 2.541304588317871
43.87163543701172 21.458545684814453 2.5436840057373047
43.79603958129883 21.089693069458008 2.5432565212249756
43.636268615722656 20.684040069580078 2.544889450073242
43.50126647949219 20.294246673583984 2.545874834060669
43.37221908569336 19.91106414794922 2.546679973602295
43.2164306640625 19.519533157348633 2.548125982284546
43.1159553527832 19.15664291381836 2.548154592514038
42.91189193725586 18.751689910888672 2.5507609844207764
42.91483688354492 18.44034767150879 2.548114776611328
33.20256042480469 14.026530265808105 2.7916224002838135
42.550357818603516 17.66864013671875 2.552098512649536
42.43010711669922 17.314373016357422 2.5524802207946777
33.24224853515625 13.327973365783691 2.784334659576416
33.115848541259766 13.0421142578125 2.7854084968566895
33.1373176574707 12.816370010375977 2.782670497894287
41.88737487792969 15.905816078186035 2.5553226470947266
41.809791564941406 15.583625793457031 2.554473400115967
41.7288932800293 15.262645721435547 2.5536787509918213
41.6494026184082 14.944596290588379 2.55281662940979
41.499691009521484 14.604206085205078 2.5537502765655518
41.438106536865234 14.297516822814941 2.552365779876709
41.25121307373047 13.9505033493042 2.5542259216308594
41.18025207519531 13.645625114440918 2.5530307292938232
41.05195999145508 13.324246406555176 2.553314447402954
40.93462371826172 13.009195327758789 2.5532870292663574
40.84456253051758 12.705290794372559 2.5525155067443848
40.71501922607422 12.391630172729492 2.5527641773223877
40.632041931152344 12.094584465026855 2.5517537593841553
40.5229606628418 11.79203987121582 2.5514121055603027
33.86545944213867 9.629904747009277 2.726365089416504
33.83998489379883 9.398709297180176 2.724270820617676
33.85346984863281 9.179177284240723 2.721097230911255
33.87907028198242 8.963412284851074 2.7175590991973877
33.88587188720703 8.743183135986328 2.7144930362701416
33.902889251708984 8.52613353729248 2.7111144065856934
33.87676239013672 8.298975944519043 2.7088747024536133
33.886077880859375 8.081271171569824 2.705636739730835
33.89594268798828 7.864215850830078 2.702346086502075
33.92393112182617 7.6517415046691895 2.698521375656128
33.93593978881836 7.436011791229248 2.6950979232788086
33.95146560668945 7.221460819244385 2.6915407180786133
33.95780944824219 7.005383014678955 2.688201427459717
33.952972412109375 6.787539482116699 2.6851377487182617
33.96048355102539 6.5726776123046875 2.681694269180298
33.971553802490234 6.358898162841797 2.678114414215088
33.97537612915039 6.144162178039551 2.674701452255249
33.982765197753906 5.930477142333984 2.671151876449585
33.99177169799805 5.717430591583252 2.6675190925598145
34.0073356628418 5.505773544311523 2.6636626720428467
33.98207473754883 5.287991523742676 2.6609346866607666
34.007816314697266 5.078551769256592 2.6567111015319824
34.0184211730957 4.8670125007629395 2.652883768081665
34.0376091003418 4.656888008117676 2.648768424987793
34.037662506103516 4.444381237030029 2.6451685428619385
34.0522575378418 4.23402214050293 2.641108989715576
34.06058883666992 4.023064136505127 2.6371910572052
33.57887268066406 3.7574784755706787 2.6476168632507324
33.53059005737305 3.5439674854278564 2.6453425884246826
33.59235763549805 3.342272996902466 2.6397900581359863
33.67082595825195 3.1416237354278564 2.633690118789673
33.67240905761719 2.933544874191284 2.6298255920410156
33.67769241333008 2.7259669303894043 2.6258113384246826
33.6846809387207 2.518657684326172 2.6217079162597656
12.567604064941406 0.8624685406684875 3.254246473312378
33.69583511352539 2.1041574478149414 2.613466739654541
33.7039909362793 1.8971943855285645 2.6092069149017334
33.695892333984375 1.6894594430923462 2.605403184890747
33.721473693847656 1.483431339263916 2.6005303859710693
33.72980499267578 1.2765476703643799 2.596142053604126
19.2700252532959 0.611122727394104 3.038269281387329
33.73667526245117 0.8624932169914246 2.5875439643859863
33.75518798828125 0.6557998061180115 2.5827136039733887
33.74445343017578 0.44853919744491577 2.5787513256073
12.814273834228516 0.09196469187736511 3.2310314178466797
12.53768539428711 0.013077016919851303 3.238081932067871
12.699399948120117 -0.06466212868690491 3.2313244342803955
33.79373550415039 -0.3800504505634308 2.559588670730591
33.796630859375 -0.5874462723731995 2.554985761642456
12.243274688720703 -0.28769156336784363 3.2408502101898193
33.80858612060547 -1.0026785135269165 2.54544997215271
12.422516822814941 -0.4444549083709717 3.23171329498291
13.061606407165527 -0.5475878715515137 3.209256410598755
33.70912170410156 -1.6210424900054932 2.5346319675445557
12.805302619934082 -0.6943079233169556 3.2139720916748047
12.794766426086426 -0.7724841237068176 3.2124929428100586
12.614222526550293 -0.8392724394798279 3.2166121006011963
12.880918502807617 -0.9364274144172668 3.2059364318847656
33.897926330566406 -2.674137592315674 2.5040860176086426
13.194995880126953 -1.1221718788146973 3.1916344165802
12.339812278747559 -1.1257051229476929 3.2183990478515625
12.181427001953125 -1.1866455078125 3.221883773803711
33.92193603515625 -3.51540470123291 2.4829139709472656
12.763912200927734 -1.4016964435577393 3.1983182430267334
12.752043724060059 -1.479621171951294 3.196744441986084
33.95225524902344 -4.151402473449707 2.46608304977417
13.42770004272461 -1.7252562046051025 3.1694016456604004
12.738346099853516 -1.71616530418396 3.191171407699585
33.97060012817383 -4.789709568023682 2.449186086654663
13.332208633422852 -1.9630283117294312 3.166255474090576
13.409749984741211 -2.0585765838623047 3.1613388061523438
34.00849533081055 -5.4351487159729 2.4311141967773438
12.445805549621582 -2.0671792030334473 3.1911020278930664
12.365867614746094 -2.1319377422332764 3.19185209274292
12.479411125183105 -2.2304389476776123 3.1856727600097656
29.358701705932617 -5.433900833129883 2.575514554977417
34.04785919189453 -6.518158435821533 2.4006876945495605
33.96002197265625 -6.717583179473877 2.3979074954986572
13.089476585388184 -2.6725058555603027 3.154658079147339
33.62928009033203 -7.082010746002197 2.397962808609009
33.83799362182617 -7.343059539794922 2.384185552597046
33.8106803894043 -7.554630279541016 2.379028081893921
33.8998908996582 -7.793236255645752 2.369476556777954
33.9320068359375 -8.020118713378906 2.361970901489258
33.97037887573242 -8.249573707580566 2.3541557788848877
33.93351745605469 -8.461426734924316 2.3491101264953613
34.032806396484375 -8.708316802978516 2.338838815689087
34.04623794555664 -8.934672355651855 2.3317456245422363
34.082298278808594 -9.168012619018555 2.323714256286621
34.0946159362793 -9.39602279663086 2.316519260406494
34.08329391479492 -9.618288040161133 2.3101701736450195
34.08012390136719 -9.843542098999023 2.3034400939941406
34.08984375 -10.073366165161133 2.296137571334839
34.06741714477539 -10.294429779052734 2.290029525756836
34.040687561035156 -10.514713287353516 2.2840301990509033
34.08401107788086 -10.757616996765137 2.275181531906128
34.135135650634766 -11.004511833190918 2.2659292221069336
34.15793228149414 -11.243690490722656 2.257723331451416
34.15255355834961 -11.474650382995605 2.2505733966827393
34.138999938964844 -11.703700065612793 2.2436840534210205
34.134300231933594 -11.936643600463867 2.2363617420196533
34.1139030456543 -12.164937019348145 2.229609966278076
34.090110778808594 -12.392745018005371 2.2229301929473877
34.24095916748047 -12.685985565185547 2.208918333053589
34.33899688720703 -12.962484359741211 2.196964979171753
34.322998046875 -13.197626113891602 2.1896798610687256
34.33983612060547 -13.446540832519531 2.1809306144714355
34.35026550292969 -13.69430923461914 2.1723616123199463
34.35060501098633 -13.93932819366455 2.164132595062256
34.372314453125 -14.194401741027832 2.154898166656494
34.380210876464844 -14.445233345031738 2.1461620330810547
34.35691452026367 -14.68412971496582 2.1386895179748535
34.37779235839844 -14.943199157714844 2.129204273223877
34.4278564453125 -15.216813087463379 2.118333101272583
34.44212341308594 -15.476448059082031 2.1089260578155518
34.436317443847656 -15.72852611541748 2.100309133529663
34.4395866394043 -15.986164093017578 2.091193199157715
34.45182800292969 -16.249549865722656 2.0815725326538086
34.40446472167969 -16.48604965209961 2.074545383453369
34.40130615234375 -16.744884490966797 2.0654284954071045
34.401634216308594 -17.0069580078125 2.05604887008667
34.3455696105957 -17.2423152923584 2.0491671562194824
34.23094177246094 -17.448585510253906 2.044926166534424
34.12660217285156 -17.660072326660156 2.040161609649658
34.26332092285156 -17.998247146606445 2.02402663230896
34.1573486328125 -18.210905075073242 2.0191690921783447
34.260955810546875 -18.537050247192383 2.0042977333068848
34.24885940551758 -18.80312156677246 1.9947848320007324
34.247867584228516 -19.0770320892334 1.9846282005310059
34.39006805419922 -19.433725357055664 1.9674174785614014
34.412147521972656 -19.725799560546875 1.9558546543121338
34.32136917114258 -19.9545955657959 1.9496886730194092
34.380550384521484 -20.272335052490234 1.9360530376434326
34.35308074951172 -20.54129981994629 1.9265573024749756
34.1971549987793 -20.734025955200195 1.9233709573745728
34.49551010131836 -21.20553970336914 1.8972954750061035
34.44425582885742 -21.466411590576172 1.8885962963104248
34.35900115966797 -21.707176208496094 1.8815274238586426
34.55308532714844 -22.12765884399414 1.8600432872772217
34.44244384765625 -22.356056213378906 1.8540247678756714
34.523101806640625 -22.710765838623047 1.8379899263381958
34.486812591552734 -22.991378784179688 1.8278743028640747
34.63214874267578 -23.396556854248047 1.8080625534057617
34.6971321105957 -23.751895904541016 1.7922567129135132
34.77546310424805 -24.120298385620117 1.775533676147461
30.050077438354492 -21.11701011657715 2.016944169998169
34.810935974121094 -24.78324317932129 1.7479972839355469
34.82329559326172 -25.11552619934082 1.734254002571106
34.81513977050781 -25.435922622680664 1.721458077430725
34.85253143310547 -25.792821884155273 1.7059766054153442
34.861270904541016 -26.1319580078125 1.6918857097625732
34.86874008178711 -26.473377227783203 1.6776787042617798
34.875694274902344 -26.817691802978516 1.6633113622665405
34.924659729003906 -27.198074340820312 1.6463618278503418
34.90593338012695 -27.529333114624023 1.6330586671829224
34.883670806884766 -27.86075782775879 1.6197811365127563
34.735923767089844 -28.093687057495117 1.6136170625686646
34.715694427490234 -28.431556701660156 1.5999095439910889
34.89562225341797 -28.938583374023438 1.574203372001648
34.8740119934082 -29.283782958984375 1.5601080656051636
34.911869049072266 -29.682861328125 1.5422532558441162
34.92417907714844 -30.064599990844727 1.525686264038086
34.93009567260742 -30.444978713989258 1.5092711448669434
34.89744186401367 -30.795488357543945 1.4949826002120972
34.93852233886719 -31.215290069580078 1.4759374856948853
34.99057388305664 -31.650157928466797 1.4559293985366821
34.99806594848633 -32.049720764160156 1.4384199380874634
34.96826934814453 -32.41931915283203 1.4230068922042847
34.994964599609375 -32.84581756591797 1.4037680625915527
32.34473419189453 30.091541290283203 2.579958915710449
32.48147964477539 29.849271774291992 2.5774991512298584
32.518760681152344 29.517765045166016 2.578195333480835
32.469093322753906 29.111515045166016 2.581625461578369
32.416419982910156 28.70765495300293 2.58506441116333
32.57147216796875 28.49049186706543 2.581709384918213
32.57453536987305 28.1424503326416 2.5831873416900635
32.5920524597168 27.810375213623047 2.584120035171509
32.599853515625 27.473346710205078 2.5852890014648438
32.64547348022461 27.17116928100586 2.5851662158966064
32.60984420776367 26.804718017578125 2.5875773429870605
32.64002990722656 26.495807647705078 2.587801694869995
32.66220474243164 26.183164596557617 2.588212490081787
32.67707443237305 25.867521286010742 2.588784694671631
32.69245147705078 25.555150985717773 2.5892696380615234
32.70682144165039 25.244789123535156 2.5897185802459717
32.70509719848633 24.924917221069336 2.590611457824707
32.69669723510742 24.60301399230957 2.5916476249694824
32.28355026245117 23.983478546142578 2.6055009365081787
32.17037582397461 23.594619750976562 2.6097288131713867
32.21964645385742 23.3282413482666 2.6087234020233154
32.30101776123047 23.086563110351562 2.6066360473632812
32.28262710571289 22.775609970092773 2.607656717300415
32.31496047973633 22.502887725830078 2.6070053577423096
32.38142013549805 22.25554084777832 2.6052091121673584
32.410484313964844 21.984098434448242 2.604541301727295
32.40504837036133 21.691450119018555 2.6049087047576904
32.30132293701172 21.336336135864258 2.608334541320801
32.29328918457031 21.047727584838867 2.60866641998291
32.4241943359375 20.850858688354492 2.6045336723327637
32.50831604003906 20.624256134033203 2.60182785987854
32.535797119140625 20.36293601989746 2.6008622646331787
32.36566925048828 19.98127555847168 2.6061112880706787
32.37395095825195 19.713212966918945 2.605644464492798
32.38359451293945 19.44786262512207 2.6050808429718018
32.43076705932617 19.20656967163086 2.6032705307006836
32.32773208618164 18.87872314453125 2.6061782836914062
32.46186828613281 18.691036224365234 2.60149884223938
32.507110595703125 18.45256996154785 2.599588394165039
32.64922332763672 18.2694149017334 2.5945448875427246
32.72378921508789 18.04851531982422 2.591594934463501
32.82673645019531 17.84362030029297 2.587686538696289
32.974220275878906 17.66268539428711 2.582303762435913
33.01816940307617 17.426488876342773 2.5801661014556885
33.03651809692383 17.17796516418457 2.5787932872772217
33.054840087890625 16.930784225463867 2.5773699283599854
33.08030700683594 16.68852996826172 2.5756688117980957
33.085243225097656 16.437259674072266 2.574572801589966
33.1018180847168 16.193145751953125 2.5730559825897217
33.09233093261719 15.937738418579102 2.572324752807617
33.11076354980469 15.697189331054688 2.570650339126587
33.118438720703125 15.45278549194336 2.5692718029022217
33.14161682128906 15.216805458068848 2.567347526550293
33.13947296142578 14.97042465209961 2.5661895275115967
33.1611328125 14.736006736755371 2.5642178058624268
33.172000885009766 14.497884750366211 2.5625452995300293
33.17385482788086 14.257027626037598 2.561117649078369
33.19426345825195 14.025253295898438 2.5590431690216064
33.20661544799805 13.7910795211792 2.5571820735931396
33.19883728027344 13.549728393554688 2.555927276611328
33.20976257324219 13.317178726196289 2.554020404815674
33.107486724853516 13.041045188903809 2.555750608444214
33.12520217895508 12.813907623291016 2.5535359382629395
33.570274353027344 12.749944686889648 2.537325382232666
33.6851806640625 12.557743072509766 2.53181791305542
33.730464935302734 12.3395414352417 2.5285329818725586
33.72542190551758 12.103700637817383 2.5268490314483643
33.747047424316406 11.878340721130371 2.524245023727417
33.756778717041016 11.649582862854004 2.5219852924346924
33.74888229370117 11.415709495544434 2.52026104927063
33.76310729980469 11.19023323059082 2.5177626609802246
33.78439712524414 10.967788696289062 2.5149848461151123
33.801368713378906 10.744596481323242 2.5123026371002197
33.80351638793945 10.517450332641602 2.5100677013397217
33.81180191040039 10.293010711669922 2.5075831413269043
33.80040740966797 10.063446998596191 2.5057106018066406
33.830650329589844 9.846978187561035 2.502403736114502
33.845096588134766 9.62641716003418 2.499577760696411
33.856178283691406 9.405513763427734 2.4968197345733643
33.86101150512695 9.183526992797852 2.4942257404327393
33.87501907348633 8.964649200439453 2.4912781715393066
33.87987518310547 8.74394416809082 2.4885945320129395
33.89493179321289 8.526444435119629 2.4855213165283203
33.898887634277344 8.306708335876465 2.4827778339385986
33.91114807128906 8.089563369750977 2.479708194732666
33.917152404785156 7.871450901031494 2.4768056869506836
33.91590881347656 7.652249336242676 2.4741060733795166
33.934730529785156 7.438065528869629 2.4706766605377197
33.95611572265625 7.224770545959473 2.4671103954315186
33.96440887451172 7.009068012237549 2.4639482498168945
33.964481353759766 6.792163848876953 2.461024522781372
33.96611022949219 6.576091289520264 2.458003520965576
33.97226333618164 6.361357688903809 2.454780101776123
33.98394775390625 6.148040771484375 2.4513204097747803
33.99134063720703 5.934304237365723 2.4479634761810303
34.007240295410156 5.722365379333496 2.444262981414795
34.02083969116211 5.510293960571289 2.4405956268310547
34.036075592041016 5.298732280731201 2.4368233680725098
34.029239654541016 5.084088325500488 2.4337821006774902
34.030948638916016 4.871143817901611 2.4303948879241943
34.04716491699219 4.660536766052246 2.426448106765747
34.062076568603516 4.44991397857666 2.422499179840088
34.07271194458008 4.238912105560303 2.4186549186706543
34.06914520263672 4.026422023773193 2.4152705669403076
33.57660675048828 3.7595272064208984 2.4293711185455322
33.52434539794922 3.5456066131591797 2.427699565887451
33.58906936645508 3.344252109527588 2.421774387359619
33.63765335083008 3.1408417224884033 2.4163742065429688
33.66708755493164 2.9353973865509033 2.411612033843994
33.674346923828125 2.7280144691467285 2.4076039791107178
33.68431091308594 2.5209507942199707 2.403449535369873
33.69799041748047 2.314208507537842 2.399111032485962
33.70641326904297 2.1071431636810303 2.3949151039123535
12.593404769897461 0.7094898819923401 3.169036865234375
33.72342300415039 1.693169355392456 2.3863699436187744
12.65795612335205 0.5574465394020081 3.163649797439575
33.71637725830078 1.278372049331665 2.3785226345062256
19.304750442504883 0.6132086515426636 2.9124257564544678
33.735198974609375 0.8647930026054382 2.3695170879364014
33.75270080566406 0.6580921411514282 2.3646342754364014
33.76493453979492 0.4511546492576599 2.359896183013916
12.8873929977417 0.09287454932928085 3.14551043510437
12.884664535522461 0.013815649785101414 3.1439435482025146
33.79001235961914 -0.1703641414642334 2.345810651779175
33.795162200927734 -0.3777131140232086 2.341132879257202
33.79204559326172 -0.5850117206573486 2.3367202281951904
33.81063461303711 -0.7928256988525391 2.331422805786133
12.44224739074707 -0.36840397119522095 3.1523983478546143
33.816009521484375 -1.2082000970840454 2.321890354156494
12.554483413696289 -0.5259507298469543 3.144561290740967
11.696596145629883 -0.5619372129440308 3.1762888431549072
13.284322738647461 -0.7198641300201416 3.1123721599578857
12.83275032043457 -0.7743892073631287 3.1282150745391846
12.804765701293945 -0.851568877696991 3.1274406909942627
33.892147064208984 -2.462188959121704 2.2896311283111572
33.8812141418457 -2.6704351902008057 2.284992218017578
13.157114028930664 -1.1185264587402344 3.107616424560547
12.264322280883789 -1.1184778213500977 3.141399621963501
12.225346565246582 -1.1905901432037354 3.1410717964172363
12.129298210144043 -1.2564008235931396 3.1430418491363525
12.752995491027832 -1.4001108407974243 3.115826368331909
33.92967987060547 -3.9351322650909424 2.2514095306396484
33.95431137084961 -4.149247646331787 2.244924783706665
13.468156814575195 -1.7299991846084595 3.0802948474884033
13.42751693725586 -1.8085824251174927 3.0797486305236816
33.986446380615234 -4.789525985717773 2.226796865463257
11.797857284545898 -1.73676598072052 3.1429574489593506
33.99094009399414 -5.21626615524292 2.215097188949585
34.02422332763672 -5.435232639312744 2.2078537940979004
34.00484085083008 -5.646294593811035 2.202751636505127
34.02058410644531 -5.863603115081787 2.1961090564727783
13.535701751708984 -2.4187963008880615 3.0589821338653564
13.524468421936035 -2.5025079250335693 3.057030439376831
34.031978607177734 -6.512673377990723 2.1772959232330322
33.95787811279297 -6.714718818664551 2.1742374897003174
33.88159942626953 -6.915901184082031 2.171234130859375
33.82759475708008 -7.121341705322266 2.1672277450561523
33.847530364990234 -7.342689514160156 2.1599550247192383
33.80653762817383 -7.551266193389893 2.1552703380584717
33.85383605957031 -7.780202865600586 2.1466543674468994
33.89085006713867 -8.007936477661133 2.138404607772827
33.988468170166016 -8.25150203704834 2.127384901046753
34.0203857421875 -8.48061752319336 2.1191775798797607
34.039154052734375 -8.707464218139648 2.111471652984619
34.064144134521484 -8.9368896484375 2.1034064292907715
34.093387603759766 -9.168505668640137 2.095064163208008
34.100833892822266 -9.395245552062988 2.087620973587036
34.07698059082031 -9.614012718200684 2.081524610519409
34.06227493286133 -9.835888862609863 2.074941396713257
34.093074798583984 -10.071817398071289 2.066195011138916
34.09356689453125 -10.299826622009277 2.058755874633789
34.098270416259766 -10.529989242553711 2.0510401725769043
34.14429473876953 -10.774125099182129 2.041314125061035
34.121097564697266 -10.997464179992676 2.034728765487671
34.16001510620117 -11.24184799194336 2.0251457691192627
34.15460205078125 -11.472806930541992 2.017557144165039
34.1268424987793 -11.696998596191406 2.0109477043151855
34.14288330078125 -11.937106132507324 2.0021719932556152
34.12620544433594 -12.166780471801758 1.9948698282241821
34.09953689575195 -12.393630027770996 1.9879701137542725
34.27745819091797 -12.696946144104004 1.9710713624954224
34.324886322021484 -12.954586029052734 1.9603537321090698
34.32754135131836 -13.196796417236328 1.9517124891281128
