# .PCD v0.7 - Point Cloud Data file format
VERSION 0.7
FIELDS x y z
SIZE 4 4 4
TYPE F F F
COUNT 1 1 1
WIDTH 845
HEIGHT 1
VIEWPOINT 0 0 0 1 0 0 0
POINTS 845
DATA ascii
33.924625396728516 -4.536841869354248 0.3574119210243225
33.95684814453125 -4.753393173217773 0.347034752368927
33.9561767578125 -4.965904712677002 0.33970171213150024
33.95909118652344 -5.17933988571167 0.3318847119808197
33.94198226928711 -5.390033721923828 0.3258820176124573
33.99919128417969 -5.613197326660156 0.3124898374080658
33.98232650756836 -5.824826240539551 0.30618566274642944
29.261079788208008 -5.2007598876953125 0.7615626454353333
13.284736633300781 -2.446059226989746 2.326685905456543
34.0255126953125 -6.479081153869629 0.2772306203842163
34.00325012207031 -6.691310882568359 0.2709069550037384
33.935768127441406 -6.894598484039307 0.268934041261673
33.90116882324219 -7.104456901550293 0.2635829448699951
33.95671844482422 -7.33389949798584 0.2491164356470108
33.92717361450195 -7.545712947845459 0.24297985434532166
34.038917541503906 -7.790076732635498 0.2225491851568222
34.04138946533203 -8.010794639587402 0.21288879215717316
34.02986526489258 -8.228797912597656 0.2044871747493744
34.01887130737305 -8.447442054748535 0.1958848088979721
34.0749397277832 -8.683710098266602 0.18033604323863983
34.089908599853516 -8.910669326782227 0.16877755522727966
34.103370666503906 -9.138140678405762 0.15720538794994354
34.109561920166016 -9.364532470703125 0.14621025323867798
34.08838653564453 -9.584075927734375 0.13785700500011444
34.1011848449707 -9.813895225524902 0.1258595734834671
34.06756591796875 -10.031025886535645 0.11847829818725586
34.069732666015625 -10.259305000305176 0.10725028812885284
29.472885131835938 -12.994539260864258 0.35996952652931213
33.33666229248047 -19.34354591369629 -0.3676590621471405
33.3171501159668 -19.606670379638672 -0.38425230979919434
33.218788146972656 -19.824413299560547 -0.3915429711341858
20.349681854248047 -13.542766571044922 1.067699909210205
19.983890533447266 -13.477163314819336 1.100690245628357
19.739572525024414 -13.489507675170898 1.1184900999069214
19.578449249267578 -13.556546211242676 1.125763177871704
19.501924514770508 -13.681513786315918 1.122161626815796
19.46432113647461 -13.834283828735352 1.1134247779846191
19.457050323486328 -14.009767532348633 1.100587010383606
19.515039443969727 -14.234321594238281 1.0790070295333862
19.436206817626953 -14.545913696289062 1.0607430934906006
19.334596633911133 -15.033501625061035 1.0298914909362793
19.41042709350586 -15.28467845916748 1.0043928623199463
19.43724822998047 -15.500151634216309 0.9852158427238464
29.065305709838867 -23.470800399780273 -0.3504343330860138
28.93488883972168 -23.660585403442383 -0.35642266273498535
28.807064056396484 -23.852827072143555 -0.36292847990989685
28.73740005493164 -24.094221115112305 -0.3777182698249817
28.751508712768555 -24.40837287902832 -0.4045430123806
28.679889678955078 -24.652307510375977 -0.41967058181762695
28.739110946655273 -25.011816024780273 -0.4536847174167633
28.601764678955078 -25.202728271484375 -0.46008092164993286
20.919748306274414 -18.6635684967041 0.6202532052993774
20.780126571655273 -18.76953125 0.6209120750427246
20.323747634887695 -18.585315704345703 0.6677472591400146
20.101720809936523 -18.61033058166504 0.6807112693786621
19.87798500061035 -18.631288528442383 0.6940404772758484
19.713172912597656 -18.705636978149414 0.6987153887748718
19.553937911987305 -18.784177780151367 0.7025577425956726
15.511246681213379 14.431318283081055 1.84907066822052
13.11116886138916 11.611713409423828 2.1520540714263916
13.112222671508789 11.470056533813477 2.1582820415496826
13.130887031555176 11.345112800598145 2.162404775619507
13.170492172241211 11.239130973815918 2.1640775203704834
13.212340354919434 11.135660171508789 2.1654088497161865
13.248055458068848 11.027634620666504 2.1673309803009033
13.282174110412598 10.918957710266113 2.1693363189697266
13.317781448364258 10.81216049194336 2.1710853576660156
13.351025581359863 10.70409107208252 2.1730034351348877
13.39672565460205 10.606535911560059 2.1734719276428223
13.422894477844238 10.494091987609863 2.175983190536499
13.464752197265625 10.394514083862305 2.1767020225524902
13.498762130737305 10.289379119873047 2.1781866550445557
13.52880859375 10.181822776794434 2.180011749267578
13.568438529968262 10.082009315490723 2.180722713470459
13.608159065246582 9.982681274414062 2.181344747543335
13.64475154876709 9.881492614746094 2.1822211742401123
13.681425094604492 9.78080940246582 2.183009147644043
13.718194007873535 9.680621147155762 2.183708429336548
13.756701469421387 9.582059860229492 2.1841464042663574
13.787128448486328 9.478307723999023 2.1853578090667725
13.82751750946045 9.381814956665039 2.1854448318481445
13.866415977478027 9.284629821777344 2.185614585876465
13.90215015411377 9.18567180633545 2.1860406398773193
13.938026428222656 9.087166786193848 2.1863772869110107
13.978245735168457 8.991803169250488 2.186190128326416
14.004362106323242 8.887742042541504 2.1873891353607178
14.05843734741211 8.801677703857422 2.1856296062469482
14.089099884033203 8.701147079467773 2.1862142086029053
14.136072158813477 8.610937118530273 2.1850528717041016
14.184176445007324 8.521503448486328 2.183711051940918
14.249712944030762 8.44246768951416 2.1805262565612793
14.317391395568848 8.364455223083496 2.1770684719085693
14.422030448913574 8.190162658691406 2.1731016635894775
14.4961519241333 8.1151762008667 2.1688225269317627
14.633557319641113 8.074726104736328 2.1581082344055176
15.059765815734863 8.189970016479492 2.118299722671509
15.811864852905273 8.473938941955566 2.045847177505493
27.782028198242188 14.672223091125488 0.8489931225776672
27.709453582763672 14.41739559173584 0.8616589903831482
27.706605911254883 14.20081615447998 0.8671827912330627
27.848861694335938 14.058889389038086 0.8580923080444336
33.110137939453125 15.958331108093262 0.3508298695087433
32.3170280456543 15.332649230957031 0.4347384572029114
32.513851165771484 15.18260669708252 0.42038050293922424
33.01140213012695 15.169224739074707 0.3762417733669281
33.12882614135742 14.977949142456055 0.36954599618911743
33.088623046875 14.71617603302002 0.3782329261302948
33.078399658203125 14.469430923461914 0.3838006854057312
33.10939407348633 14.241863250732422 0.3851609230041504
33.11591720581055 14.004758834838867 0.3887709081172943
33.164005279541016 13.786080360412598 0.38815754652023315
33.17930603027344 13.554527282714844 0.390605092048645
33.21982192993164 13.334064483642578 0.39043980836868286
33.056915283203125 13.033966064453125 0.4099729061126709
33.101478576660156 12.817651748657227 0.4091075658798218
33.496490478515625 12.735077857971191 0.3739924430847168
33.66313171386719 12.562813758850098 0.36100977659225464
33.696128845214844 12.34034252166748 0.36089247465133667
33.70142364501953 12.108508110046387 0.3633207380771637
33.722049713134766 11.883028984069824 0.3641161024570465
33.73176956176758 11.654498100280762 0.3658258318901062
33.729583740234375 11.422778129577637 0.3685453534126282
33.74378204345703 11.19748306274414 0.36953526735305786
33.764068603515625 10.974905014038086 0.3697955012321472
33.75917053222656 10.74494457244873 0.37235045433044434
33.78219985961914 10.524639129638672 0.3720664381980896
33.789512634277344 10.300098419189453 0.3731629550457001
33.774349212646484 10.069600105285645 0.3762880861759186
33.78917694091797 9.848872184753418 0.37638288736343384
33.80162048339844 9.628066062927246 0.37657156586647034
33.81166458129883 9.407207489013672 0.3768549859523773
33.81930923461914 9.18632698059082 0.37723463773727417
33.831298828125 8.96723461151123 0.3770620822906494
33.84186935424805 8.74833869934082 0.37689217925071716
33.845237731933594 8.52818775177002 0.37728163599967957
33.85202407836914 8.309510231018066 0.3772103786468506
33.86513900756836 8.092920303344727 0.37639671564102173
33.87299728393555 7.875577449798584 0.37595751881599426
33.882381439208984 7.6590986251831055 0.37524110078811646
33.905941009521484 7.4462175369262695 0.3730301856994629
33.90674591064453 7.228764057159424 0.3728775680065155
33.91493606567383 7.013394355773926 0.37188518047332764
33.91199493408203 6.796236515045166 0.3718334138393402
33.92917251586914 6.583550453186035 0.3697170913219452
33.93229675292969 6.368518352508545 0.36882463097572327
33.950714111328125 6.15671443939209 0.3663322925567627
33.959964752197266 5.94354772567749 0.36459270119667053
33.96984100341797 5.730828762054443 0.3626655638217926
33.97642517089844 5.517890930175781 0.3609277606010437
33.984622955322266 5.305545330047607 0.3589065968990326
33.983619689941406 5.0921244621276855 0.3576451539993286
34.0 4.881601810455322 0.35458096861839294
34.01310348510742 4.670796871185303 0.35170531272888184
34.021942138671875 4.459624290466309 0.34911325573921204
34.02650451660156 4.248145580291748 0.34680789709091187
34.02678680419922 4.03642463684082 0.3447903096675873
32.55881118774414 3.659867763519287 0.48467233777046204
32.74950408935547 3.4780800342559814 0.46406838297843933
32.38948440551758 3.2390806674957275 0.4966633915901184
32.76808547973633 3.0741240978240967 0.45758962631225586
32.70064163208008 2.8655991554260254 0.46161025762557983
32.61699676513672 2.656801700592041 0.467094749212265
33.051116943359375 2.488248348236084 0.42215585708618164
32.68703079223633 2.259303331375122 0.45466122031211853
32.83893585205078 2.067533493041992 0.4368739128112793
15.741162300109863 0.8930965065956116 2.1000287532806396
15.780939102172852 0.7982926964759827 2.094588041305542
15.788326263427734 0.7016152143478394 2.0922436714172363
15.784180641174316 0.6044555306434631 2.0909669399261475
15.797342300415039 0.5079500079154968 2.0879387855529785
15.819863319396973 0.41156473755836487 2.0839314460754395
15.824878692626953 0.31458258628845215 2.081577777862549
15.805415153503418 0.21722182631492615 2.081568479537964
32.74402618408203 0.251370906829834 0.4136279225349426
32.761451721191406 0.0505521222949028 0.4076918959617615
32.848304748535156 -0.1507934033870697 0.394782155752182
12.501453399658203 -0.13535770773887634 2.399569272994995
12.497246742248535 -0.2119850516319275 2.3982326984405518
12.538335800170898 -0.28961634635925293 2.3923635482788086
12.83159065246582 -0.375105619430542 2.361424446105957
12.839827537536621 -0.4541887044906616 2.3586606979370117
12.872431755065918 -0.5344158411026001 2.3534209728240967
32.88117599487305 -1.563987135887146 0.35752299427986145
13.09212589263916 -0.7044905424118042 2.3273422718048096
12.854965209960938 -0.7708795666694641 2.3488669395446777
12.829973220825195 -0.8484033942222595 2.349172592163086
12.558387756347656 -0.9078977108001709 2.374176263809204
12.782563209533691 -1.0029292106628418 2.3494009971618652
12.223755836486816 -1.0346637964248657 2.403329372406006
13.585494995117188 -1.2336804866790771 2.263685703277588
12.023645401000977 -1.1665040254592896 2.418940782546997
33.170494079589844 -3.4199976921081543 0.27532005310058594
33.197914123535156 -3.6287920475006104 0.2659491300582886
33.22697830200195 -3.8383960723876953 0.25626489520072937
33.34162521362305 -4.0590715408325195 0.23771515488624573
33.09657669067383 -4.235477447509766 0.2556978166103363
33.863319396972656 -4.544887542724609 0.1701502650976181
33.922035217285156 -4.76481819152832 0.15670844912528992
33.93601989746094 -4.979290962219238 0.14769582450389862
33.90340042114258 -5.187198162078857 0.14333181083202362
33.787960052490234 -5.381911277770996 0.1473848670721054
33.793121337890625 -5.595551490783691 0.13887493312358856
33.84398651123047 -5.8175458908081055 0.12547926604747772
29.24424934387207 -5.212108612060547 0.5951768755912781
33.7720947265625 -6.23281192779541 0.1162567213177681
33.71811294555664 -6.437042713165283 0.11333388835191727
29.42938232421875 -12.992238998413086 0.18222233653068542
32.92378234863281 -16.511354446411133 -0.35425451397895813
20.4436092376709 -13.439391136169434 0.929878830909729
19.713830947875977 -13.309348106384277 0.9995409250259399
19.47150421142578 -13.320592880249023 1.0183568000793457
19.376834869384766 -13.431276321411133 1.0173693895339966
19.831890106201172 -14.110406875610352 0.9272286891937256
19.955856323242188 -14.38401985168457 0.8955449461936951
19.47918701171875 -14.223102569580078 0.9463256597518921
19.4703311920166 -14.400810241699219 0.9327008128166199
19.420251846313477 -14.549150466918945 0.9246129393577576
19.339786529541016 -14.675196647644043 0.9206354022026062
19.334943771362305 -14.859539031982422 0.9058810472488403
19.273658752441406 -15.001651763916016 0.8989046812057495
19.29955291748047 -15.213082313537598 0.879342794418335
19.302419662475586 -15.603589057922363 0.8464058041572571
19.31902313232422 -15.814204216003418 0.8273455500602722
27.583271026611328 -22.86251449584961 -0.39744001626968384
27.43208885192871 -23.02295684814453 -0.3997577726840973
27.24362564086914 -23.151521682739258 -0.39667803049087524
27.06441307067871 -23.287071228027344 -0.39502599835395813
26.832111358642578 -23.375608444213867 -0.3854900002479553
26.605714797973633 -23.467435836791992 -0.37681126594543457
20.829998016357422 -18.60230827331543 0.47379565238952637
20.555870056152344 -18.58578109741211 0.4952467679977417
20.309864044189453 -18.591421127319336 0.5125876069068909
20.071128845214844 -18.600826263427734 0.5289636850357056
19.840299606323242 -18.614809036254883 0.5442593693733215
19.653289794921875 -18.6677188873291 0.5528239011764526
19.47139549255371 -18.723859786987305 0.5606313943862915
15.49026870727539 14.441697120666504 1.7198203802108765
12.96493148803711 11.793868064880371 2.0466866493225098
12.990903854370117 11.672857284545898 2.0506834983825684
13.049403190612793 11.581721305847168 2.05061411857605
13.072072982788086 11.459449768066406 2.054790735244751
13.114067077636719 11.354937553405762 2.0565237998962402
13.156027793884277 11.250988006591797 2.0581634044647217
13.18427562713623 11.136027336120605 2.06134295463562
13.216198921203613 11.024971008300781 2.0639779567718506
13.260324478149414 10.924705505371094 2.06506609916687
13.302172660827637 10.823055267333984 2.0663328170776367
13.32852554321289 10.709453582763672 2.0693283081054688
13.363348960876465 10.603362083435059 2.0712292194366455
13.402860641479492 10.501545906066895 2.0724892616271973
13.441627502441406 10.399641990661621 2.0737464427948
13.484397888183594 10.301284790039062 2.0744519233703613
13.510567665100098 10.190800666809082 2.076986074447632
13.554261207580566 10.094062805175781 2.0774106979370117
13.588452339172363 9.990683555603027 2.0788414478302
13.62269401550293 9.887847900390625 2.0801784992218018
13.658613204956055 9.786707878112793 2.0812370777130127
13.697057723999023 9.687799453735352 2.0819251537323
13.732354164123535 9.587075233459473 2.0828866958618164
13.767751693725586 9.486847877502441 2.0837535858154297
13.80079174041748 9.38542652130127 2.0848026275634766
13.83889389038086 9.287839889526367 2.0852019786834717
13.876317977905273 9.19013786315918 2.0855982303619385
13.918067932128906 9.09559440612793 2.0854344367980957
13.936585426330566 8.986315727233887 2.087773561477661
13.982012748718262 8.89478874206543 2.0870461463928223
14.020094871520996 8.798805236816406 2.0870578289031982
14.060911178588867 8.704785346984863 2.086693286895752
14.101102828979492 8.610594749450684 2.0863242149353027
14.140668869018555 8.51623821258545 2.0859508514404297
14.179607391357422 8.421717643737793 2.085573196411133
14.21963882446289 8.328046798706055 2.0850043296813965
14.253880500793457 8.231213569641113 2.0849928855895996
14.299583435058594 8.141168594360352 2.083665132522583
14.339509963989258 8.047947883605957 2.0828945636749268
14.589652061462402 8.071163177490234 2.0593631267547607
14.837108612060547 8.089701652526855 2.0361504554748535
27.521865844726562 14.787314414978027 0.6762533187866211
27.533374786376953 14.576772689819336 0.6811739206314087
27.570703506469727 14.3809175491333 0.6831721067428589
27.61374855041504 14.188790321350098 0.6844142079353333
27.65991973876953 13.998923301696777 0.6851811408996582
27.702131271362305 13.807689666748047 0.6862301230430603
27.785932540893555 13.6375150680542 0.682720959186554
27.921573638916016 13.49238395690918 0.6735924482345581
28.132884979248047 13.382444381713867 0.6563505530357361
28.474611282348633 13.331616401672363 0.6252496838569641
32.56334686279297 15.003236770629883 0.19881156086921692
33.10310745239258 15.00666332244873 0.14740638434886932
33.11954116821289 14.770094871520996 0.15104228258132935
33.11518478393555 14.525490760803223 0.1566939502954483
33.12187194824219 14.28701400756836 0.16101384162902832
33.10123062133789 14.03812026977539 0.1680280864238739
33.14493179321289 13.81758975982666 0.1681404560804367
33.169677734375 13.589881896972656 0.17007771134376526
33.21134567260742 13.369821548461914 0.17009106278419495
33.07940673828125 13.081677436828613 0.1880384087562561
33.11776351928711 12.862680435180664 0.18806961178779602
33.459720611572266 12.760024070739746 0.15639463067054749
33.62546920776367 12.587703704833984 0.14293232560157776
33.64461898803711 12.360283851623535 0.144552081823349
33.65755844116211 12.131415367126465 0.14666013419628143
33.66239929199219 11.900527954101562 0.1494525671005249
33.66661071777344 11.670363426208496 0.15215426683425903
33.6881217956543 11.446995735168457 0.15291449427604675
33.6949348449707 11.219398498535156 0.15504151582717896
33.70496368408203 10.993690490722656 0.15668554604053497
33.70590591430664 10.76585578918457 0.15911583602428436
33.72527313232422 10.544659614562988 0.1594977229833603
33.72416687011719 10.317804336547852 0.16184134781360626
33.7310791015625 10.094212532043457 0.1632099449634552
33.742252349853516 9.872596740722656 0.16399432718753815
33.75102233886719 9.650947570800781 0.16487938165664673
33.77464294433594 9.434112548828125 0.16409479081630707
33.780548095703125 9.212897300720215 0.16498613357543945
33.782127380371094 8.991193771362305 0.1661771684885025
33.787078857421875 8.771064758300781 0.16687935590744019
33.791568756103516 8.551456451416016 0.16748647391796112
33.808162689208984 8.335455894470215 0.16671030223369598
33.81951141357422 8.118640899658203 0.16633166372776031
33.83528518676758 7.903356552124023 0.16535818576812744
33.83513641357422 7.684875965118408 0.16587837040424347
33.8491325378418 7.470122814178467 0.16480863094329834
33.85982131958008 7.255068778991699 0.16393940150737762
33.8740119934082 7.041173458099365 0.16257244348526
33.88198471069336 6.826391696929932 0.1617058664560318
33.87785339355469 6.609679222106934 0.16194169223308563
33.89287567138672 6.3971476554870605 0.16007733345031738
33.90068817138672 6.183606147766113 0.15881438553333282
33.911075592041016 5.970897197723389 0.15715144574642181
33.90934753417969 5.7564592361450195 0.15659596025943756
33.93178939819336 5.546437740325928 0.15342357754707336
33.93917465209961 5.334191799163818 0.15166157484054565
33.94818115234375 5.122506618499756 0.1495966911315918
33.963748931884766 4.912048816680908 0.14672259986400604
33.96815490722656 4.700226783752441 0.14485964179039001
33.96730041503906 4.488010883331299 0.1434033215045929
33.98978805541992 4.279085636138916 0.139412060379982
33.99618148803711 4.068278789520264 0.13694044947624207
32.46617126464844 3.6834075450897217 0.29247787594795227
32.444210052490234 3.4795355796813965 0.29275232553482056
32.35563659667969 3.2694690227508545 0.29976627230644226
32.36871337890625 3.0703864097595215 0.29618263244628906
32.3419189453125 2.8678371906280518 0.2965838313102722
32.35550308227539 2.6691646575927734 0.29269319772720337
32.338104248046875 2.4681596755981445 0.29187506437301636
32.41074752807617 2.2738699913024902 0.2816191613674164
32.43159866333008 2.0755398273468018 0.2765856981277466
15.750414848327637 0.9112272262573242 2.002139091491699
15.779337882995605 0.8158347606658936 1.997618317604065
15.787813186645508 0.7192155718803406 1.9951531887054443
15.802653312683105 0.622795820236206 1.9919626712799072
15.800002098083496 0.5256580710411072 1.9905261993408203
15.819622993469238 0.429194837808609 1.986708164215088
15.827713012695312 0.3322800099849701 1.9840257167816162
15.814326286315918 0.2349710315465927 1.9835205078125
32.529605865478516 0.28338125348091125 0.2347051054239273
32.677490234375 0.08422929793596268 0.2150610387325287
32.609317779541016 -0.11596236377954483 0.21788392961025238
32.52799606323242 -0.3152015507221222 0.2219742089509964
32.41065216064453 -0.5128989219665527 0.22974061965942383
32.43330001831055 -0.7122737765312195 0.22268430888652802
32.42887496948242 -0.9112218022346497 0.21834315359592438
32.4162712097168 -1.1099066734313965 0.21473360061645508
12.88588809967041 -0.5201321840286255 2.2729392051696777
32.503639221191406 -1.5123251676559448 0.19522187113761902
13.05992317199707 -0.6877387166023254 2.2503106594085693
12.848798751831055 -0.7556803822517395 2.270517587661743
12.862603187561035 -0.8357014656066895 2.2668309211730957
12.858052253723145 -0.9146506786346436 2.265040874481201
12.877802848815918 -0.9954934120178223 2.2606067657470703
13.218106269836426 -1.1034244298934937 2.2218592166900635
12.01848030090332 -1.077532410621643 2.3477678298950195
12.827657699584961 -1.8684006929397583 2.236814022064209
12.800049781799316 -1.9446555376052856 2.2368431091308594
29.27007293701172 -5.185249328613281 0.4101792573928833
19.613656997680664 -6.960912704467773 1.3041549921035767
19.487117767333984 -7.050987243652344 1.311456561088562
19.422685623168945 -7.162814140319824 1.311313509941101
19.348316192626953 -7.270622253417969 1.3122973442077637
19.279850006103516 -7.380276203155518 1.3125115633010864
19.25798797607422 -7.50777530670166 1.3070313930511475
19.224199295043945 -7.630886077880859 1.3028931617736816
19.246749877929688 -7.776947975158691 1.2918050289154053
33.683040618896484 -17.369678497314453 -0.7124378085136414
20.569517135620117 -13.132925033569336 0.7918033003807068
20.333101272583008 -13.15846061706543 0.8105592727661133
20.050642013549805 -13.151087760925293 0.8358586430549622
19.82944107055664 -13.180893898010254 0.8527517318725586
19.595455169677734 -13.199607849121094 0.8715505599975586
19.46700096130371 -13.287626266479492 0.8755201101303101
19.38068389892578 -13.403948783874512 0.8734607696533203
19.35223388671875 -13.560752868652344 0.8630264401435852
19.321773529052734 -13.717137336730957 0.852703332901001
19.322368621826172 -13.896857261657715 0.8377082943916321
19.29659652709961 -14.058968544006348 0.8263206481933594
19.295129776000977 -14.240158081054688 0.8111861944198608
19.292158126831055 -14.421860694885254 0.7960384488105774
19.29875946044922 -14.61245346069336 0.7792387008666992
19.2824649810791 -14.787353515625 0.7655888795852661
19.278078079223633 -14.972959518432617 0.7499346733093262
19.297109603881836 -15.17871379852295 0.7305091023445129
19.295690536499023 -15.370412826538086 0.713886022567749
19.291091918945312 -15.561420440673828 0.6974843740463257
19.309480667114258 -15.773050308227539 0.6773006319999695
19.29384994506836 -15.958908081054688 0.6620481610298157
19.31624412536621 -16.178321838378906 0.6406501531600952
19.3480224609375 -16.408245086669922 0.6174593567848206
19.43193817138672 -16.68574333190918 0.5857349038124084
20.822370529174805 -18.557310104370117 0.30571049451828003
20.54847526550293 -18.540987014770508 0.32847025990486145
20.284374237060547 -18.530044555664062 0.34986332058906555
20.04524803161621 -18.538816452026367 0.3673912286758423
19.808237075805664 -18.546716690063477 0.38472965359687805
19.649715423583984 -18.62618637084961 0.38926321268081665
19.44010353088379 -18.655601501464844 0.4022790789604187
15.484387397766113 14.436599731445312 1.5827105045318604
12.902275085449219 11.88227367401123 1.9329051971435547
12.95850944519043 11.788179397583008 1.9334383010864258
12.980020523071289 11.663241386413574 1.9384150505065918
14.440881729125977 12.816919326782227 1.7560486793518066
14.420952796936035 12.642156600952148 1.7669576406478882
14.573237419128418 12.618618965148926 1.75547194480896
13.125265121459961 11.224882125854492 1.9494149684906006
13.170853614807129 11.124900817871094 1.9507039785385132
13.21953010559082 11.027969360351562 1.9515023231506348
13.261369705200195 10.925796508789062 1.9530751705169678
13.303226470947266 10.824152946472168 1.95454740524292
13.343562126159668 10.721781730651855 1.9561140537261963
13.358195304870605 10.599529266357422 1.9608032703399658
13.403953552246094 10.502664566040039 1.9614874124526978
13.432497024536133 10.392849922180176 1.9642225503921509
13.48076057434082 10.298787117004395 1.9644105434417725
13.503747940063477 10.185944557189941 1.9676331281661987
13.549005508422852 10.090444564819336 1.9680101871490479
13.581575393676758 9.985930442810059 1.9698566198349
13.618206024169922 9.88490104675293 1.9711114168167114
13.65572738647461 9.784958839416504 1.972166895866394
13.691723823547363 9.68435287475586 1.973318099975586
13.74332046508789 9.595064163208008 1.972493290901184
13.763199806213379 9.484050750732422 1.9754153490066528
13.806921005249023 9.389942169189453 1.9753726720809937
13.842570304870605 9.290661811828613 1.9762160778045654
13.879180908203125 9.19239616394043 1.9768586158752441
13.91261100769043 9.09239673614502 1.9777956008911133
13.952861785888672 8.997185707092285 1.9778367280960083
13.971481323242188 8.888467788696289 1.980358362197876
14.012892723083496 8.794672966003418 1.980095624923706
14.065523147583008 8.708035469055176 1.9784342050552368
14.096388816833496 8.608116149902344 1.979257583618164
14.13337516784668 8.512252807617188 1.979280710220337
14.17741870880127 8.420832633972168 1.9784010648727417
14.220012664794922 8.328686714172363 1.9776155948638916
14.24563980102539 8.22688102722168 1.9787276983261108
14.285253524780273 8.133442878723145 1.9781348705291748
14.337271690368652 8.047131538391113 1.97603178024292
14.507165908813477 8.025992393493652 1.9602583646774292
15.873138427734375 8.529366493225098 1.81080162525177
27.472196578979492 14.546096801757812 0.4850914478302002
27.500524520874023 14.346031188964844 0.4884794056415558
27.488502502441406 14.126153945922852 0.49631455540657043
27.524532318115234 13.932124137878418 0.4984990358352661
27.458602905273438 13.688028335571289 0.5121232867240906
27.6711483001709 13.582917213439941 0.49394920468330383
27.772357940673828 13.422030448913574 0.48831161856651306
28.10080909729004 13.368969917297363 0.4568563997745514
28.432342529296875 13.313642501831055 0.4250212013721466
15.755451202392578 0.9121907353401184 1.8986409902572632
15.765493392944336 0.8157930374145508 1.8960448503494263
19.282812118530273 0.760878324508667 1.5043396949768066
19.27691078186035 0.6422601342201233 1.5029280185699463
12.904064178466797 -0.5997598767280579 2.184642791748047
13.031944274902344 -0.6858381628990173 2.168104887008667
12.884454727172852 -0.7573656439781189 2.1824960708618164
12.892273902893066 -0.837215781211853 2.179354429244995
12.848053932189941 -0.9135283827781677 2.1820356845855713
12.711729049682617 -1.0607398748397827 2.1927073001861572
12.836430549621582 -1.150481104850769 2.1760873794555664
12.831913948059082 -1.2294766902923584 2.1740660667419434
12.789809226989746 -1.384012222290039 2.173632860183716
12.799649238586426 -1.464578628540039 2.1698076725006104
12.76064395904541 -1.5394893884658813 2.1715190410614014
12.739916801452637 -1.8552109003067017 2.1623177528381348
29.25620460510254 -5.180769443511963 0.21759404242038727
20.030681610107422 -6.5586724281311035 1.1474652290344238
19.47359848022461 -6.508898735046387 1.209084391593933
19.229970932006836 -6.558974742889404 1.2318588495254517
19.159988403320312 -6.666680812835693 1.232944130897522
19.126846313476562 -6.7870612144470215 1.2293343544006348
19.118160247802734 -6.916408061981201 1.2225466966629028
19.089969635009766 -7.039034843444824 1.2181127071380615
19.100963592529297 -7.176594257354736 1.2086035013198853
19.1184024810791 -7.317394256591797 1.19813871383667
19.126502990722656 -7.4554338455200195 1.1887272596359253
20.37252426147461 -8.23065185546875 1.0111427307128906
19.009920120239258 -7.816275596618652 1.1778820753097534
19.092283248901367 -7.987521648406982 1.1583553552627563
19.108386993408203 -8.132466316223145 1.1472417116165161
28.41454315185547 -16.2329044342041 -0.36075276136398315
28.400653839111328 -16.457136154174805 -0.37683507800102234
28.42700958251953 -16.70645523071289 -0.39887839555740356
28.37803840637207 -16.913013458251953 -0.4104924201965332
28.25623893737793 -17.076480865478516 -0.41189044713974
28.052257537841797 -17.189308166503906 -0.40158313512802124
27.748472213745117 -17.238475799560547 -0.37685447931289673
27.672760009765625 -17.427913665771484 -0.38511985540390015
20.501541137695312 -13.088240623474121 0.6420611143112183
20.214662551879883 -13.080558776855469 0.6694741249084473
19.947751998901367 -13.082374572753906 0.6941393613815308
19.735321044921875 -13.117125511169434 0.7109054327011108
19.523221969604492 -13.14976692199707 0.7277170419692993
19.393449783325195 -13.236252784729004 0.7323066592216492
19.306617736816406 -13.3515625 0.7304125428199768
19.271116256713867 -13.502752304077148 0.7206645607948303
19.243383407592773 -13.66032886505127 0.7095604538917542
19.205575942993164 -13.811701774597168 0.6998052000999451
19.23480987548828 -14.012791633605957 0.6795741319656372
19.236740112304688 -14.195904731750488 0.6632688641548157
19.2315731048584 -14.375410079956055 0.6478134393692017
19.246286392211914 -14.571557998657227 0.6290104985237122
19.208908081054688 -14.729782104492188 0.6181039214134216
19.24633026123047 -14.947134017944336 0.5951891541481018
19.23110008239746 -15.125625610351562 0.5803016424179077
19.233802795410156 -15.319947242736816 0.5623047351837158
19.258007049560547 -15.533559799194336 0.5405705571174622
19.240341186523438 -15.715402603149414 0.5252728462219238
19.242572784423828 -15.915322303771973 0.5064854621887207
19.21796226501465 -16.094837188720703 0.49178746342658997
19.24030113220215 -16.315715789794922 0.4691133499145508
19.279462814331055 -16.553632736206055 0.44330304861068726
20.840675354003906 -18.572263717651367 0.12002044916152954
20.582252502441406 -18.57012939453125 0.1415368914604187
20.315128326416016 -18.556835174560547 0.16473372280597687
20.08901596069336 -18.578018188476562 0.18109939992427826
19.85979461669922 -18.59374237060547 0.1981360763311386
19.636184692382812 -18.612138748168945 0.21434077620506287
19.441740036010742 -18.655973434448242 0.22556889057159424
12.860248565673828 11.985749244689941 1.8253530263900757
12.933302879333496 11.906646728515625 1.8237664699554443
12.919769287109375 11.748793601989746 1.8341673612594604
12.971389770507812 11.651382446289062 1.8353424072265625
14.408430099487305 12.783738136291504 1.6451330184936523
14.503530502319336 12.710204124450684 1.6409857273101807
13.170134544372559 11.399682998657227 1.8322516679763794
13.110310554504395 11.208158493041992 1.848233938217163
13.161872863769531 11.113418579101562 1.8488768339157104
13.212004661560059 11.017828941345215 1.849617600440979
13.247639656066895 10.910660743713379 1.85221266746521
13.291717529296875 10.810998916625977 1.8535653352737427
13.318790435791016 10.698126792907715 1.8570878505706787
13.368355751037598 10.603873252868652 1.8575029373168945
13.392212867736816 10.489785194396973 1.8612306118011475
13.431696891784668 10.388583183288574 1.862780213356018
13.466490745544434 10.284272193908691 1.8648462295532227
13.498927116394043 10.178727149963379 1.8671181201934814
13.532967567443848 10.074952125549316 1.8690768480300903
13.574258804321289 9.977033615112305 1.8699920177459717
13.613249778747559 9.877816200256348 1.8711122274398804
13.63779067993164 9.76865005493164 1.8740031719207764
13.681807518005371 9.673910140991211 1.8742833137512207
13.718650817871094 9.574441909790039 1.8753952980041504
13.756428718566895 9.476014137268066 1.8762950897216797
13.799273490905762 9.381396293640137 1.8764584064483643
13.829089164733887 9.278295516967773 1.8781903982162476
13.868109703063965 9.181771278381348 1.8786612749099731
13.902304649353027 9.082396507263184 1.879654049873352
13.948341369628906 8.991028785705566 1.8790667057037354
13.961894989013672 8.879157066345215 1.8824745416641235
14.011666297912598 8.790712356567383 1.881247639656067
14.055805206298828 8.69884967803955 1.88064706325531
14.076428413391113 8.592784881591797 1.8828926086425781
14.129504203796387 8.50679874420166 1.8810158967971802
14.172650337219238 8.414898872375488 1.8802955150604248
14.206619262695312 8.317763328552246 1.880629301071167
14.241652488708496 8.221521377563477 1.8807477951049805
14.279498100280762 8.127128601074219 1.8804384469985962
14.327126502990723 8.038419723510742 1.878849744796753
14.471654891967773 8.00333309173584 1.8653414249420166
14.975969314575195 8.162854194641113 1.8079335689544678
27.43974494934082 14.740110397338867 0.29539066553115845
27.47210121154785 14.541295051574707 0.29885855317115784
27.503934860229492 14.343095779418945 0.30222055315971375
27.575056076049805 14.165952682495117 0.3006662130355835
27.538583755493164 13.934602737426758 0.31194671988487244
27.525236129760742 13.716649055480957 0.32024601101875305
27.60932731628418 13.548003196716309 0.3166518211364746
27.742517471313477 13.403060913085938 0.3070327043533325
27.918058395385742 13.277488708496094 0.2922297716140747
28.263273239135742 13.229930877685547 0.2570549547672272
28.7263240814209 13.232708930969238 0.20779843628406525
44.970611572265625 8.486103057861328 -1.5489540100097656
44.9898796081543 8.2044095993042 -1.5511503219604492
19.279870986938477 0.7581918239593506 1.3887243270874023
19.253095626831055 0.638900637626648 1.3898028135299683
12.896980285644531 -0.6807246208190918 2.105659008026123
12.876506805419922 -0.7588824033737183 2.105854034423828
12.866460800170898 -0.8375245928764343 2.104757308959961
12.779330253601074 -1.3055964708328247 2.100224018096924
12.723501205444336 -1.3788241147994995 2.104245185852051
12.651022911071777 -1.5282516479492188 2.1074488162994385
12.631366729736328 -1.6045676469802856 2.106977701187134
12.62798023223877 -1.682929515838623 2.104482650756836
12.62214183807373 -1.761036992073059 2.1022255420684814
12.640379905700684 -1.8427155017852783 2.096980333328247
12.540304183959961 -1.9067872762680054 2.106083631515503
20.18224334716797 -6.474356174468994 1.0086418390274048
20.16161346435547 -6.604506492614746 1.0033751726150513
19.072189331054688 -6.639029502868652 1.122251272201538
19.027042388916016 -6.754554271697998 1.120206594467163
20.32393455505371 -7.35565710067749 0.9401664137840271
19.07577133178711 -7.3040547370910645 1.080446481704712
19.03675079345703 -7.423439025878906 1.0770326852798462
19.062257766723633 -7.704349040985107 1.055904746055603
20.294639587402344 -8.49372386932373 0.8697752952575684
18.802141189575195 -8.005191802978516 1.063884973526001
18.9244327545166 -8.194867134094238 1.0377588272094727
19.047815322875977 -8.387540817260742 1.0112175941467285
19.066299438476562 -8.535826683044434 0.9989052414894104
28.285030364990234 -13.719643592834473 -0.351176381111145
28.274572372436523 -13.929691314697266 -0.36554664373397827
28.318490982055664 -14.1680908203125 -0.3878661096096039
28.280052185058594 -14.366668701171875 -0.3987320363521576
28.231426239013672 -14.560763359069824 -0.4083385467529297
28.134016036987305 -14.729960441589355 -0.4111221134662628
27.707979202270508 -14.724430084228516 -0.36658552289009094
27.57121467590332 -14.869610786437988 -0.3637290894985199
27.444154739379883 -15.01938533782959 -0.36237040162086487
27.271202087402344 -15.14312744140625 -0.3543960750102997
27.155672073364258 -15.297933578491211 -0.35489535331726074
27.037548065185547 -15.450912475585938 -0.35512375831604004
26.895401000976562 -15.589591026306152 -0.35190051794052124
26.769670486450195 -15.737165451049805 -0.35119977593421936
20.53453826904297 -13.113348960876465 0.49011123180389404
20.201026916503906 -13.07576847076416 0.5261492729187012
19.940914154052734 -13.08192253112793 0.5511095523834229
19.70462417602539 -13.100760459899902 0.5725347995758057
19.51985740661621 -13.15155029296875 0.5860484838485718
19.337678909301758 -13.202248573303223 0.5992138385772705
19.26490592956543 -13.326807975769043 0.5951752066612244
19.21650505065918 -13.46861457824707 0.5871515870094299
19.21156120300293 -13.641908645629883 0.5720392465591431
19.21647834777832 -13.823753356933594 0.5551100969314575
19.215068817138672 -14.002669334411621 0.538941502571106
19.207393646240234 -14.178553581237793 0.523535430431366
19.210983276367188 -14.364372253417969 0.506048858165741
19.21063804626465 -14.548970222473145 0.48893651366233826
19.210315704345703 -14.735313415527344 0.4715518355369568
19.220951080322266 -14.931929588317871 0.45207905769348145
19.21820068359375 -15.120037078857422 0.4345356822013855
19.224714279174805 -15.3173189163208 0.4151608645915985
19.24186897277832 -15.525212287902832 0.39369115233421326
19.226472854614258 -15.708797454833984 0.37740492820739746
19.198081970214844 -15.883298873901367 0.36306050419807434
19.289875030517578 -16.159912109375 0.3278643786907196
19.223979949951172 -16.306772232055664 0.31935712695121765
19.2728328704834 -16.55290985107422 0.29075750708580017
19.26251983642578 -16.750816345214844 0.27205416560173035
12.828790664672852 12.099764823913574 1.7186143398284912
12.896713256835938 12.015433311462402 1.7178975343704224
13.81328010559082 12.712392807006836 1.591570258140564
13.907658576965332 12.642814636230469 1.5873748064041138
14.04016399383545 12.607095718383789 1.5775293111801147
13.045361518859863 11.57011604309082 1.732079267501831
14.445969581604004 12.655360221862793 1.5373579263687134
13.16479778289795 11.391013145446777 1.7318835258483887
13.110261917114258 11.20412540435791 1.7480851411819458
13.163314819335938 11.11068058013916 1.7486367225646973
13.201208114624023 11.00490951538086 1.7512518167495728
13.240604400634766 10.900986671447754 1.7535381317138672
13.27845287322998 10.796367645263672 1.755930781364441
13.321718215942383 10.696671485900879 1.7574474811553955
13.338561058044434 10.576469421386719 1.7625681161880493
13.387300491333008 10.482202529907227 1.7630963325500488
13.406294822692871 10.365236282348633 1.767670750617981
13.456748008728027 10.273163795471191 1.7677541971206665
13.488324165344238 10.167098999023438 1.7703547477722168
13.52389144897461 10.064593315124512 1.772295594215393
13.564316749572754 9.966154098510742 1.7734651565551758
13.601631164550781 9.865843772888184 1.7749614715576172
13.640650749206543 9.767187118530273 1.7761244773864746
13.674914360046387 9.66555404663086 1.7778351306915283
13.709260940551758 9.564435958862305 1.7794334888458252
13.746975898742676 9.46607780456543 1.7804778814315796
13.785645484924316 9.368733406066895 1.7812979221343994
13.823638916015625 9.271268844604492 1.7821146249771118
13.865928649902344 9.176982879638672 1.7822635173797607
13.886780738830566 9.068937301635742 1.785178780555725
13.924375534057617 8.972286224365234 1.7857650518417358
13.972208023071289 8.882448196411133 1.7849050760269165
14.007678031921387 8.784965515136719 1.7855944633483887
14.041631698608398 8.686856269836426 1.786392331123352
14.081698417663574 8.592803955078125 1.7862967252731323
14.121138572692871 8.49858570098877 1.7861963510513306
14.159098625183105 8.403697967529297 1.7862037420272827
14.197285652160645 8.309165954589844 1.786095380783081
14.233124732971191 8.213485717773438 1.7862062454223633
14.26832389831543 8.11767864227295 1.7863136529922485
14.31588363647461 8.029038429260254 1.7847380638122559
14.422895431518555 7.973300933837891 1.775421142578125
15.000043869018555 8.172856330871582 1.7056041955947876
15.886537551879883 8.530179023742676 1.5963367223739624
27.470685958862305 14.53569221496582 0.11807437241077423
27.488399505615234 14.330178260803223 0.12360436469316483
27.532913208007812 14.139519691467285 0.12553444504737854
27.563711166381836 13.942571640014648 0.12904104590415955
27.56911849975586 13.733813285827637 0.13559672236442566
27.60333824157715 13.54039192199707 0.1383185237646103
27.70958709716797 13.382501602172852 0.13176637887954712
27.935171127319336 13.280987739562988 0.11002633720636368
19.271650314331055 0.7552306652069092 1.2770403623580933
19.240896224975586 0.6358628869056702 1.2787827253341675
19.31855010986328 0.5198478102684021 1.2671581506729126
12.899723052978516 -0.6828993558883667 2.0298566818237305
12.862396240234375 -0.7600800395011902 2.032240867614746
12.876102447509766 -0.8401814699172974 2.028209686279297
12.698468208312988 -1.4570200443267822 2.029799222946167
12.609298706054688 -1.5252400636672974 2.0382320880889893
20.19775390625 -6.345876216888428 0.8904632329940796
20.2081356048584 -6.485693454742432 0.8809604644775391
20.204368591308594 -6.621556758880615 0.8732520341873169
20.169597625732422 -6.747554779052734 0.8696632385253906
18.970308303833008 -6.476226806640625 1.026086688041687
18.970157623291016 -6.606476306915283 1.0180083513259888
18.94295310974121 -6.7276787757873535 1.0135434865951538
18.942014694213867 -6.858585834503174 1.005326747894287
19.0673828125 -7.1699700355529785 0.9707216024398804
19.01886558532715 -7.419528484344482 0.9597955942153931
19.00582504272461 -7.549211502075195 0.9525765180587769
18.91632080078125 -8.332831382751465 0.9081426858901978
18.931453704833984 -8.478673934936523 0.8959256410598755
18.999643325805664 -8.649657249450684 0.8758357167243958
19.10512924194336 -8.839693069458008 0.850080668926239
19.374961853027344 -9.109365463256836 0.8000079393386841
20.41095542907715 -13.038552284240723 0.3668253719806671
20.103055953979492 -13.016467094421387 0.4005962312221527
19.834327697753906 -13.016111373901367 0.42827731370925903
19.64971923828125 -13.068375587463379 0.44247984886169434
19.457826614379883 -13.113884925842285 0.4579281806945801
19.30622673034668 -13.184920310974121 0.46683669090270996
19.235980987548828 -13.310973167419434 0.46233615279197693
19.178709030151367 -13.446331024169922 0.45555588603019714
19.41053009033203 -13.787467956542969 0.40045687556266785
19.331602096557617 -13.91088581085205 0.39674198627471924
19.225465774536133 -14.014595031738281 0.39748406410217285
19.212848663330078 -14.186976432800293 0.3823205232620239
19.209943771362305 -14.368036270141602 0.3652569353580475
19.21422004699707 -14.55617618560791 0.3466944694519043
19.210615158081055 -14.740081787109375 0.3291986286640167
19.223461151123047 -14.938475608825684 0.30857741832733154
19.227581024169922 -15.13206672668457 0.28915777802467346
19.22384262084961 -15.321329116821289 0.2708071768283844
19.232376098632812 -15.522314071655273 0.2500016689300537
19.21307373046875 -15.702664375305176 0.23379577696323395
19.186933517456055 -15.878941535949707 0.21853160858154297
19.224651336669922 -16.11020851135254 0.19156472384929657
19.230026245117188 -16.316898345947266 0.17001619935035706
19.32075309753418 -16.599140167236328 0.1326518952846527
19.227827072143555 -16.725770950317383 0.12823264300823212
12.782835960388184 12.22670841217041 1.608370304107666
12.82845401763916 12.120789527893066 1.6113513708114624
12.95024585723877 12.086617469787598 1.6022473573684692
12.916511535644531 11.907979011535645 1.6174179315567017
12.972899436950684 11.813819885253906 1.6183353662490845
12.988734245300293 11.683541297912598 1.6254156827926636
13.022770881652832 11.57066822052002 1.6295274496078491
13.072341918945312 11.4722318649292 1.6311206817626953
13.136210441589355 11.386634826660156 1.6304186582565308
13.100662231445312 11.216053009033203 1.6447240114212036
13.143176078796387 11.113685607910156 1.6470004320144653
13.19102668762207 11.01630973815918 1.6483551263809204
13.231281280517578 10.913077354431152 1.6507399082183838
13.275388717651367 10.813528060913086 1.652431607246399
13.298648834228516 10.697660446166992 1.6571121215820312
13.32487964630127 10.585002899169922 1.6612181663513184
13.368206977844238 10.486526489257812 1.6626731157302856
13.40768814086914 10.385481834411621 1.6645857095718384
13.448013305664062 10.285554885864258 1.666264533996582
13.485239028930664 10.18372631072998 1.668286681175232
13.5225191116333 10.08242130279541 1.6701910495758057
13.569465637207031 9.988696098327637 1.6705876588821411
13.58443546295166 9.871999740600586 1.675498366355896
13.624311447143555 9.774022102355957 1.6767007112503052
13.666741371154785 9.67822265625 1.6774353981018066
13.698739051818848 9.575441360473633 1.6795599460601807
13.734082221984863 9.47545051574707 1.6811014413833618
13.775280952453613 9.379857063293457 1.6817097663879395
13.814176559448242 9.283005714416504 1.6825464963912964
13.855714797973633 9.188223838806152 1.6829134225845337
13.88414478302002 9.085124969482422 1.6850268840789795
13.90932846069336 8.980406761169434 1.6874895095825195
13.957207679748535 8.890657424926758 1.6866782903671265
14.000304222106934 8.798017501831055 1.6864460706710815
14.025062561035156 8.694192886352539 1.6886684894561768
14.07280158996582 8.604901313781738 1.6876084804534912
14.108916282653809 8.508681297302246 1.688067078590393
14.15035629272461 8.415895462036133 1.6877002716064453
14.19118881225586 8.322919845581055 1.687328815460205
14.228835105895996 8.228266716003418 1.6873054504394531
14.255501747131348 8.127562522888184 1.6886911392211914
14.30138111114502 8.038028717041016 1.687364935874939
14.371888160705566 7.962191581726074 1.6826106309890747
14.979750633239746 8.179398536682129 1.6049851179122925
15.903829574584961 8.557876586914062 1.4848964214324951
19.257686614990234 0.7722122669219971 1.1629509925842285
19.2597599029541 0.6540147662162781 1.160698652267456
19.26408576965332 0.5359016060829163 1.1580634117126465
12.883757591247559 -0.6694940328598022 1.9544821977615356
12.883152961730957 -0.7487332224845886 1.9522792100906372
12.867219924926758 -0.82703697681427 1.952015995979309
19.71095848083496 -6.0409255027771 0.8410788178443909
19.460403442382812 -6.095062255859375 0.8687025904655457
19.132553100585938 -6.1215949058532715 0.9074186682701111
19.045312881469727 -6.222821235656738 0.9118778705596924
18.96413230895996 -6.325405597686768 0.915411114692688
18.943382263183594 -6.4479851722717285 0.9101905226707458
18.924650192260742 -6.571526050567627 0.9045640826225281
18.91538429260254 -6.698719024658203 0.8974499702453613
18.903404235839844 -6.825374603271484 0.8906018733978271
18.88593101501465 -6.95042610168457 0.8844274878501892
18.907522201538086 -7.090481758117676 0.8724237680435181
18.920696258544922 -7.228236198425293 0.8614922165870667
18.86918067932129 -7.3416314125061035 0.859919011592865
18.898958206176758 -7.487146377563477 0.8462575674057007
18.939599990844727 -7.638120651245117 0.830812931060791
18.923187255859375 -7.766928672790527 0.82365483045578
18.95069694519043 -7.9145331382751465 0.8098162412643433
19.068279266357422 -8.101508140563965 0.7823244333267212
19.03877067565918 -8.22734546661377 0.7766347527503967
18.91230010986328 -8.310879707336426 0.7854287028312683
18.79637908935547 -8.398025512695312 0.7926074862480164
18.977739334106445 -8.61924934387207 0.7546406388282776
18.976299285888672 -8.759562492370605 0.7441530823707581
18.949636459350586 -8.888824462890625 0.7373599410057068
18.972169876098633 -9.04195785522461 0.7228801250457764
18.981943130493164 -9.190089225769043 0.7101715207099915
19.23681640625 -9.459762573242188 0.6593708395957947
20.679948806762695 -13.007115364074707 0.19404275715351105
20.49161720275879 -13.065028190612793 0.20925021171569824
20.12040138244629 -13.002882957458496 0.2552274763584137
19.893213272094727 -13.030004501342773 0.2772475481033325
19.640886306762695 -13.037859916687012 0.3036544620990753
19.46152114868164 -13.091752052307129 0.31779569387435913
19.301057815551758 -13.156766891479492 0.3287495970726013
19.219558715820312 -13.274895668029785 0.32613110542297363
19.216020584106445 -13.447586059570312 0.3099082410335541
