# .PCD v0.7 - Point Cloud Data file format
VERSION 0.7
FIELDS x y z
SIZE 4 4 4
TYPE F F F
COUNT 1 1 1
WIDTH 853
HEIGHT 1
VIEWPOINT 0 0 0 1 0 0 0
POINTS 853
DATA ascii
13.539046287536621 10.127968788146973 1.3825949430465698
13.572566032409668 10.15556812286377 0.5276432633399963
32.718170166015625 24.292943954467773 2.4151289463043213
13.600512504577637 10.101580619812012 2.2161216735839844
13.564186096191406 10.073274612426758 1.3831896781921387
13.595837593078613 10.099345207214355 0.5292739868164062
32.53711700439453 23.982898712158203 2.421603202819824
13.617520332336426 10.04074764251709 2.2168588638305664
13.575133323669434 10.008225440979004 1.385960578918457
13.61095142364502 10.037238121032715 0.5326328873634338
32.45121383666992 23.736637115478516 2.4249227046966553
13.646068572998047 9.984901428222656 2.2166011333465576
13.605536460876465 9.95403003692627 1.3858829736709595
13.629518508911133 9.974223136901855 0.535511314868927
32.45691680908203 23.56745147705078 2.425161600112915
13.666606903076172 9.926968574523926 2.216958522796631
13.623971939086914 9.894840240478516 1.3874082565307617
13.65405559539795 9.919379234313965 0.5367066264152527
32.49630355834961 23.423357009887695 2.4242665767669678
13.692977905273438 9.873391151428223 2.2167460918426514
13.644170761108398 9.837089538574219 1.3886216878890991
13.662396430969238 9.852959632873535 0.5413633584976196
32.5147590637207 23.264734268188477 2.424041509628296
13.709003448486328 9.812493324279785 2.2174806594848633
13.656063079833984 9.77354621887207 1.3910808563232422
13.684460639953613 9.796635627746582 0.5429906249046326
32.542728424072266 23.122074127197266 2.4234635829925537
13.735267639160156 9.762662887573242 2.2171247005462646
13.67812728881836 9.72104549407959 1.3917181491851807
13.682531356811523 9.726977348327637 0.5494284629821777
32.55982971191406 22.963720321655273 2.423243284225464
13.750818252563477 9.701743125915527 2.21785831451416
13.699642181396484 9.664681434631348 1.3926177024841309
13.663859367370605 9.6422758102417 0.559718668460846
32.58633041381836 22.804147720336914 2.422706365585327
13.771873474121094 9.641292572021484 2.2181622982025146
13.728696823120117 9.610161781311035 1.392531394958496
13.719033241271973 9.606277465820312 0.5543655157089233
32.61021423339844 22.65179443359375 2.4222195148468018
13.791004180908203 9.583221435546875 2.2185146808624268
13.751801490783691 9.55512523651123 1.3931163549423218
13.723942756652832 9.538684844970703 0.559458315372467
32.58610153198242 22.466936111450195 2.4232969284057617
13.818108558654785 9.530795097351074 2.218104362487793
13.764480590820312 9.49300479888916 1.3952617645263672
13.765029907226562 9.496337890625 0.556747555732727
32.54047775268555 22.268407821655273 2.425062417984009
13.832670211791992 9.469849586486816 2.2188360691070557
13.78508186340332 9.436515808105469 1.3961576223373413
13.96445369720459 9.562310218811035 0.520200252532959
32.50212860107422 22.076087951660156 2.4265668392181396
13.857282638549805 9.415921211242676 2.218614101409912
13.815714836120605 9.386966705322266 1.395488977432251
14.174677848815918 9.633920669555664 0.4814566373825073
32.57091522216797 21.96541976928711 2.4245059490203857
13.871794700622559 9.358782768249512 2.219203472137451
13.832209587097168 9.331412315368652 1.3967441320419312
14.19611644744873 9.580001831054688 0.4826681911945343
32.56005859375 21.793243408203125 2.4250636100769043
13.90219783782959 9.30893325805664 2.2184064388275146
13.854225158691406 9.276195526123047 1.3973236083984375
14.051252365112305 9.411233901977539 0.5194313526153564
32.517173767089844 21.600675582885742 2.4266576766967773
13.919964790344238 9.250711441040039 2.2187535762786865
13.87395191192627 9.219562530517578 1.3982150554656982
13.909496307373047 9.246321678161621 0.5553481578826904
32.500465393066406 21.426549911499023 2.427367687225342
13.945816993713379 9.19796371459961 2.2183353900909424
13.889314651489258 9.160178184509277 1.399732232093811
13.922959327697754 9.185537338256836 0.558266818523407
32.45993423461914 21.23775291442871 2.4288432598114014
13.954788208007812 9.134232521057129 2.2194466590881348
13.910656929016113 9.10486888885498 1.4003088474273682
13.952644348144531 9.135558128356934 0.5577090382575989
32.43263626098633 21.050647735595703 2.42986798286438
13.98387622833252 9.080327987670898 2.2187845706939697
13.931275367736816 9.045742988586426 1.4011484384536743
13.969270706176758 9.073657035827637 0.5601425170898438
32.47639846801758 20.918394088745117 2.4285247325897217
13.994422912597656 9.017977714538574 2.2197039127349854
13.948002815246582 8.987677574157715 1.4023503065109253
13.99441909790039 9.02086353302002 0.5604506134986877
32.52385330200195 20.788785934448242 2.427039861679077
14.02150821685791 8.966404914855957 2.2190892696380615
13.979119300842285 8.938955307006836 1.4013550281524658
14.006925582885742 8.96004867553711 0.5633674263954163
32.59822463989258 20.676496505737305 2.4246485233306885
14.04419231414795 8.912080764770508 2.2188563346862793
13.99330997467041 8.879499435424805 1.402869462966919
14.023335456848145 8.901891708374023 0.5654140710830688
32.57135009765625 20.508399963378906 2.425575017929077
14.056693077087402 8.854851722717285 2.2194409370422363
14.01832103729248 8.830421447753906 1.4025487899780273
14.027560234069824 8.839615821838379 0.56968754529953
32.63839340209961 20.3919620513916 2.4233880043029785
14.091633796691895 8.808388710021973 2.218052387237549
14.038374900817871 8.774884223937988 1.403118371963501
14.060189247131348 8.791927337646484 0.5682499408721924
32.52873229980469 20.16602325439453 2.427006721496582
14.098883628845215 8.744715690612793 2.2191624641418457
14.060317993164062 8.720621109008789 1.4033732414245605
14.38970947265625 8.928393363952637 0.5049462914466858
32.471099853515625 19.973833084106445 2.4288923740386963
14.122845649719238 8.691545486450195 2.2187328338623047
14.07783031463623 8.663711547851562 1.4042561054229736
32.5042610168457 19.8382625579834 2.4277665615081787
14.152989387512207 8.6422119140625 2.2177231311798096
14.10146713256836 8.610661506652832 1.4041938781738281
32.553131103515625 19.704795837402344 2.426100969314575
14.16952896118164 8.58126449584961 2.218010663986206
14.124268531799316 8.553805351257324 1.4043946266174316
32.49306869506836 19.513883590698242 2.4280104637145996
14.203563690185547 8.534335136413574 2.21661114692688
14.145367622375488 8.499361991882324 1.4046443700790405
14.154842376708984 8.508623123168945 0.5749312043190002
32.41275405883789 19.312124252319336 2.4305691719055176
14.224593162536621 8.47961711883545 2.216367721557617
14.170517921447754 8.447416305541992 1.404262900352478
14.196911811828613 8.466751098632812 0.5712997913360596
32.43779373168945 19.181665420532227 2.4296419620513916
14.243949890136719 8.427340507507324 2.2161738872528076
14.185483932495117 8.392823219299316 1.4051913022994995
14.18020248413086 8.39332389831543 0.5795025825500488
32.41823196411133 19.017778396606445 2.430163621902466
14.268871307373047 8.375062942504883 2.215541124343872
14.212386131286621 8.342021942138672 1.4044911861419678
14.194323539733887 8.335075378417969 0.5815444588661194
32.45623779296875 18.888193130493164 2.4287679195404053
14.297908782958984 8.325222969055176 2.2145192623138428
14.226248741149902 8.283648490905762 1.405683159828186
14.225229263305664 8.286742210388184 0.5800908803939819
32.48508071899414 18.753578186035156 2.427656650543213
14.309505462646484 8.26530933380127 2.215045928955078
14.25061321258545 8.231481552124023 1.4052953720092773
14.25170612335205 8.23582935333252 0.5795091390609741
32.59361267089844 18.664934158325195 2.4238972663879395
14.344650268554688 8.21904468536377 2.2134385108947754
14.272634506225586 8.178009033203125 1.4052220582962036
14.271597862243652 8.181161880493164 0.5802360773086548
32.68994903564453 18.561418533325195 2.4205119609832764
14.36589527130127 8.161508560180664 2.213135242462158
14.293708801269531 8.120766639709473 1.4054125547409058
14.326926231384277 8.14341926574707 0.5739144086837769
32.71742630004883 18.42638397216797 2.4193902015686035
14.38767147064209 8.107659339904785 2.212688446044922
14.317479133605957 8.068408966064453 1.4050202369689941
14.303572654724121 8.064377784729004 0.5833868384361267
32.779258728027344 18.31087875366211 2.4171149730682373
14.431008338928223 8.065917015075684 2.2102952003479004
14.351880073547363 8.02203369140625 1.4030442237854004
14.345054626464844 8.025335311889648 0.5793488621711731
32.7906379699707 18.18239402770996 2.4165148735046387
14.368185043334961 7.972114562988281 1.4033840894699097
14.36060905456543 7.971774101257324 0.5805603265762329
32.8997917175293 18.0931396484375 2.4126434326171875
14.413993835449219 7.935865879058838 0.5742746591567993
32.93412399291992 17.962665557861328 2.4112234115600586
14.938247680664062 8.152254104614258 2.169278621673584
33.01190185546875 17.855947494506836 2.408350706100464
14.921469688415527 8.076200485229492 1.331803321838379
33.01446533203125 17.7087459564209 2.407945156097412
33.06053924560547 17.58521270751953 2.4060840606689453
33.077415466308594 17.446420669555664 2.4051711559295654
33.085662841796875 17.296165466308594 2.404505729675293
27.80257225036621 14.541715621948242 1.0363593101501465
33.09914016723633 17.156448364257812 2.403669595718384
27.830833435058594 14.433136940002441 1.0363191366195679
33.10093688964844 17.011144638061523 2.4032022953033447
27.82543182373047 14.30744743347168 1.0392181873321533
33.10657501220703 16.868303298950195 2.4025912284851074
27.877222061157227 14.211398124694824 1.0370205640792847
33.10715866088867 16.72338104248047 2.4021310806274414
33.131710052490234 16.59096336364746 2.4008588790893555
33.12664794921875 16.444133758544922 2.4005520343780518
33.14338684082031 16.308576583862305 2.399505615234375
33.146671295166016 16.15964698791504 2.398862600326538
33.164527893066406 16.02539825439453 2.397745132446289
33.152549743652344 15.877188682556152 2.397601842880249
32.61777114868164 15.629866600036621 0.6364400386810303
33.1507453918457 15.741470336914062 2.397132158279419
32.60166931152344 15.489570617675781 0.6401302218437195
33.153385162353516 15.60122013092041 2.3964719772338867
32.71619415283203 15.404377937316895 0.6324434280395508
33.15092086791992 15.459031105041504 2.3959646224975586
32.95698547363281 15.377577781677246 0.6136661767959595
33.16828155517578 15.326478958129883 2.3947813510894775
33.12107849121094 15.313724517822266 0.6015883684158325
33.18285369873047 15.192956924438477 2.393674373626709
33.13557052612305 15.180412292480469 0.6025665402412415
33.18779754638672 15.055392265319824 2.3928723335266113
33.17905044555664 15.060578346252441 0.600967526435852
33.2012939453125 14.922070503234863 2.39176869392395
33.20618438720703 14.933466911315918 0.6007547378540039
33.18916320800781 14.777661323547363 2.3915042877197266
33.196407318115234 14.79012393951416 0.603719174861908
33.220130920410156 14.645873069763184 2.3897500038146973
33.19770812988281 14.645264625549316 0.605772852897644
33.2091178894043 14.50285530090332 2.389415740966797
33.182167053222656 14.500396728515625 0.6091437935829163
33.22045135498047 14.370014190673828 2.3883190155029297
33.18203353881836 14.362747192382812 0.6111257076263428
33.226478576660156 14.242084503173828 2.387420654296875
33.18803024291992 14.234989166259766 0.6124343276023865
33.24138641357422 14.11140251159668 2.386173963546753
33.18682861328125 14.097661972045898 0.6144222021102905
33.24657440185547 13.976917266845703 2.3852357864379883
33.2103385925293 13.971144676208496 0.6142174005508423
33.25584030151367 13.844489097595215 2.3841452598571777
33.203460693359375 13.83218002319336 0.6166088581085205
33.24380111694336 13.703595161437988 2.383753776550293
33.228275299072266 13.706730842590332 0.6162049174308777
33.26356506347656 13.576169967651367 2.382279872894287
33.24338150024414 13.577509880065918 0.6166014671325684
33.22724533081055 13.426309585571289 2.382673978805542
33.257999420166016 13.448349952697754 0.6169980764389038
33.24132537841797 13.297285079956055 2.3813600540161133
33.272117614746094 13.319250106811523 0.6173962354660034
33.20844650268555 13.14992618560791 2.3816096782684326
33.216243743896484 13.16268253326416 0.6238119006156921
33.16325378417969 12.991703987121582 2.3822181224823
33.13641357421875 12.990872383117676 0.6323277354240417
33.17334747314453 12.862345695495605 2.3809926509857178
33.15345764160156 12.864351272583008 0.6323379874229431
33.23427963256836 12.75277042388916 2.3780364990234375
33.18861770629883 12.745011329650879 0.630739152431488
33.342288970947266 12.6774263381958 0.6187911629676819
33.50272750854492 12.60487174987793 0.6063000559806824
33.7523193359375 12.554555892944336 2.3577682971954346
33.72844314575195 12.555686950683594 0.5881433486938477
33.74189376831055 12.41684627532959 2.357144355773926
33.755462646484375 12.431888580322266 0.5871086716651917
33.78727722167969 12.299878120422363 2.3546156883239746
33.77500534057617 12.305497169494629 0.5866776704788208
33.794639587402344 12.16919994354248 2.353358030319214
33.7800178527832 12.174051284790039 0.5874597430229187
33.78267288208008 12.031914710998535 2.3527417182922363
33.77513122558594 12.039373397827148 0.5890520811080933
33.80550765991211 11.907308578491211 2.3509278297424316
33.7838134765625 11.909846305847168 0.5894339084625244
33.79454040527344 11.764470100402832 2.3501946926116943
33.7963981628418 11.775328636169434 0.589491069316864
33.80931091308594 11.637519836425781 2.348623037338257
33.792301177978516 11.641907691955566 0.5908888578414917
33.811771392822266 11.506587028503418 2.347454309463501
33.811275482177734 11.516691207885742 0.5902594923973083
33.8306999206543 11.388052940368652 2.345764636993408
33.816001892089844 11.39340877532959 0.5907683968544006
33.8179817199707 11.25257396697998 2.3450846672058105
33.82223892211914 11.26431941986084 0.591154932975769
33.835594177246094 11.127466201782227 2.343355178833008
33.813785552978516 11.130651473999023 0.5927650332450867
33.83848190307617 10.997740745544434 2.3421120643615723
33.82139205932617 11.002571105957031 0.5929524898529053
33.84801483154297 10.870420455932617 2.3406262397766113
33.81903839111328 10.871525764465332 0.5939569473266602
33.84992980957031 10.740901947021484 2.339386463165283
33.83992004394531 10.74817180633545 0.5929231643676758
33.848960876464844 10.610754013061523 2.338231086730957
33.85084915161133 10.621818542480469 0.592705249786377
33.87853240966797 10.490350723266602 2.3360111713409424
33.858375549316406 10.488138198852539 0.5927734971046448
33.85392761230469 10.340521812438965 2.335514545440674
33.8653678894043 10.354543685913086 0.5928430557250977
33.882537841796875 10.220152854919434 2.333294630050659
33.86529541015625 10.225508689880371 0.5934461951255798
33.85803985595703 10.084027290344238 2.33288836479187
33.867122650146484 10.097311019897461 0.5938465595245361
33.890533447265625 9.965105056762695 2.330502510070801
33.878028869628906 9.972036361694336 0.5934284925460815
33.87290573120117 9.83806324005127 2.329894781112671
33.88676834106445 9.85272216796875 0.5931344032287598
33.89252471923828 9.715669631958008 2.3279223442077637
33.894378662109375 9.726858139038086 0.5929228663444519
33.888404846191406 9.593049049377441 2.3268213272094727
33.89506530761719 9.605615615844727 0.5932466387748718
33.92158126831055 9.4747314453125 2.3243484497070312
33.88496017456055 9.475205421447754 0.5944777131080627
33.913394927978516 9.345015525817871 2.323293447494507
33.910396575927734 9.354923248291016 0.5926219820976257
33.948116302490234 9.227265357971191 2.3207342624664307
33.88972473144531 9.222146987915039 0.5946815013885498
33.946224212646484 9.099685668945312 2.319429874420166
33.91426467895508 9.101898193359375 0.5928261280059814
33.934200286865234 8.96967887878418 2.3184640407562256
33.89742660522461 8.970755577087402 0.5944784283638
33.917781829833984 8.843356132507324 0.5929121971130371
33.91925811767578 8.717506408691406 0.5929156541824341
33.916038513183594 8.579817771911621 2.314786195755005
33.91785430908203 8.591142654418945 0.5931277275085449
33.91026306152344 8.458867073059082 2.313617706298828
33.92902755737305 8.474434852600098 0.5922223925590515
33.93220520019531 8.338690757751465 2.3113937377929688
33.93638610839844 8.350632667541504 0.5916088223457336
33.95128631591797 8.217876434326172 2.3092522621154785
33.93846893310547 8.225708961486816 0.5914095640182495
33.95292663574219 8.092975616455078 2.3077077865600586
33.94009017944336 8.100871086120605 0.5912119746208191
33.95897674560547 7.969304084777832 2.305992841720581
33.953372955322266 7.978971481323242 0.5899758338928223
33.957275390625 7.844005584716797 2.304535388946533
33.92496871948242 7.847533702850342 0.5922768115997314
33.956451416015625 7.712887763977051 2.3029556274414062
33.95083236694336 7.722630023956299 0.5898768901824951
33.961116790771484 7.589439868927002 2.3012442588806152
33.96763229370117 7.601937770843506 0.5882254242897034
33.94940185546875 7.468760013580322 2.3001744747161865
33.97053909301758 7.484471321105957 0.5877394080162048
33.982486724853516 7.351826190948486 2.297429323196411
33.988922119140625 7.364305019378662 0.5858784914016724
33.980953216552734 7.227477073669434 2.295891046524048
34.00200653076172 7.243062973022461 0.5844333171844482
33.993648529052734 7.106294631958008 2.293834924697876
33.995155334472656 7.117735385894775 0.5846599340438843
34.00590896606445 6.98511266708374 2.2917778491973877
34.00736618041992 6.9965596199035645 0.5832146406173706
34.02508544921875 6.86541223526001 2.289459705352783
34.004493713378906 6.872422695159912 0.5830264091491699
34.002174377441406 6.737409591674805 2.2886223793029785
33.99383544921875 6.746937274932861 0.5834681391716003
34.00331115722656 6.614419937133789 2.2869157791137695
33.99250030517578 6.6235127449035645 0.5830733180046082
33.99530792236328 6.483697414398193 2.2854363918304443
34.01385498046875 6.498454570770264 0.5806652903556824
33.99307632446289 6.360432147979736 2.283820629119873
34.014068603515625 6.375596046447754 0.5800622701644897
34.002685546875 6.239514350891113 2.2817654609680176
34.02363967895508 6.254616737365723 0.5786169171333313
34.02308654785156 6.1267547607421875 2.2793943881988525
34.03416442871094 6.1400251388549805 0.5770869851112366
34.02693557739258 6.00494909286499 2.277514696121216
34.03308868408203 6.017326354980469 0.576485276222229
34.03528594970703 5.884041786193848 2.275458574295044
34.03893280029297 5.89598274230957 0.5752515196800232
34.03580093383789 5.761898517608643 2.2736687660217285
34.03696823120117 5.773421287536621 0.5746511816978455
34.048213958740234 5.641864776611328 2.2714340686798096
34.04439926147461 5.652576923370361 0.5732070207595825
34.065128326416016 5.522613525390625 2.2690212726593018
34.048946380615234 5.531351089477539 0.5719735026359558
34.04461669921875 5.397446632385254 2.2679457664489746
34.055511474609375 5.41055154800415 0.5705296993255615
34.07146453857422 5.273810863494873 2.265049457550049
34.069950103759766 5.284975051879883 0.5683245062828064
34.077213287353516 5.153013706207275 2.2629928588867188
34.07072067260742 5.163446426391602 0.567302942276001
34.07759094238281 5.031510829925537 2.2611148357391357
34.058738708496094 5.040152549743652 0.5673443675041199
34.06022262573242 4.90757417678833 2.2598679065704346
34.09068298339844 4.923410892486572 0.5635643601417542
34.10095977783203 4.7981109619140625 2.2565853595733643
34.0893440246582 4.807940483093262 0.5626692771911621
34.077789306640625 4.673650741577148 2.255520820617676
34.0736083984375 4.684549331665039 0.562926173210144
34.106178283691406 4.556355953216553 2.2525603771209717
34.104339599609375 4.567606449127197 0.559140682220459
34.08460235595703 4.4324774742126465 2.2514097690582275
34.085262298583984 4.444066524505615 0.5596133470535278
34.10968017578125 4.314759731292725 2.2485361099243164
34.11269760131836 4.326667308807373 0.556036651134491
34.112754821777344 4.188226699829102 2.2463536262512207
34.09347152709961 4.197393417358398 0.5563870072364807
34.139469146728516 4.07063627243042 2.2433838844299316
34.11263656616211 4.0789923667907715 0.5534474849700928
34.10169219970703 3.9570629596710205 0.5530722737312317
33.74808883666992 3.8027396202087402 0.5823553800582886
33.5509033203125 3.6506426334381104 2.259182929992676
33.396934509277344 3.645246744155884 0.6113513708114624
33.55339431762695 3.5324926376342773 2.257077693939209
33.37455749511719 3.525027275085449 0.6118906140327454
33.57039260864258 3.415886163711548 2.2544186115264893
33.289791107177734 3.3986871242523193 0.6177961826324463
33.626766204833984 3.3031094074249268 2.2502801418304443
33.3532829284668 3.2876312732696533 0.610831618309021
33.67032241821289 3.188803195953369 2.246596097946167
33.29738998413086 3.164868116378784 0.6141732335090637
33.69358444213867 3.072418689727783 2.243647813796997
33.27080154418945 3.0452558994293213 0.6149426102638245
33.70450973510742 2.9489400386810303 2.2410364151000977
33.01601791381836 2.900031089782715 0.635398805141449
33.70951461791992 2.830886125564575 2.238734006881714
32.655906677246094 2.753645181655884 0.6650654077529907
33.70663833618164 2.7122325897216797 2.236711263656616
32.89350509643555 2.65812087059021 0.6428143382072449
33.71330642700195 2.5943994522094727 2.2343153953552246
33.32203674316406 2.575739622116089 0.6039097905158997
33.709171295166016 2.481703042984009 2.232417345046997
32.82594680786133 2.4279990196228027 0.6454200148582458
33.717525482177734 2.364053964614868 2.229926586151123
32.86133575439453 2.315364122390747 0.6406162977218628
33.71549987792969 2.245713233947754 2.227810859680176
33.18211364746094 2.221627712249756 0.6109254360198975
33.718040466308594 2.1277289390563965 2.2255070209503174
33.05025100708008 2.097003936767578 0.6205992102622986
33.70520782470703 2.0088634490966797 2.223769187927246
32.95273208618164 1.9754114151000977 0.6272590756416321
33.70475387573242 1.8849307298660278 2.221435546875
15.821477890014648 0.8913348913192749 2.1198043823242188
33.686073303222656 1.7659944295883179 2.2198896408081055
15.814436912536621 0.8355972170829773 2.119502067565918
15.824607849121094 0.7807761430740356 2.117680549621582
15.824637413024902 0.7254388928413391 2.116726875305176
15.83680534362793 0.6733989715576172 2.114743709564209
12.507953643798828 0.484235942363739 3.020848512649536
15.843925476074219 0.6183270812034607 2.113135576248169
19.30843162536621 0.7565777897834778 0.8507058620452881
12.479564666748047 0.43953436613082886 3.0210702419281006
15.853343963623047 0.5633016228675842 2.1113083362579346
19.32807731628418 0.6898189783096313 0.8468971252441406
12.48597526550293 0.39614006876945496 3.0199544429779053
15.85012435913086 0.5078203082084656 2.1105709075927734
12.547171592712402 0.3542484939098358 3.0167245864868164
15.859159469604492 0.4527217149734497 2.1087417602539062
19.309730529785156 0.5542876124382019 0.84709632396698
15.860596656799316 0.39461246132850647 2.1075079441070557
19.31884765625 0.48372504115104675 0.8445726633071899
15.874215126037598 0.33953046798706055 2.105238676071167
12.592561721801758 0.22142623364925385 3.0122463703155518
15.870214462280273 0.28404808044433594 2.104499578475952
33.79784393310547 0.4729174077510834 2.189718008041382
15.888428688049316 0.2289174348115921 2.1017892360687256
33.78413772583008 0.3607098460197449 2.1879186630249023
15.874054908752441 0.1760830283164978 2.1019859313964844
33.78508758544922 0.2428123652935028 2.1854121685028076
12.576760292053223 0.04777061939239502 3.0092384815216064
12.62677001953125 0.003889300860464573 3.006355047225952
32.88609313964844 0.018353857100009918 0.596491813659668
12.676624298095703 -0.040340591222047806 3.0034639835357666
32.90067672729492 -0.0964447557926178 0.5927306413650513
12.721325874328613 -0.0848844051361084 3.000760793685913
32.91735076904297 -0.2113618552684784 0.5887464880943298
12.783332824707031 -0.13215182721614838 2.99731707572937
33.065528869628906 -0.3334823548793793 0.5729540586471558
12.785245895385742 -0.17679519951343536 2.996269702911377
32.87718963623047 -0.44631361961364746 0.5870453715324402
12.652132034301758 -0.21909646689891815 3.000537872314453
12.62631607055664 -0.26051971316337585 3.000631332397461
33.73439025878906 -0.687620997428894 0.5058227777481079
33.847530364990234 -0.8199679851531982 2.1599724292755127
33.74151611328125 -0.805569052696228 0.5024315118789673
33.849510192871094 -0.9323117733001709 2.1573851108551025
33.56916809082031 -0.9128033518791199 0.515100359916687
33.84825897216797 -1.0564132928848267 2.1546435356140137
33.06755828857422 -1.020399808883667 0.5567880272865295
33.844261169433594 -1.1745257377624512 2.1521263122558594
33.25022506713867 -1.1422035694122314 0.537700355052948
33.26571273803711 -1.2589755058288574 0.5334520936012268
12.943923950195312 -0.5338819622993469 2.344597578048706
12.553489685058594 -0.5660145878791809 2.9965596199035645
12.954327583312988 -0.5796037912368774 2.3425233364105225
12.676146507263184 -0.6158996820449829 2.9906198978424072
33.41666793823242 -1.615198016166687 0.511123776435852
13.008028984069824 -0.6798654794692993 2.9761877059936523
13.133675575256348 -0.6818355321884155 2.324070453643799
13.030473709106445 -0.7266494035720825 2.9742143154144287
13.126148223876953 -0.7273837924003601 2.323538303375244
12.973875045776367 -0.7165103554725647 1.6921974420547485
12.931442260742188 -0.7093072533607483 1.0464792251586914
12.815991401672363 -0.757285475730896 2.9818496704101562
12.979402542114258 -0.7624010443687439 2.3355448246002197
12.944103240966797 -0.7579147219657898 1.6950726509094238
12.923937797546387 -0.7518784999847412 1.0464962720870972
12.902304649353027 -0.7522858381271362 0.38787341117858887
12.815718650817871 -0.8021604418754578 2.9807944297790527
12.87716293334961 -0.8014839291572571 2.343506336212158
12.91899585723877 -0.8016906380653381 1.6972140073776245
12.916142463684082 -0.7966614961624146 1.0464658737182617
12.882379531860352 -0.7962412238121033 0.3910140097141266
11.992761611938477 -0.7925463914871216 3.013082504272461
12.886616706848145 -0.8472314476966858 2.341430187225342
12.935744285583496 -0.848061203956604 1.6934901475906372
12.917996406555176 -0.842040479183197 1.0445713996887207
12.910813331604004 -0.8432430624961853 0.3824354112148285
11.987385749816895 -0.8342179656028748 3.0122902393341064
12.938138008117676 -0.895986020565033 2.3355512619018555
12.158748626708984 -0.8888217806816101 3.004297971725464
12.932354927062988 -0.9409457445144653 2.334810972213745
12.175454139709473 -0.9327757954597473 3.0025787353515625
12.914002418518066 -0.9849277138710022 2.335190534591675
12.433523178100586 -0.9962490797042847 2.990983486175537
12.888054847717285 -1.0281983613967896 2.336245059967041
12.506905555725098 -1.0482804775238037 2.9868485927581787
12.928766250610352 -1.0791465044021606 2.331198215484619
12.45584774017334 -1.0877817869186401 2.987856864929199
12.417101860046387 -1.128071665763855 2.988360643386841
12.772008895874023 -1.248066782951355 2.971557855606079
33.63667678833008 -3.2783725261688232 0.44524964690208435
12.794867515563965 -1.295400619506836 2.9694724082946777
33.5975456237793 -3.3929715156555176 0.4452160894870758
12.8324556350708 -1.3444737195968628 2.9667646884918213
33.71651077270508 -3.523912191390991 0.43076011538505554
13.18771743774414 -1.428300142288208 2.9508323669433594
33.7730827331543 -3.6490345001220703 0.4219251275062561
13.371264457702637 -1.495440125465393 2.9419846534729004
33.883628845214844 -3.780672788619995 0.4081130027770996
15.951537132263184 -1.7697678804397583 0.4393354654312134
13.36095142364502 -1.5415184497833252 2.941192865371704
33.89225387573242 -3.9014477729797363 0.40354788303375244
15.94503116607666 -1.8254109621047974 0.43814364075660706
13.27331256866455 -1.5807042121887207 2.943571090698242
33.74150466918945 -4.009432792663574 0.41332754492759705
15.847759246826172 -1.8731350898742676 0.45424342155456543
12.642903327941895 -1.5503023862838745 2.968792200088501
33.801204681396484 -4.136222839355469 0.40401533246040344
15.911582946777344 -1.9370300769805908 0.4394542872905731
12.595240592956543 -1.5890899896621704 2.969618558883667
33.65047073364258 -4.237030029296875 0.413948118686676
16.092100143432617 -2.0160601139068604 0.4021288752555847
33.984432220458984 -4.40566873550415 2.067173957824707
33.62860107421875 -4.347597599029541 0.4122382700443268
15.926799774169922 -2.0490002632141113 0.4315013885498047
33.98111343383789 -4.525885105133057 2.0641098022460938
33.77094268798828 -4.485906600952148 0.3952009379863739
15.88767147064209 -2.100367546081543 0.43641605973243713
33.98975372314453 -4.647825717926025 2.0605196952819824
33.86091613769531 -4.618192672729492 0.38290998339653015
15.787553787231445 -2.1432228088378906 0.4530812203884125
33.9781608581543 -4.767104625701904 2.057766914367676
33.928184509277344 -4.748056888580322 0.3726494610309601
15.813789367675781 -2.203038454055786 0.4453200399875641
34.008174896240234 -4.892407417297363 2.0532267093658447
33.97524642944336 -4.875616073608398 0.36419573426246643
16.0221004486084 -2.289133071899414 0.40228861570358276
34.01054763793945 -5.013969421386719 2.0498387813568115
33.992271423339844 -4.999213695526123 0.35846641659736633
15.916603088378906 -2.3307766914367676 0.4199046790599823
34.022369384765625 -5.137100696563721 2.0460264682769775
33.99407196044922 -5.120764255523682 0.3540985584259033
15.866856575012207 -2.3800971508026123 0.4267127513885498
34.02540588378906 -5.265167713165283 2.042400598526001
33.989585876464844 -5.247559547424316 0.3500577211380005
15.833518028259277 -2.4344730377197266 0.4301723837852478
34.02151107788086 -5.386216163635254 2.0392160415649414
33.99787139892578 -5.370405673980713 0.3450015187263489
15.795585632324219 -2.485117197036743 0.43463799357414246
34.034446716308594 -5.510097980499268 2.0352885723114014
33.98851776123047 -5.490594863891602 0.34154075384140015
15.793852806091309 -2.5413827896118164 0.4320415258407593
34.034610748291016 -5.632096767425537 2.031888008117676
33.998382568359375 -5.614029884338379 0.3362509310245514
15.79676628112793 -2.5984649658203125 0.42850151658058167
34.04273223876953 -5.749472618103027 2.0282950401306152
33.998992919921875 -5.730012893676758 0.33200085163116455
15.756365776062012 -2.645519733428955 0.4335058033466339
34.0518798828125 -5.873330116271973 2.024463653564453
34.00798416137695 -5.853683948516846 0.3267045021057129
15.761321067810059 -2.7029683589935303 0.4294949769973755
34.06057357788086 -5.997323036193848 2.0206291675567627
34.00917434692383 -5.976195335388184 0.32209283113479614
15.746718406677246 -2.757093906402588 0.4292569160461426
34.07373046875 -6.122331619262695 2.0165767669677734
34.07661437988281 -6.245704174041748 2.012949228286743
34.106040954589844 -6.3742194175720215 2.0081379413604736
34.01253890991211 -6.344661235809326 0.30801382660865784
34.08233642578125 -6.499145030975342 2.005450963973999
33.983909606933594 -6.468304634094238 0.30579403042793274
16.095951080322266 -3.053480625152588 0.34792107343673706
34.08140182495117 -6.622331142425537 2.001922845840454
33.99021530151367 -6.592538356781006 0.3004816472530365
16.015060424804688 -3.0960984230041504 0.3604225218296051
34.08491516113281 -6.746559143066406 1.9981768131256104
34.025367736816406 -6.722687721252441 0.2924048602581024
16.076175689697266 -3.166194438934326 0.3450325131416321
34.03411102294922 -6.860031604766846 1.9968063831329346
34.035614013671875 -6.848251819610596 0.2866239547729492
16.07441520690918 -3.224195718765259 0.34193289279937744
34.001277923583984 -6.970814228057861 1.9948114156723022
33.963714599609375 -6.951054096221924 0.2888071835041046
16.171640396118164 -3.2995526790618896 0.31948813796043396
33.954620361328125 -7.084831714630127 1.9932334423065186
33.90000915527344 -7.061400890350342 0.2899479568004608
16.147764205932617 -3.353456735610962 0.32064089179039
33.91875076293945 -7.188941955566406 0.28324374556541443
16.111705780029297 -3.404696226119995 0.3241639733314514
33.87131118774414 -7.302530765533447 0.28277501463890076
16.202674865722656 -3.483083963394165 0.30257853865623474
33.90750503540039 -7.4463348388671875 1.984274983406067
33.8575325012207 -7.423343658447266 0.27907243371009827
16.137420654296875 -3.5280520915985107 0.31178849935531616
33.926177978515625 -7.580878257751465 1.9795234203338623
16.107357025146484 -3.5834121704101562 0.3138342499732971
33.8945198059082 -7.698114395141602 1.9771908521652222
16.11126708984375 -3.643378973007202 0.30930235981941223
33.85409927368164 -7.807069301605225 1.9754263162612915
33.990684509277344 -7.826519966125488 0.2510351240634918
16.127574920654297 -3.703354597091675 0.30245640873908997
33.88975143432617 -7.939978122711182 1.9700261354446411
33.98957443237305 -7.95131778717041 0.24592512845993042
33.88499069213867 -8.05748462677002 1.9666134119033813
34.01122283935547 -8.07544994354248 0.2388509064912796
33.86383056640625 -8.177441596984863 1.963733434677124
34.05034255981445 -8.210421562194824 0.22978350520133972
33.973228454589844 -8.32947063446045 1.9548981189727783
34.055084228515625 -8.33747673034668 0.2239641398191452
34.050472259521484 -8.47452163696289 1.9474798440933228
34.069007873535156 -8.46706485748291 0.21720930933952332
34.090789794921875 -8.61103630065918 1.9417067766189575
34.070377349853516 -8.5938081741333 0.2116151601076126
34.09185791015625 -8.738011360168457 1.9376987218856812
34.10503387451172 -8.729310035705566 0.20275448262691498
34.09815216064453 -8.872933387756348 1.9332250356674194
34.11110305786133 -8.864227294921875 0.19632278382778168
34.13446807861328 -9.009719848632812 1.9275420904159546
34.13505935668945 -8.997795104980469 0.18838149309158325
34.138885498046875 -9.138472557067871 1.923297643661499
34.146484375 -9.128425598144531 0.1816016584634781
34.123531341552734 -9.262127876281738 1.919942855834961
34.14059066772461 -9.254684448242188 0.17645470798015594
34.122188568115234 -9.389766693115234 1.9159165620803833
34.10063552856445 -9.371779441833496 0.17458193004131317
34.12757110595703 -9.519522666931152 1.91155207157135
34.11302185058594 -9.503405570983887 0.16755883395671844
34.1252555847168 -9.647391319274902 1.907519817352295
34.03867721557617 -9.610880851745605 0.16897082328796387
34.12247085571289 -9.775360107421875 1.90348482131958
34.0716667175293 -9.748771667480469 0.15983286499977112
34.13185501098633 -9.913559913635254 1.8986437320709229
34.05457305908203 -9.87908935546875 0.15525393187999725
34.1352653503418 -10.043889999389648 1.8942639827728271
34.06978225708008 -10.01259994506836 0.1477493792772293
34.147743225097656 -10.177217483520508 1.8894294500350952
34.05106735229492 -10.136390686035156 0.1435307264328003
34.130428314208984 -10.295414924621582 1.8861876726150513
33.96460723876953 -10.233413696289062 0.14626377820968628
19.765718460083008 -5.951083660125732 0.5220341682434082
34.14193344116211 -10.42905044555664 1.881345510482788
33.99747085571289 -10.372934341430664 0.13686783611774445
19.612064361572266 -5.979588985443115 0.5405465960502625
34.150535583496094 -10.562150955200195 1.876611590385437
34.0606803894043 -10.522361755371094 0.12440037727355957
19.48682975769043 -6.015857696533203 0.5547906756401062
34.15862274169922 -10.695440292358398 1.8718730211257935
34.059120178222656 -10.652294158935547 0.11828874796628952
19.314350128173828 -6.036559104919434 0.576204240322113
34.180477142333984 -10.833444595336914 1.866446852684021
34.06656265258789 -10.785348892211914 0.11122900247573853
19.182069778442383 -6.068822860717773 0.591559886932373
34.199405670166016 -10.970967292785645 1.861128807067871
34.109039306640625 -10.929981231689453 0.10062239319086075
19.054515838623047 -6.101748466491699 0.6062172055244446
34.177406311035156 -11.09564208984375 1.8577431440353394
18.94344711303711 -6.139199733734131 0.618385374546051
34.188175201416016 -11.23121166229248 1.8527575731277466
18.88877296447754 -6.194462299346924 0.6219685077667236
34.167598724365234 -11.35675048828125 1.8492556810379028
18.852731704711914 -6.25565242767334 0.6226903200149536
34.172603607177734 -11.49103832244873 1.8444914817810059
18.83525276184082 -6.32296895980835 0.6205459237098694
34.17032241821289 -11.629855155944824 1.8398233652114868
18.832809448242188 -6.399097442626953 0.615818977355957
34.16511535644531 -11.767992973327637 1.8352659940719604
18.82537841796875 -6.473682880401611 0.6118084788322449
34.17323303222656 -11.904400825500488 1.8302596807479858
34.159366607666016 -12.026748657226562 1.8265317678451538
34.18528366088867 -12.170172691345215 1.820592999458313
34.13992691040039 -12.281744956970215 1.8183623552322388
16.63922119140625 -5.976353645324707 0.9300136566162109
34.150699615478516 -12.420439720153809 1.8131097555160522
18.922447204589844 -6.871428966522217 0.5720842480659485
34.177330017089844 -12.565393447875977 1.8070381879806519
16.243925094604492 -5.9566969871521 0.10977119207382202
34.243160247802734 -12.72547435760498 1.7989833354949951
18.855024337768555 -6.99641752243042 0.5720979571342468
16.18597412109375 -5.999686241149902 0.11623753607273102
34.32698440551758 -12.893194198608398 1.7899831533432007
18.841846466064453 -7.066506862640381 0.5688654780387878
16.178464889526367 -6.061285972595215 0.11212123930454254
34.3237190246582 -13.03573226928711 1.785032868385315
18.841035842895508 -7.145139694213867 0.5633975267410278
16.130640029907227 -6.11094856262207 0.11612869799137115
34.324520111083984 -13.173330307006836 1.7800922393798828
18.84579086303711 -7.222346782684326 0.5572769641876221
16.150196075439453 -6.182981491088867 0.10623477399349213
34.33640670776367 -13.315604209899902 1.7745627164840698
18.845619201660156 -7.297886371612549 0.5518757104873657
34.34309768676758 -13.449396133422852 1.7695093154907227
18.844141006469727 -7.36932373046875 0.5469051003456116
34.34225845336914 -13.58753776550293 1.7645543813705444
18.845691680908203 -7.445939540863037 0.5411380529403687
34.32695770263672 -13.7202730178833 1.760301113128662
18.844636917114258 -7.521738529205322 0.5357296466827393
34.33662033081055 -13.863353729248047 1.7547516822814941
18.852458953857422 -7.601322174072266 0.528873085975647
34.37113952636719 -14.017043113708496 1.747900128364563
18.853078842163086 -7.678253173828125 0.5230980515480042
34.3680534362793 -14.155921936035156 1.7429275512695312
18.860252380371094 -7.758105754852295 0.5162348747253418
34.385169982910156 -14.303585052490234 1.7368870973587036
18.83968734741211 -7.8267107009887695 0.5137144923210144
34.39015579223633 -14.446703910827637 1.7314318418502808
18.84168243408203 -7.904839992523193 0.5075706839561462
34.39890670776367 -14.598959922790527 1.725484013557434
18.864728927612305 -7.996021270751953 0.4977273643016815
34.4026985168457 -14.742518424987793 1.7200173139572144
18.87513542175293 -8.07834243774414 0.4901254177093506
34.39444351196289 -14.881322860717773 1.7151405811309814
18.87384605407715 -8.155926704406738 0.48433414101600647
34.4130973815918 -15.032245635986328 1.7088308334350586
18.890378952026367 -8.241515159606934 0.47563639283180237
18.914796829223633 -8.32701301574707 0.4659152030944824
34.4808349609375 -15.342212677001953 1.6947696208953857
18.957714080810547 -8.425108909606934 0.4528462290763855
34.436065673828125 -15.466537475585938 1.6916638612747192
16.520105361938477 -7.410759449005127 0.8393293619155884
34.41584777832031 -15.60207748413086 1.6872429847717285
16.42409324645996 -7.436720848083496 0.8493462800979614
34.43825149536133 -15.757410049438477 1.6805428266525269
16.440574645996094 -7.513516902923584 0.8411803245544434
34.437313079833984 -15.902618408203125 1.6750352382659912
16.427526473999023 -7.577051162719727 0.8377421498298645
34.44429016113281 -16.059297561645508 1.6687895059585571
16.356836318969727 -7.617339134216309 0.8433480262756348
34.43760299682617 -16.20278549194336 1.663512945175171
16.3232364654541 -7.671206951141357 0.8431933522224426
34.455142974853516 -16.358205795288086 1.656904697418213
16.325212478637695 -7.7418928146362305 0.8372082114219666
34.44499588012695 -16.500999450683594 1.6517382860183716
16.31127166748047 -7.805212020874023 0.8337737917900085
34.46415710449219 -16.650949478149414 1.645248532295227
34.479759216308594 -16.80722427368164 1.6386202573776245
34.48125457763672 -16.957197189331055 1.6327118873596191
34.49776840209961 -17.115158081054688 1.6259480714797974
34.4801139831543 -17.256671905517578 1.6210001707077026
16.593271255493164 -8.295907974243164 0.7581608891487122
34.456607818603516 -17.403160095214844 1.6160404682159424
16.553707122802734 -8.352185249328613 0.7582921385765076
34.39107131958008 -17.521024703979492 1.6136503219604492
16.513227462768555 -8.404281616210938 0.758856475353241
34.34733581542969 -17.650060653686523 1.610042929649353
16.474788665771484 -8.457326889038086 0.7590579390525818
34.332828521728516 -17.786800384521484 1.6051006317138672
16.479400634765625 -8.528942108154297 0.7523666620254517
34.281471252441406 -17.91228485107422 1.6018610000610352
16.51728630065918 -8.621870040893555 0.7397456169128418
34.298118591308594 -18.073715209960938 1.5948222875595093
16.434368133544922 -8.651793479919434 0.7472805380821228
34.2501220703125 -18.201494216918945 1.5913370847702026
16.44317626953125 -8.729958534240723 0.7394199967384338
34.32269287109375 -18.3940372467041 1.5810884237289429
16.333919525146484 -8.745247840881348 0.7513718605041504
34.40092849731445 -18.590866088867188 1.5704536437988281
16.163829803466797 -8.72697925567627 0.7736169099807739
34.30829620361328 -18.70363998413086 1.5690436363220215
16.083749771118164 -8.760109901428223 0.7803976535797119
34.264549255371094 -18.83527946472168 1.5651795864105225
16.02035903930664 -8.798315048217773 0.7846772074699402
34.298912048339844 -19.010417938232422 1.5568640232086182
16.24243927001953 -8.994340896606445 0.7404359579086304
34.371707916259766 -19.20795249938965 1.546307921409607
16.21289825439453 -9.052162170410156 0.738822877407074
34.47520446777344 -19.41615104675293 1.534255862236023
16.23862648010254 -9.137386322021484 0.7280746102333069
34.44834518432617 -19.559762954711914 1.529252052307129
16.303205490112305 -9.2489013671875 0.710263192653656
34.49673080444336 -19.746841430664062 1.5198944807052612
16.40154457092285 -9.380626678466797 0.6865464448928833
34.50531005859375 -19.912033081054688 1.5127644538879395
15.963648796081543 -9.204318046569824 0.7549256086349487
34.52394104003906 -20.08380126953125 1.5050039291381836
16.027414321899414 -9.315886497497559 0.7371121048927307
34.516719818115234 -20.24933433532715 1.4983506202697754
16.0548038482666 -9.410806655883789 0.7251251339912415
34.527347564697266 -20.417957305908203 1.4909491539001465
16.108930587768555 -9.51834487915039 0.7087647318840027
34.5415153503418 -20.589462280273438 1.4832887649536133
16.092391967773438 -9.584615707397461 0.7045742273330688
34.54354476928711 -20.746280670166016 1.4766311645507812
16.079402923583984 -9.649354934692383 0.7000754475593567
34.566890716552734 -20.92488670349121 1.4683282375335693
16.134265899658203 -9.75915241241455 0.683323085308075
34.563838958740234 -21.088300704956055 1.461523175239563
34.54092025756836 -21.24017906188965 1.4558446407318115
34.534332275390625 -21.402677536010742 1.4491556882858276
34.49950408935547 -21.548185348510742 1.444101095199585
34.52536392211914 -21.732295989990234 1.4353820085525513
34.47234344482422 -21.867355346679688 1.4313325881958008
34.43598175048828 -22.021764755249023 1.4258843660354614
34.50986099243164 -22.23918342590332 1.414101004600525
34.58238220214844 -22.448631286621094 1.402687668800354
34.57261657714844 -22.61427879333496 1.3958266973495483
34.57670974731445 -22.789749145507812 1.388068675994873
34.52800369262695 -22.930988311767578 1.383489727973938
34.530601501464844 -23.106882095336914 1.3757221698760986
34.532386779785156 -23.283069610595703 1.3679462671279907
34.62837600708008 -23.532943725585938 1.3538885116577148
34.67771530151367 -23.743915557861328 1.343016505241394
34.6807861328125 -23.924335479736328 1.3349509239196777
34.6749382019043 -24.0904598236084 1.3277828693389893
34.73161315917969 -24.310102462768555 1.3162314891815186
34.779232025146484 -24.890321731567383 1.288838267326355
34.78514099121094 -25.078704833984375 1.280203104019165
34.77602005004883 -25.257158279418945 1.2724660634994507
34.77370834350586 -25.45076560974121 1.2638109922409058
34.7648811340332 -25.631223678588867 1.2559303045272827
34.80131530761719 -25.846162796020508 1.2450584173202515
34.78669738769531 -26.024282455444336 1.2374213933944702
34.798362731933594 -26.203994750976562 1.2288782596588135
34.82451629638672 -26.40519142150879 1.218889832496643
34.82653045654297 -26.608402252197266 1.2095319032669067
34.83220672607422 -26.805904388427734 1.200299620628357
34.84284591674805 -27.008358001708984 1.1906672716140747
34.838714599609375 -27.200454711914062 1.1819405555725098
34.84740447998047 -27.403661727905273 1.172289252281189
34.8492317199707 -27.602603912353516 1.163021445274353
34.853031158447266 -27.81420135498047 1.1530842781066895
34.847023010253906 -28.009166717529297 1.1441940069198608
34.787689208984375 -28.16201400756836 1.1388510465621948
34.76060104370117 -28.34160614013672 1.131266713142395
34.70760726928711 -28.500761032104492 1.1253949403762817
34.823204040527344 -28.799907684326172 1.107896327972412
34.87384033203125 -29.047475814819336 1.0947359800338745
34.86196517944336 -29.244407653808594 1.0857962369918823
34.85866928100586 -29.449661254882812 1.0761862993240356
34.856781005859375 -29.667800903320312 1.0659010410308838
34.85898971557617 -29.8802433013916 1.0557427406311035
34.87335968017578 -30.104482650756836 1.0446429252624512
34.89412307739258 -30.33573341369629 1.0329997539520264
34.88334655761719 -30.530162811279297 1.024013638496399
34.8681640625 -30.73259162902832 1.014750599861145
34.84825897216797 -30.93197250366211 1.0057481527328491
34.849708557128906 -31.15154457092285 0.9951348900794983
34.92056655883789 -31.434982299804688 0.979423463344574
34.92142868041992 -31.657255172729492 0.9686506390571594
20.70830535888672 -18.767221450805664 0.6200647950172424
34.937747955322266 -31.89505958557129 0.9566612243652344
34.90321350097656 -32.08774185180664 0.9482863545417786
34.91721725463867 -32.32636642456055 0.9362756013870239
34.92041778564453 -32.579368591308594 0.9238451719284058
34.94457244873047 -32.830936431884766 0.9108668565750122
19.925827026367188 -18.715585708618164 0.6748133301734924
34.98009490966797 -33.0950813293457 0.8969314694404602
19.798751831054688 -18.72689437866211 0.6819939017295837
19.671844482421875 -18.7375431060791 0.6891893148422241
19.56484603881836 -18.7664737701416 0.6935666799545288
-13.991459369659424 27.73146629333496 0.599357008934021
-11.766353130340576 27.73146629333496 0.599357008934021
-11.766353130340576 34.20153999328613 0.599357008934021
-13.991459369659424 34.20153999328613 0.599357008934021
-13.991459369659424 27.73146629333496 3.236580491065979
-11.766353130340576 27.73146629333496 3.236580491065979
-11.766353130340576 34.20153999328613 3.236580491065979
-13.991459369659424 34.20153999328613 3.236580491065979
19.175827205181122 -16.956620693206787 -0.16834807395935059
20.868598759174347 -16.956620693206787 -0.16834807395935059
20.868598759174347 -12.835951328277588 -0.16834807395935059
19.175827205181122 -12.835951328277588 -0.16834807395935059
19.175827205181122 -16.956620693206787 1.3812386989593506
20.868598759174347 -16.956620693206787 1.3812386989593506
20.868598759174347 -12.835951328277588 1.3812386989593506
19.175827205181122 -12.835951328277588 1.3812386989593506
18.832428097724915 -9.844630479812622 -0.12041312456130981
20.46991717815399 -9.844630479812622 -0.12041312456130981
20.46991717815399 -5.889553785324097 -0.12041312456130981
18.832428097724915 -5.889553785324097 -0.12041312456130981
