# .PCD v0.7 - Point Cloud Data file format
VERSION 0.7
FIELDS x y z
SIZE 4 4 4
TYPE F F F
COUNT 1 1 1
WIDTH 852
HEIGHT 1
VIEWPOINT 0 0 0 1 0 0 0
POINTS 852
DATA ascii
34.31079864501953 -12.932313919067383 1.3006600141525269
34.30318832397461 -13.170432090759277 1.291122555732727
34.332054138183594 -13.423845291137695 1.278961420059204
34.33220291137695 -13.667404174804688 1.2686325311660767
34.35562515258789 -13.921588897705078 1.2565622329711914
34.36060333251953 -14.16972827911377 1.245626449584961
34.36935043334961 -14.420767784118652 1.2342907190322876
34.37446594238281 -14.671666145324707 1.2230675220489502
29.604961395263672 -12.851249694824219 1.548038125038147
29.545387268066406 -13.041467666625977 1.5426565408706665
34.446414947509766 -15.458178520202637 1.1845190525054932
34.43051528930664 -15.7056245803833 1.1742000579833984
34.44184494018555 -15.966887474060059 1.161792278289795
34.443138122558594 -16.225053787231445 1.1499524116516113
34.45064926147461 -16.487714767456055 1.1375083923339844
34.464298248291016 -16.755002975463867 1.1244606971740723
34.48223114013672 -17.026172637939453 1.1109347343444824
34.4758186340332 -17.287010192871094 1.0990276336669922
34.40703582763672 -17.517621994018555 1.0915731191635132
34.37749099731445 -17.769119262695312 1.081093192100525
34.42743682861328 -18.063568115234375 1.0645396709442139
34.40460205078125 -18.321773529052734 1.0532389879226685
34.45625686645508 -18.621652603149414 1.0361707210540771
34.40315628051758 -18.866716384887695 1.0268266201019287
30.794458389282227 -17.134353637695312 1.2881479263305664
34.58375930786133 -19.521791458129883 0.98577880859375
34.592891693115234 -19.80792808532715 0.9711211323738098
34.5523567199707 -20.067350387573242 0.9601156115531921
34.57182693481445 -20.36347770690918 0.9442865252494812
34.59152603149414 -20.66213607788086 0.9282329082489014
34.558509826660156 -20.931303024291992 0.9161137938499451
34.5540885925293 -21.219636917114258 0.9015644788742065
34.53386688232422 -21.500268936157227 0.8880734443664551
34.595027923583984 -21.83416748046875 0.8678908348083496
34.57017517089844 -22.11639404296875 0.8543601036071777
34.609291076660156 -22.442020416259766 0.8354695439338684
34.62234878540039 -22.75361442565918 0.8184449672698975
34.563133239746094 -23.019750595092773 0.8071004748344421
34.75333786010742 -23.455692291259766 0.7750729322433472
34.72618865966797 -23.748960494995117 0.7606185674667358
34.741024017333984 -24.073463439941406 0.7424629926681519
34.747459411621094 -24.3950252532959 0.7247605919837952
34.81871795654297 -24.765562057495117 0.7013508081436157
34.827640533447266 -25.095317840576172 0.682905375957489
34.80239486694336 -25.403167724609375 0.6671122908592224
34.834835052490234 -25.756135940551758 0.6461433172225952
34.84667205810547 -26.097301483154297 0.6266576051712036
34.853240966796875 -26.437767028808594 0.6073505878448486
34.86009979248047 -26.781723022460938 0.5877413153648376
34.875057220458984 -27.135334014892578 0.5671370625495911
34.89716720581055 -27.498159408569336 0.5456010699272156
34.887271881103516 -27.839250564575195 0.5266039371490479
34.80931854248047 -28.128582000732422 0.513424813747406
34.804012298583984 -28.47928810119629 0.4934846758842468
34.87712097167969 -28.89845085144043 0.46612536907196045
34.90435028076172 -29.284311294555664 0.4425610899925232
34.905338287353516 -29.652210235595703 0.421061247587204
34.9401741027832 -30.053098678588867 0.3961007297039032
34.918724060058594 -30.4096622467041 0.37601447105407715
34.8972053527832 -30.769731521606445 0.3556259274482727
34.92688751220703 -31.17917251586914 0.33007553219795227
34.716033935546875 -31.3760986328125 0.3270438313484192
34.964027404785156 -31.992475509643555 0.27992409467697144
34.94083786010742 -32.36766815185547 0.2582952380180359
35.0511360168457 -32.872066497802734 0.22333446145057678
34.9453125 -33.178470611572266 0.20901189744472504
32.33671188354492 30.85426139831543 1.4903873205184937
32.40372085571289 30.540918350219727 1.4944164752960205
32.32554244995117 30.095195770263672 1.5078238248825073
32.46149444580078 29.852399826049805 1.506966471672058
32.51361846923828 29.534517288208008 1.511452078819275
32.462703704833984 29.1270694732666 1.5224705934524536
32.399051666259766 28.713417053222656 1.5341025590896606
32.5465087890625 28.48979949951172 1.5318892002105713
32.561729431152344 28.15243911743164 1.5380713939666748
32.577842712402344 27.819211959838867 1.5440244674682617
32.59644317626953 27.491355895996094 1.5496501922607422
32.61301803588867 27.164960861206055 1.555241346359253
32.615257263183594 26.82988166809082 1.5615813732147217
32.61772155761719 26.498321533203125 1.5677430629730225
32.652408599853516 26.19586944580078 1.5717072486877441
32.65800476074219 25.87290382385254 1.5773571729660034
32.6718864440918 25.559473037719727 1.5823308229446411
32.695804595947266 25.256616592407227 1.5865272283554077
32.70930099487305 24.948373794555664 1.5912305116653442
32.69951248168945 24.62529754638672 1.5972380638122559
32.745506286621094 24.346786499023438 1.5996311902999878
32.737789154052734 24.030813217163086 1.6052213907241821
32.53334045410156 23.5752010345459 1.6228266954421997
32.55849838256836 23.290359497070312 1.6260735988616943
32.65889358520508 23.060827255249023 1.6245628595352173
32.61595153808594 22.732145309448242 1.631742000579834
32.71750259399414 22.506181716918945 1.629927396774292
32.709266662597656 22.206336975097656 1.6347167491912842
32.730953216552734 21.929121017456055 1.6375503540039062
32.67966079711914 21.605661392211914 1.6447023153305054
32.72098922729492 21.34586524963379 1.6460901498794556
32.78136444091797 21.09988784790039 1.6462093591690063
32.79105758666992 20.822921752929688 1.6492863893508911
32.778282165527344 20.533910751342773 1.653601884841919
32.749603271484375 20.237436294555664 1.6587536334991455
32.67418670654297 19.915063858032227 1.6665959358215332
32.620025634765625 19.608787536621094 1.6730307340621948
32.80989456176758 19.450088500976562 1.6646969318389893
32.83953857421875 19.196556091308594 1.6658849716186523
32.872501373291016 18.946380615234375 1.6667680740356445
32.87498474121094 18.680246353149414 1.6693674325942993
32.80312728881836 18.37428855895996 1.676293969154358
32.88175582885742 18.15438461303711 1.67413330078125
32.98172378540039 17.946619033813477 1.670608401298523
33.00910186767578 17.700082778930664 1.6713072061538696
33.01968765258789 17.445953369140625 1.6729021072387695
33.03371047973633 17.19512939453125 1.6741914749145508
33.050350189208984 16.947067260742188 1.6752256155014038
33.06163024902344 16.697647094726562 1.6764768362045288
33.06483459472656 16.445613861083984 1.6781072616577148
33.084136962890625 16.20295524597168 1.678687572479248
33.09540939331055 15.957640647888184 1.6796455383300781
33.10943603515625 15.714940071105957 1.680345058441162
33.123538970947266 15.473512649536133 1.6809452772140503
33.123233795166016 15.226664543151855 1.6823002099990845
33.14752960205078 14.99233627319336 1.6821116209030151
33.11546325683594 14.733925819396973 1.685147762298584
33.117156982421875 14.492087364196777 1.6861035823822021
33.134559631347656 14.258281707763672 1.686044692993164
33.142066955566406 14.021305084228516 1.686476230621338
33.18294906616211 13.79934310913086 1.6848582029342651
33.19371032714844 13.565696716308594 1.684920072555542
33.23806381225586 13.346574783325195 1.68292236328125
33.0831298828125 13.04937744140625 1.6925290822982788
33.12879180908203 12.83321475982666 1.6902787685394287
33.566890716552734 12.766778945922852 1.6649270057678223
33.66303253173828 12.56762409210205 1.6595476865768433
33.71205139160156 12.350937843322754 1.6568461656570435
33.7361946105957 12.125678062438965 1.6555169820785522
33.74471664428711 11.895604133605957 1.6550170183181763
33.75640106201172 11.66751480102539 1.6542465686798096
33.749542236328125 11.433961868286133 1.6544779539108276
33.761940002441406 11.207852363586426 1.6534966230392456
33.77568435668945 10.98294448852539 1.6523513793945312
33.79935836791992 10.761924743652344 1.6505403518676758
33.808250427246094 10.536869049072266 1.6495131254196167
33.821380615234375 10.313855171203613 1.648153305053711
33.80243682861328 10.08194351196289 1.6485950946807861
33.824092864990234 9.86294937133789 1.6465703248977661
33.832820892333984 9.640785217285156 1.645222783088684
33.84105682373047 9.419150352478027 1.6438237428665161
33.8526611328125 9.199087142944336 1.6421430110931396
33.86670684814453 8.980257987976074 1.6402391195297241
33.87354278564453 8.760100364685059 1.638677954673767
33.884761810302734 8.541661262512207 1.636778473854065
33.900390625 8.324841499328613 1.634537935256958
33.899105072021484 8.104435920715332 1.6332149505615234
33.90708541870117 7.886845588684082 1.6312659978866577
33.91854476928711 7.670563220977783 1.6290322542190552
33.92570114135742 7.453792095184326 1.6269714832305908
33.94123840332031 7.239304542541504 1.6243361234664917
33.9603157043457 7.025915145874023 1.6214109659194946
33.97511291503906 6.811975002288818 1.618659257888794
33.97386169433594 6.595262050628662 1.6167800426483154
33.9653434753418 6.37771463394165 1.6152546405792236
33.97803497314453 6.16461706161499 1.6123906373977661
33.99332046508789 5.952291965484619 1.6092934608459473
34.008262634277344 5.740174770355225 1.6061350107192993
34.017940521240234 5.527457237243652 1.6032122373580933
34.02432632446289 5.3145270347595215 1.6004077196121216
34.020484924316406 5.100393772125244 1.5981354713439941
34.033084869384766 4.889060974121094 1.5948009490966797
34.05031204223633 4.678578853607178 1.5911099910736084
34.063262939453125 4.467679023742676 1.5875942707061768
34.06599426269531 4.25568151473999 1.5846143960952759
34.074344635009766 4.044640064239502 1.5812166929244995
33.53779602050781 3.7725019454956055 1.6106081008911133
33.5084342956543 3.5612244606018066 1.6093789339065552
33.567138671875 3.3593945503234863 1.6027511358261108
33.632568359375 3.1577234268188477 1.5956271886825562
33.65303039550781 2.9515366554260254 1.5911418199539185
33.66328048706055 2.744485855102539 1.5871973037719727
33.67523956298828 2.5376436710357666 1.5830683708190918
33.68095016479492 2.3304121494293213 1.5792412757873535
33.6744270324707 2.122513771057129 1.5760823488235474
33.65864562988281 1.91432785987854 1.5734119415283203
33.662513732910156 1.7074761390686035 1.5694636106491089
13.04443359375 0.5812041163444519 2.8322248458862305
13.025712013244629 0.5003350973129272 2.8318779468536377
13.02245044708252 0.4202325940132141 2.8305513858795166
33.730133056640625 0.8820741176605225 1.5496504306793213
33.729652404785156 0.6750575304031372 1.5455659627914429
33.743865966796875 0.4683002531528473 1.5404891967773438
12.7589693069458 0.098531074821949 2.8405117988586426
33.75651550292969 0.05432218313217163 1.531067967414856
12.6632080078125 -0.05756737291812897 2.84316349029541
12.678486824035645 -0.135412335395813 2.8405120372772217
33.79190444946289 -0.5675227046012878 1.5152876377105713
12.792412757873535 -0.2936135530471802 2.829867362976074
33.80180740356445 -0.9826076626777649 1.505204200744629
33.810829162597656 -1.1904902458190918 1.4997799396514893
33.817569732666016 -1.3984808921813965 1.4944132566452026
12.574604034423828 -0.5975667834281921 2.836264133453369
13.004105567932129 -0.6979401707649231 2.80706787109375
12.850046157836914 -0.7687591910362244 2.8148860931396484
12.897765159606934 -0.8510474562644958 2.80983304977417
33.87187194824219 -2.443084716796875 1.4649689197540283
12.539917945861816 -0.9821048378944397 2.82867693901062
33.87856674194336 -2.861788272857666 1.4535343647003174
33.889915466308594 -3.072246789932251 1.4471688270568848
12.762775421142578 -1.2362477779388428 2.8080062866210938
33.90668487548828 -3.4936962127685547 1.4345461130142212
13.336691856384277 -1.4571971893310547 2.7662746906280518
13.822065353393555 -1.5960825681686401 2.7322683334350586
33.94575881958008 -4.130392074584961 1.414009690284729
33.94028091430664 -4.3411946296691895 1.4081865549087524
33.965145111083984 -4.556332111358643 1.40027916431427
33.96393966674805 -4.768470764160156 1.3939883708953857
33.97819137573242 -4.983229637145996 1.3865830898284912
34.003902435302734 -5.20030403137207 1.3783169984817505
34.00359344482422 -5.413962364196777 1.3716778755187988
34.00193405151367 -5.627813339233398 1.3650329113006592
34.00385284423828 -5.84269380569458 1.3580527305603027
29.254701614379883 -5.211721897125244 1.6698802709579468
34.02616882324219 -6.277320384979248 1.342553734779358
34.053375244140625 -6.4986348152160645 1.3335652351379395
34.022361755371094 -6.709323883056641 1.3284099102020264
33.9538688659668 -6.9125142097473145 1.325714349746704
33.9115104675293 -7.1208600997924805 1.3211647272109985
33.92345428466797 -7.340976238250732 1.312817096710205
33.951499938964844 -7.565413951873779 1.3032548427581787
33.99070358276367 -7.793371200561523 1.2928073406219482
34.03518295288086 -8.023697853088379 1.2818713188171387
34.06647491455078 -8.252045631408691 1.2717230319976807
34.06816101074219 -8.47409725189209 1.263511061668396
34.102237701416016 -8.705117225646973 1.2529277801513672
34.0913200378418 -8.925504684448242 1.2453693151474
34.110782623291016 -9.154621124267578 1.235569953918457
34.123897552490234 -9.382989883422852 1.226095199584961
34.123008728027344 -9.608349800109863 1.2174923419952393
34.13884735107422 -9.839303970336914 1.2075849771499634
34.132080078125 -10.064605712890625 1.1991655826568604
34.12287139892578 -10.289909362792969 1.19080650806427
34.15604019165039 -10.528997421264648 1.1792889833450317
34.17803192138672 -10.765883445739746 1.1684386730194092
34.15756607055664 -10.990297317504883 1.160528540611267
34.13278579711914 -11.213933944702148 1.152819275856018
34.157615661621094 -11.454806327819824 1.1413798332214355
34.18171691894531 -11.696730613708496 1.1298528909683228
34.18811798095703 -11.933793067932129 1.1194860935211182
34.17033004760742 -12.163346290588379 1.1107717752456665
34.13225555419922 -12.38632583618164 1.1034404039382935
34.27798843383789 -12.677811622619629 1.0823190212249756
34.3028564453125 -12.92687702178955 1.0700072050094604
34.29988098144531 -13.166714668273926 1.0596330165863037
34.31290054321289 -13.413904190063477 1.0479166507720947
34.33529281616211 -13.66617488861084 1.0353420972824097
34.34292984008789 -13.913981437683105 1.0237325429916382
34.36080551147461 -14.167340278625488 1.0111929178237915
34.36581802368164 -14.4168119430542 0.9994814395904541
34.37272262573242 -14.66844367980957 0.9874720573425293
34.379661560058594 -14.92149829864502 0.9753051400184631
29.522619247436523 -13.029409408569336 1.340732455253601
34.43267059326172 -15.449515342712402 0.9474461674690247
34.411319732666016 -15.694368362426758 0.9370042085647583
34.426265716552734 -15.957159996032715 0.9235609769821167
34.44378662109375 -16.222850799560547 0.9097428917884827
34.45753860473633 -16.488494873046875 0.8960472345352173
34.456756591796875 -16.748815536499023 0.8833354115486145
34.463016510009766 -17.01416015625 0.8698909282684326
34.472660064697266 -17.282894134521484 0.8559973239898682
34.40829849243164 -17.515737533569336 0.8479135632514954
34.371612548828125 -17.7635555267334 0.8374525904655457
34.42061996459961 -18.057449340820312 0.8198366165161133
34.41183853149414 -18.323083877563477 0.806747555732727
34.41951370239258 -18.599246978759766 0.7921218276023865
34.3918571472168 -18.85797119140625 0.78023362159729
30.826393127441406 -17.149930953979492 1.0631693601608276
34.57668685913086 -19.515216827392578 0.7358283996582031
34.593563079833984 -19.805727005004883 0.7195759415626526
34.57194900512695 -20.076139450073242 0.7063678503036499
34.56807327270508 -20.358675003051758 0.6914647221565247
34.59627914428711 -20.662370681762695 0.6736138463020325
34.603275299072266 -20.955812454223633 0.6573503017425537
34.58671951293945 -21.237071990966797 0.6429023742675781
34.56039047241211 -21.51417350769043 0.6291013956069946
34.57834243774414 -21.821020126342773 0.6112329959869385
34.55265426635742 -22.10256576538086 0.5969568490982056
34.59760665893555 -22.43181610107422 0.5762353539466858
34.630638122558594 -22.75642204284668 0.5562945008277893
34.58461380004883 -23.031423568725586 0.5431472063064575
34.69853210449219 -23.41604995727539 0.5154320597648621
34.740692138671875 -23.75621795654297 0.4938390552997589
34.7496452331543 -24.076766967773438 0.4749692380428314
34.75514602661133 -24.397747039794922 0.45614907145500183
34.828704833984375 -24.769977569580078 0.43080371618270874
34.8108024597168 -25.080490112304688 0.41357290744781494
34.79361343383789 -25.39406394958496 0.3960237503051758
34.82599639892578 -25.746898651123047 0.3735769987106323
34.837791442871094 -26.08793830871582 0.3527511656284332
34.81888961791992 -26.408994674682617 0.3345326781272888
34.85507583618164 -26.775144577026367 0.3107924163341522
34.85343551635742 -27.11578941345215 0.29033803939819336
34.852840423583984 -27.460498809814453 0.2694813907146454
34.84463882446289 -27.802494049072266 0.24905404448509216
34.731937408447266 -28.063323974609375 0.23853354156017303
34.750850677490234 -28.43305206298828 0.21488486230373383
34.86479949951172 -28.885488510131836 0.18147270381450653
34.90574264526367 -29.28271484375 0.15485478937625885
34.892948150634766 -29.638919830322266 0.1332303285598755
34.9156379699707 -30.029226303100586 0.10768798738718033
30.324481964111328 -28.78887176513672 0.3978803753852844
32.34714889526367 30.8657169342041 1.2237228155136108
32.38589096069336 30.5256290435791 1.2308435440063477
32.31718063354492 30.088926315307617 1.245696783065796
32.45380783081055 29.84686851501465 1.2451714277267456
32.503692626953125 29.527053833007812 1.250862717628479
32.45798110961914 29.124391555786133 1.2633459568023682
32.41454315185547 28.72870635986328 1.2754243612289429
32.54253387451172 28.48790168762207 1.2748451232910156
32.54265594482422 28.137540817260742 1.283362865447998
32.55869674682617 27.804466247558594 1.2905330657958984
32.5749397277832 27.474830627441406 1.2974995374679565
32.602176666259766 27.157548904418945 1.303492784500122
32.60747528076172 26.825111389160156 1.3108711242675781
32.63163375854492 26.511262893676758 1.3167251348495483
32.63603973388672 26.18438148498535 1.3238036632537842
32.64002227783203 25.860307693481445 1.3307335376739502
32.668785095214844 25.558706283569336 1.3357430696487427
32.69271469116211 25.255897521972656 1.3409287929534912
32.70225524902344 24.944673538208008 1.346958875656128
32.70363235473633 24.630081176757812 1.353392481803894
32.732032775878906 24.338457107543945 1.3577810525894165
32.74119186401367 24.035005569458008 1.3633503913879395
32.5303955078125 23.574748992919922 1.3839733600616455
32.58722686767578 23.312604904174805 1.3859026432037354
32.66816711425781 23.069082260131836 1.3860360383987427
32.69083786010742 22.78605079650879 1.3900448083877563
32.70551681518555 22.499645233154297 1.3944569826126099
32.66504669189453 22.178028106689453 1.4024909734725952
32.6923713684082 21.904996871948242 1.4057458639144897
32.725914001464844 21.637969970703125 1.4084428548812866
32.72814178466797 21.352264404296875 1.4131313562393188
32.7457389831543 21.078697204589844 1.416640281677246
32.78986740112305 20.82391357421875 1.418222427368164
32.80588150024414 20.55295181274414 1.4215761423110962
18.4146785736084 11.379668235778809 2.3943698406219482
18.43368911743164 11.235838890075684 2.395432233810425
18.38745880126953 11.053625106811523 2.4007999897003174
18.367172241210938 10.88869571685791 2.4043476581573486
32.840179443359375 19.198698043823242 1.4394768476486206
32.91294479370117 18.97146987915039 1.4382808208465576
32.895626068115234 18.693758010864258 1.4429750442504883
32.80908203125 18.3794002532959 1.4521443843841553
32.877235412597656 18.153675079345703 1.4509044885635376
32.98068618774414 17.94784927368164 1.447218656539917
32.998390197753906 17.69614028930664 1.4491103887557983
33.02219772338867 17.449087142944336 1.450482726097107
33.053958892822266 17.207477569580078 1.4512180089950562
33.04669189453125 16.947002410888672 1.4544174671173096
33.04906463623047 16.693115234375 1.4568674564361572
33.0629768371582 16.44650650024414 1.4584450721740723
33.08496856689453 16.20518684387207 1.4593825340270996
33.083675384521484 15.953805923461914 1.4617409706115723
33.1112060546875 15.717607498168945 1.4621002674102783
33.10995101928711 15.468995094299316 1.4642406702041626
33.116878509521484 15.225576400756836 1.4657381772994995
33.14389419555664 14.992527961730957 1.4658161401748657
33.113670349121094 14.734964370727539 1.4695332050323486
33.11537170410156 14.493145942687988 1.4710581302642822
33.12727737426758 14.256989479064941 1.471814513206482
33.14121627807617 14.022788047790527 1.472337245941162
33.17103576660156 13.796236038208008 1.4717241525650024
33.183624267578125 13.563424110412598 1.4721360206604004
33.2038688659668 13.334697723388672 1.4719496965408325
33.08606719970703 13.052379608154297 1.4806492328643799
33.11869812011719 12.831153869628906 1.4794590473175049
33.56595230102539 12.768310546875 1.4512156248092651
33.66767883300781 12.571256637573242 1.4453531503677368
33.707332611083984 12.351110458374023 1.4434317350387573
33.72864532470703 12.124871253967285 1.4426053762435913
33.73527908325195 11.894186019897461 1.4426382780075073
33.74978256225586 11.667136192321777 1.442063570022583
33.749542236328125 11.435870170593262 1.4423532485961914
33.75815200805664 11.20850658416748 1.4419726133346558
33.78043746948242 10.986405372619629 1.4406111240386963
33.7879524230957 10.760211944580078 1.4401154518127441
33.80254364013672 10.53701114654541 1.4390676021575928
33.80802917480469 10.311705589294434 1.4385193586349487
33.79003143310547 10.080164909362793 1.4394038915634155
33.814544677734375 9.862089157104492 1.437436580657959
33.8309326171875 9.64217472076416 1.435905933380127
33.83916473388672 9.420555114746094 1.434814214706421
33.84788513183594 9.199721336364746 1.4336012601852417
33.85420608520508 8.978875160217285 1.4324536323547363
33.858123779296875 8.758048057556152 1.4313734769821167
33.86351013183594 8.538241386413574 1.430108666419983
33.88783264160156 8.32369613647461 1.4275219440460205
33.90108871459961 8.106852531433105 1.425566554069519
33.907127380371094 7.88879919052124 1.4239917993545532
33.91858673095703 7.672519207000732 1.4219765663146973
33.92281723022461 7.455106735229492 1.4203444719314575
33.935420989990234 7.2400126457214355 1.4180777072906494
33.9486198425293 7.025448322296143 1.4156849384307861
33.96241760253906 6.811384677886963 1.4131648540496826
33.95821762084961 6.594180107116699 1.4117335081100464
33.9516487121582 6.377098083496094 1.4103724956512451
33.97020721435547 6.16515588760376 1.4072785377502441
33.99137496948242 5.95391321182251 1.403924822807312
33.98958206176758 5.738985061645508 1.4019896984100342
34.010074615478516 5.528144359588623 1.3985058069229126
34.01052474975586 5.3143391609191895 1.3962509632110596
34.00568389892578 5.100142478942871 1.3942580223083496
34.02616882324219 4.890037536621094 1.3905119895935059
34.04634094238281 4.6800079345703125 1.3866970539093018
34.05730056762695 4.468873977661133 1.3834022283554077
34.058040618896484 4.2566657066345215 1.3806960582733154
34.06736755371094 4.0457916259765625 1.3773345947265625
33.53597640991211 3.774235248565674 1.409743309020996
33.50265121459961 3.5625455379486084 1.409085988998413
33.566280364990234 3.3612515926361084 1.4019032716751099
33.624725341796875 3.1589362621307373 1.394970178604126
33.64616775512695 2.9528863430023193 1.3904080390930176
33.65242004394531 2.745554208755493 1.3867714405059814
33.66834259033203 2.5390806198120117 1.382401943206787
33.668067932128906 2.3314785957336426 1.3790289163589478
33.6605339050293 2.1235969066619873 1.3760560750961304
33.655704498291016 1.9161206483840942 1.3728185892105103
33.6595573425293 1.7092881202697754 1.368911623954773
33.67012023925781 1.5028349161148071 1.3644654750823975
33.66545104980469 1.2957768440246582 1.3609588146209717
19.26990509033203 0.6228162050247192 2.3305249214172363
13.008708000183105 0.3401831090450287 2.7523837089538574
12.375031471252441 0.24760428071022034 2.7938098907470703
12.441056251525879 0.1725979745388031 2.7877886295318604
33.736778259277344 0.26321592926979065 1.335694432258606
33.75242614746094 0.05629749223589897 1.3302737474441528
12.741106986999512 -0.057681743055582047 2.7624568939208984
33.771934509277344 -0.35799890756607056 1.319961667060852
33.77080154418945 -0.5651800036430359 1.3154164552688599
12.83031940460205 -0.2942359745502472 2.751086950302124
33.790645599365234 -0.9802897572517395 1.3045324087142944
33.80662536621094 -1.1883457899093628 1.2985327243804932
33.807373046875 -1.3960607051849365 1.2934913635253906
33.7350959777832 -1.6004302501678467 1.2934257984161377
12.858539581298828 -0.6898807883262634 2.7396562099456787
12.889802932739258 -0.7708817720413208 2.735475540161133
12.867796897888184 -0.848817765712738 2.7349696159362793
12.82840633392334 -0.9252952933311462 2.735652446746826
12.50810718536377 -0.9793905019760132 2.756021499633789
33.89309310913086 -2.8609960079193115 1.249956727027893
12.797940254211426 -1.160200595855713 2.7313811779022217
12.751747131347656 -1.2349340915679932 2.7324392795562744
12.809309959411621 -1.3198708295822144 2.7261264324188232
13.957096099853516 -1.5246156454086304 2.642324447631836
12.283575057983398 -1.4182682037353516 2.7589614391326904
12.356722831726074 -1.5035802125930786 2.7514808177948
12.670703887939453 -1.6206996440887451 2.726699113845825
12.63668155670166 -1.6952095031738281 2.726736307144165
12.621979713439941 -1.7721354961395264 2.7253592014312744
12.592005729675293 -1.846776008605957 2.7250518798828125
12.628641128540039 -1.931363582611084 2.7198991775512695
12.501190185546875 -1.990451455116272 2.7265989780426025
12.484696388244629 -2.066444158554077 2.7252390384674072
34.00405502319336 -5.840672492980957 1.152446985244751
29.243988037109375 -5.20815896987915 1.4936046600341797
34.0390625 -6.277632713317871 1.135425090789795
34.02408218383789 -6.490978240966797 1.129133939743042
34.00874328613281 -6.704570770263672 1.122766375541687
33.94808578491211 -6.909271717071533 1.119653582572937
33.91156768798828 -7.118809223175049 1.1146645545959473
33.918601989746094 -7.337859630584717 1.1063364744186401
33.96218490600586 -7.5657219886779785 1.0951614379882812
34.00619125366211 -7.79484224319458 1.0838208198547363
34.043800354003906 -8.02364444732666 1.0728257894515991
34.06146240234375 -8.248743057250977 1.0632025003433228
34.07279968261719 -8.473158836364746 1.0539326667785645
34.08265686035156 -8.69802474975586 1.044651985168457
34.10744094848633 -8.927624702453613 1.0341088771820068
34.11912155151367 -9.154755592346191 1.0244356393814087
34.117759704589844 -9.379196166992188 1.0156347751617432
34.116844177246094 -9.604504585266113 1.006676435470581
34.13552474975586 -9.836231231689453 0.9960808753967285
34.13542175292969 -10.063474655151367 0.9868053793907166
34.12425994873047 -10.288208961486816 0.9782629609107971
34.16499328613281 -10.529633522033691 0.9655463695526123
34.15648651123047 -10.75696849822998 0.9565353393554688
34.14741897583008 -10.984904289245605 0.9474418759346008
34.158626556396484 -11.220290184020996 0.9366199374198914
34.1578254699707 -11.452740669250488 0.9266082048416138
34.17432403564453 -11.692060470581055 0.9150838255882263
34.17786407470703 -11.928071975708008 0.9044472575187683
34.13376235961914 -12.148187637329102 0.8974870443344116
34.142608642578125 -12.387935638427734 0.8861523270606995
34.221805572509766 -12.654878616333008 0.8689862489700317
34.26261520385742 -12.90954875946045 0.8547382354736328
34.29319763183594 -13.161979675292969 0.8411486744880676
34.30524826049805 -13.408740043640137 0.8289055228233337
34.32760238647461 -13.66093635559082 0.8156577348709106
34.33428192138672 -13.908295631408691 0.8035336136817932
34.36042022705078 -14.164994239807129 0.7896392345428467
34.3635368347168 -14.413665771484375 0.7774825096130371
34.3447151184082 -14.654300689697266 0.7669954895973206
34.36813735961914 -14.914299964904785 0.7528198957443237
29.517608642578125 -13.025433540344238 1.1487605571746826
34.42381286621094 -15.443330764770508 0.7231768369674683
34.40334701538086 -15.688521385192871 0.7121738791465759
34.42277908325195 -15.953326225280762 0.6976127624511719
34.425811767578125 -16.2121639251709 0.6842678785324097
34.453941345214844 -16.48455047607422 0.6685851216316223
34.43966293334961 -16.738279342651367 0.6563670039176941
34.450382232666016 -17.005691528320312 0.6418088674545288
34.46089553833008 -17.27475929260254 0.6270761489868164
34.391204833984375 -17.504802703857422 0.6191772818565369
34.36515808105469 -17.757980346679688 0.6073029041290283
34.43970489501953 -18.065217971801758 0.5863580703735352
34.39384460449219 -18.31125831604004 0.5758596062660217
34.41115951538086 -18.592483520507812 0.5595574975013733
30.822113037109375 -16.898706436157227 0.8667741417884827
30.811601638793945 -17.139780044555664 0.85413658618927
34.582916259765625 -19.516460418701172 0.49848073720932007
34.5815315246582 -19.796558380126953 0.4829421043395996
34.5780029296875 -20.077375411987305 0.46738559007644653
34.55170440673828 -20.346752166748047 0.4537094235420227
34.639801025390625 -20.686071395874023 0.4292528033256531
34.612457275390625 -20.959077835083008 0.41521987318992615
34.5907096862793 -21.237220764160156 0.40045973658561707
34.58123016357422 -21.524843215942383 0.3843342959880829
34.56698226928711 -21.81155014038086 0.36843064427375793
34.594181060791016 -22.12681770324707 0.3483639657497406
34.64472961425781 -22.460050582885742 0.3257928788661957
34.56835174560547 -22.713178634643555 0.31510332226753235
30.36741065979004 -20.221132278442383 0.7023650407791138
30.301908493041992 -20.447158813476562 0.6924745440483093
34.64022445678711 -23.685184478759766 0.2525973618030548
34.66754150390625 -24.017547607421875 0.23084791004657745
34.7451057434082 -24.38835334777832 0.2038332223892212
29.85619354248047 -21.231733322143555 0.6695162057876587
29.991891860961914 -21.60671615600586 0.6388100385665894
29.752918243408203 -21.713302612304688 0.6453256011009216
29.64041519165039 -21.91138458251953 0.6390921473503113
29.63590431213379 -22.190746307373047 0.6217606663703918
29.565540313720703 -22.42269515991211 0.610904335975647
29.541656494140625 -22.691650390625 0.5950879454612732
32.377281188964844 30.852571487426758 0.9720714688301086
32.385337829589844 30.483705520629883 0.9828373789787292
32.319915771484375 30.05065155029297 0.9993419647216797
32.431270599365234 29.785669326782227 1.0012022256851196
32.490318298339844 29.47484016418457 1.0071192979812622
32.46575164794922 29.091794967651367 1.0195659399032593
32.41679382324219 28.691638946533203 1.0337167978286743
32.54000473022461 28.44692611694336 1.0338490009307861
32.568511962890625 28.121538162231445 1.0413661003112793
32.57451248168945 27.780029296875 1.0504616498947144
32.598934173583984 27.457515716552734 1.057884693145752
32.611419677734375 27.12809181213379 1.0660449266433716
32.62804412841797 26.80525016784668 1.0736764669418335
32.649696350097656 26.489519119262695 1.080715537071228
32.6258659362793 26.14020347595215 1.0911052227020264
32.689788818359375 25.864028930664062 1.0944652557373047
32.67053985595703 25.52475357055664 1.1040996313095093
32.6894645690918 25.218395233154297 1.1105842590332031
32.70586395263672 24.912769317626953 1.1170811653137207
32.721351623535156 24.609092712402344 1.1234687566757202
32.72553634643555 24.299617767333984 1.1305426359176636
32.769020080566406 24.021709442138672 1.1344387531280518
32.544315338134766 23.551652908325195 1.1585733890533447
32.60258865356445 23.29066276550293 1.160974144935608
32.67683410644531 23.042499542236328 1.1620192527770996
32.718135833740234 22.772634506225586 1.1654090881347656
32.73432540893555 22.487306594848633 1.1705375909805298
32.77799606323242 22.22279930114746 1.1734446287155151
32.730899810791016 21.899213790893555 1.1830016374588013
32.74937438964844 21.622142791748047 1.1874834299087524
32.7690315246582 21.347848892211914 1.1917258501052856
32.8310546875 21.102731704711914 1.1926692724227905
32.815452575683594 20.809547424316406 1.1992385387420654
32.823726654052734 20.53376007080078 1.2038847208023071
32.833255767822266 20.260753631591797 1.2082916498184204
18.442766189575195 11.224165916442871 2.2741308212280273
18.390451431274414 11.038397789001465 2.280686855316162
18.380359649658203 10.879626274108887 2.2840468883514404
32.89863204956055 19.2036190032959 1.2224955558776855
32.934207916259766 18.95466423034668 1.2242985963821411
32.937583923339844 18.688753128051758 1.2283228635787964
32.83878707885742 18.36748504638672 1.2396609783172607
32.880619049072266 18.127161026000977 1.2406048774719238
32.98037338256836 17.919416427612305 1.2372177839279175
33.00579071044922 17.672025680541992 1.2391157150268555
33.02147674560547 17.420806884765625 1.241593360900879
33.04153060913086 17.173282623291016 1.2436306476593018
33.050018310546875 16.92116355895996 1.2463805675506592
33.05665969848633 16.669588088989258 1.249139428138733
33.07487487792969 16.42522430419922 1.2509413957595825
33.08774948120117 16.17951202392578 1.2530078887939453
33.1114501953125 15.940319061279297 1.2541776895523071
33.11091613769531 15.69075870513916 1.2569695711135864
33.10224533081055 15.438851356506348 1.2602263689041138
33.12438201904297 15.202629089355469 1.2611570358276367
33.15760040283203 14.972464561462402 1.2611805200576782
33.10078811645508 14.703166007995605 1.2675288915634155
33.09953308105469 14.460297584533691 1.269788146018982
33.13688659667969 14.235332489013672 1.2691779136657715
33.15802001953125 14.004237174987793 1.2696161270141602
33.17020034790039 13.770357131958008 1.2705837488174438
33.17152404785156 13.533084869384766 1.2722142934799194
33.20082092285156 13.308194160461426 1.2717454433441162
33.08285140991211 13.02605152130127 1.2816405296325684
33.11623001098633 12.805243492126465 1.280664086341858
33.530609130859375 12.729736328125 1.2525266408920288
33.665733337402344 12.545429229736328 1.2441341876983643
33.70989227294922 12.327037811279297 1.2420979738235474
33.73760986328125 12.10318374633789 1.2411240339279175
33.738441467285156 11.870509147644043 1.241951823234558
33.75278854370117 11.643486022949219 1.241718053817749
33.745765686035156 11.41002082824707 1.242894172668457
33.764625549316406 11.186180114746094 1.2421339750289917
33.78390121459961 10.963150978088379 1.241241693496704
33.77509689331055 10.731843948364258 1.2422361373901367
33.79902267456055 10.511725425720215 1.2408113479614258
33.79765701293945 10.284453392028809 1.2410770654678345
33.79860305786133 10.058730125427246 1.2410781383514404
33.820091247558594 9.839794158935547 1.2395257949829102
33.83632278442383 9.619880676269531 1.238244891166687
33.84825134277344 9.399334907531738 1.2371711730957031
33.861637115478516 9.17978572845459 1.2358942031860352
33.852386474609375 8.954811096191406 1.2361239194869995
33.861934661865234 8.735528945922852 1.2349228858947754
33.87104415893555 8.516708374023438 1.2336561679840088
33.884552001953125 8.299529075622559 1.2319809198379517
33.896671295166016 8.082501411437988 1.2303071022033691
33.902549743652344 7.864508152008057 1.2289789915084839
33.913841247558594 7.648282527923584 1.2271708250045776
33.92180633544922 7.431785583496094 1.2255021333694458
33.93522644042969 7.216930389404297 1.2233511209487915
33.950218200683594 7.002793312072754 1.220991849899292
33.95603561401367 6.787177562713623 1.2191894054412842
33.95362854003906 6.570424556732178 1.2178773880004883
33.95376205444336 6.354690074920654 1.2162896394729614
33.96529006958008 6.141507625579834 1.213796854019165
33.98432922363281 5.929964542388916 1.2106728553771973
33.99909973144531 5.717920780181885 1.2077583074569702
34.003684997558594 5.504482269287109 1.2054756879806519
33.99805450439453 5.289820194244385 1.2038289308547974
33.99897003173828 5.076611518859863 1.2016212940216064
34.02521514892578 4.867404460906982 1.1975070238113403
34.0412712097168 4.6568474769592285 1.1940255165100098
34.05009460449219 4.445499420166016 1.1909675598144531
34.0595817565918 4.234463214874268 1.1877672672271729
34.075687408447266 4.024411678314209 1.1839969158172607
33.53539276123047 3.7521770000457764 1.220174789428711
33.497955322265625 3.5401105880737305 1.2201160192489624
33.553470611572266 3.338028907775879 1.2132668495178223
33.623653411865234 3.136881113052368 1.2052565813064575
33.63996887207031 2.9304046630859375 1.2010371685028076
33.646060943603516 2.7231199741363525 1.197462558746338
33.66679382324219 2.517059564590454 1.1927326917648315
33.674320220947266 2.310025453567505 1.1888654232025146
33.66763687133789 2.1021828651428223 1.1859371662139893
33.6785888671875 1.8955734968185425 1.1816331148147583
33.68428421020508 1.6887073516845703 1.1776164770126343
33.69270324707031 1.4820159673690796 1.1733077764511108
15.720746040344238 0.5938122272491455 2.483928918838501
19.263681411743164 0.60980224609375 2.2225899696350098
33.720298767089844 0.8619791269302368 1.1596344709396362
33.72563171386719 0.6551458239555359 1.1551679372787476
33.731689453125 0.44830432534217834 1.1505522727966309
33.73946762084961 0.24143287539482117 1.1457133293151855
33.755950927734375 0.03449166938662529 1.1401355266571045
33.76417922973633 -0.17260928452014923 1.135067343711853
12.833910942077637 -0.14561598002910614 2.682220458984375
12.766849517822266 -0.22319523990154266 2.6854329109191895
11.782109260559082 -0.2784423828125 2.7569167613983154
12.817734718322754 -0.38141828775405884 2.6780099868774414
33.80817413330078 -1.2102655172348022 1.1080354452133179
33.78483963012695 -1.416991949081421 1.104733943939209
33.72737121582031 -1.621901035308838 1.1039013862609863
12.71741008758545 -0.6910664439201355 2.67781925201416
12.861124038696289 -0.7780085206031799 2.6649839878082275
12.85300064086914 -0.8566840887069702 2.663525342941284
33.85514450073242 -2.4618468284606934 1.072708249092102
12.535106658935547 -0.9901590943336487 2.683370351791382
13.087060928344727 -1.114492654800415 2.6393003463745117
12.765067100524902 -1.166042685508728 2.6615569591522217
13.064212799072266 -1.2741810083389282 2.636474847793579
13.105616569519043 -1.3594272136688232 2.6309664249420166
13.116727828979492 -1.4419660568237305 2.627725839614868
12.246801376342773 -1.422563076019287 2.6921727657318115
33.92552947998047 -4.148138523101807 1.0191692113876343
33.910972595214844 -4.3576788902282715 1.0137940645217896
33.94947814941406 -4.574518203735352 1.0042096376419067
33.931297302246094 -4.784204006195068 0.9989012479782104
12.951434135437012 -1.9085088968276978 2.6253888607025146
12.870369911193848 -1.9773280620574951 2.6290693283081055
13.031152725219727 -2.083918809890747 2.613813638687134
33.98921585083008 -5.646222114562988 0.9663978815078735
33.98110580444336 -5.859342575073242 0.9597564935684204
29.2685489654541 -5.232165813446045 1.3242127895355225
34.02361297607422 -6.29752779006958 0.9414945840835571
34.01826858520508 -6.512663841247559 0.9342883825302124
12.598649024963379 -2.493511199951172 2.631087303161621
33.92436599731445 -6.927295684814453 0.9261735081672668
33.904296875 -7.140180587768555 0.9198203682899475
33.89360809326172 -7.35540771484375 0.9126054048538208
33.93798065185547 -7.58337926864624 0.9008407592773438
34.00706100463867 -7.818202972412109 0.886938750743866
34.038631439208984 -8.04567813873291 0.8759178519248962
34.05512619018555 -8.270543098449707 0.8659835457801819
34.043052673339844 -8.489161491394043 0.8582439422607422
34.09717559814453 -8.725242614746094 0.844970166683197
34.09279251098633 -8.947379112243652 0.836341381072998
34.11680221557617 -9.17781925201416 0.8252478837966919
34.10851287841797 -9.400416374206543 0.816679060459137
34.10932159423828 -9.626237869262695 0.8072288036346436
34.12109375 -9.856019973754883 0.7967328429222107
34.142791748046875 -10.089699745178223 0.7852674126625061
34.13618469238281 -10.315943717956543 0.776023268699646
34.15760803222656 -10.551607131958008 0.7642907500267029
34.12989044189453 -10.772923469543457 0.7565486431121826
34.164302825927734 -11.014788627624512 0.7434255480766296
34.158203125 -11.244705200195312 0.7335795760154724
34.18647766113281 -11.487025260925293 0.7206640243530273
34.16402053833008 -11.713308334350586 0.7119232416152954
34.19558334350586 -11.959159851074219 0.6984119415283203
34.12120056152344 -12.168684005737305 0.6938591003417969
34.13639450073242 -12.410776138305664 0.6814566254615784
34.24055480957031 -12.687098503112793 0.661168098449707
34.27919006347656 -12.941232681274414 0.6463652849197388
34.273197174072266 -13.179864883422852 0.6352839469909668
34.2804069519043 -13.424725532531738 0.6228861808776855
34.31367111206055 -13.681242942810059 0.608025848865509
34.316444396972656 -13.927059173583984 0.595678448677063
34.346961975097656 -14.185596466064453 0.5806959271430969
34.33148956298828 -14.426504135131836 0.5696282982826233
34.330841064453125 -14.6748046875 0.5570729374885559
34.34305953979492 -14.929997444152832 0.5431882739067078
29.493120193481445 -13.037710189819336 0.9684897065162659
34.410125732421875 -15.464130401611328 0.5109937191009521
34.39579391479492 -15.712165832519531 0.4989514648914337
34.3959846496582 -15.968161582946777 0.4854089915752411
34.413246154785156 -16.23367691040039 0.47011077404022217
34.42853927612305 -16.5000057220459 0.4547930955886841
34.41944885253906 -16.756229400634766 0.441534161567688
34.42726516723633 -17.02223777770996 0.42651239037513733
34.44200897216797 -17.293447494506836 0.4106404781341553
34.37214660644531 -17.523386001586914 0.4025101363658905
34.33173370361328 -17.76915168762207 0.3914564549922943
34.42103958129883 -18.084129333496094 0.36792686581611633
34.36618423461914 -18.32539176940918 0.35784992575645447
34.39643096923828 -18.613609313964844 0.33946219086647034
30.807397842407227 -16.916969299316406 0.6691063046455383
30.79144859313965 -17.15507698059082 0.6563726663589478
34.555145263671875 -19.5306396484375 0.27622169256210327
34.52934265136719 -19.796733856201172 0.2622804343700409
34.52826690673828 -20.078773498535156 0.24570728838443756
34.50786209106445 -20.351423263549805 0.2308080643415451
34.5751953125 -20.678274154663086 0.20699751377105713
34.51370620727539 -20.930252075195312 0.19570887088775635
34.438541412353516 -21.174951553344727 0.18560801446437836
34.379425048828125 -21.430587768554688 0.17372044920921326
34.44565200805664 -21.76665687561035 0.14896152913570404
34.60887908935547 -22.168289184570312 0.11401071399450302
34.49434280395508 -22.394800186157227 0.10702014714479446
34.37583923339844 -22.619096755981445 0.10029619932174683
30.397911071777344 -20.270450592041016 0.4922688901424408
30.28084373474121 -20.46209716796875 0.4872901141643524
29.830541610717773 -21.243274688720703 0.46431592106819153
30.1686954498291 -21.764474868774414 0.41010263562202454
29.7816219329834 -21.764541625976562 0.43314412236213684
29.69357681274414 -21.981178283691406 0.4240727126598358
29.643051147460938 -22.226837158203125 0.41075825691223145
29.562057495117188 -22.451013565063477 0.4005607068538666
29.554445266723633 -22.732730865478516 0.3821111023426056
33.87410354614258 -29.902746200561523 -0.3596469759941101
33.740020751953125 -30.155086517333984 -0.3702879548072815
33.66762924194336 -30.464384078979492 -0.3885089159011841
33.48914337158203 -30.67905616760254 -0.3942820727825165
33.727779388427734 -31.280792236328125 -0.4507124125957489
20.252208709716797 -19.01660919189453 1.1642073392868042
20.06554412841797 -19.0745906829834 1.1699296236038208
32.36115264892578 30.90834617614746 0.681175947189331
31.432769775390625 29.65545654296875 0.778649091720581
15.531591415405273 14.474956512451172 2.2291648387908936
31.64227294921875 29.128421783447266 0.7844915986061096
31.646507263183594 28.776039123535156 0.7961415648460388
32.01508331298828 28.75473403930664 0.7749969363212585
32.30844497680664 28.662443161010742 0.7605516910552979
32.46903610229492 28.45123863220215 0.757817804813385
32.53620910644531 28.15947914123535 0.7631834149360657
32.546424865722656 27.821290969848633 0.7733518481254578
32.573543548583984 27.500770568847656 0.7817999124526978
32.57650375366211 27.163076400756836 0.7921313643455505
32.6012077331543 26.846683502197266 0.8003384470939636
32.613197326660156 26.522823333740234 0.809428870677948
32.63100814819336 26.20669937133789 0.8177961707115173
32.6547737121582 25.898183822631836 0.8254356980323792
32.64142608642578 25.56329345703125 0.836050808429718
32.680458068847656 25.272266387939453 0.8419650793075562
32.70050048828125 24.969009399414062 0.8493054509162903
32.69894027709961 24.65204620361328 0.8582803606987
32.743553161621094 24.37238121032715 0.8631419539451599
32.74174880981445 24.06060218811035 0.8717378973960876
32.5532341003418 23.61618995666504 0.8958373665809631
32.603050231933594 23.34868812561035 0.8996602892875671
32.67525863647461 23.09874153137207 0.901443362236023
32.68507766723633 22.806543350219727 0.9082721471786499
32.72706604003906 22.53885841369629 0.9122446775436401
32.78762435913086 22.285537719726562 0.9145106673240662
32.75020980834961 21.96785545349121 0.9247264266014099
32.79582595825195 21.70819091796875 0.9278967976570129
32.77266311645508 21.4051513671875 0.9365695714950562
32.82167053222656 21.151308059692383 0.9391348958015442
32.8629035949707 20.893924713134766 0.9421854615211487
32.84981918334961 20.603965759277344 0.9495206475257874
32.844600677490234 20.321250915527344 0.9560428261756897
32.85163497924805 20.048213958740234 0.961403489112854
32.84203338623047 19.767107009887695 0.9679545164108276
32.91257858276367 19.535757064819336 0.9678505659103394
32.90059280395508 19.256916046142578 0.9742835164070129
32.91321563720703 18.994413375854492 0.9785717129707336
32.90739059448242 18.72311019897461 0.9841957092285156
32.815956115722656 18.405746459960938 0.9965463280677795
32.853702545166016 18.163087844848633 0.9983580112457275
32.966793060302734 17.962661743164062 0.9940003752708435
32.976715087890625 17.706789016723633 0.9977737665176392
33.02089309692383 17.470592498779297 0.9986724853515625
33.02450180053711 17.214235305786133 1.0026726722717285
33.0368537902832 16.963958740234375 1.005835771560669
33.04204177856445 16.711477279663086 1.009432077407837
33.05342102050781 16.463571548461914 1.0124000310897827
33.07017135620117 16.219669342041016 1.014809489250183
33.09684753417969 15.981820106506348 1.0163013935089111
33.10114288330078 15.734403610229492 1.0194334983825684
33.10726547241211 15.489225387573242 1.0222903490066528
33.11524963378906 15.246231079101562 1.0248701572418213
33.14785385131836 15.015658378601074 1.0253850221633911
33.13605880737305 14.766176223754883 1.029266595840454
33.08681869506836 14.501789093017578 1.0359587669372559
33.1088752746582 14.270142555236816 1.0369244813919067
33.13943862915039 14.043052673339844 1.0371031761169434
33.173065185546875 13.818038940429688 1.0369224548339844
33.1904182434082 13.587095260620117 1.0378981828689575
33.220069885253906 13.362040519714355 1.037793517112732
33.073814392089844 13.068228721618652 1.0513056516647339
33.106536865234375 12.847074508666992 1.050717830657959
33.492889404296875 12.761298179626465 1.0224436521530151
33.66361999511719 12.590555191040039 1.0108922719955444
33.706180572509766 12.3714599609375 1.0092214345932007
33.73136901855469 12.14656925201416 1.0087875127792358
33.73814010620117 11.915857315063477 1.0096731185913086
33.75749206542969 11.690413475036621 1.0094647407531738
33.75646209716797 11.458767890930176 1.0107264518737793
33.76332473754883 11.230720520019531 1.0112611055374146
33.76676940917969 11.002401351928711 1.0119481086730957
33.7781867980957 10.77749252319336 1.0119041204452515
33.783355712890625 10.551369667053223 1.012232780456543
