# .PCD v0.7 - Point Cloud Data file format
VERSION 0.7
FIELDS x y z
SIZE 4 4 4
TYPE F F F
COUNT 1 1 1
WIDTH 851
HEIGHT 1
VIEWPOINT 0 0 0 1 0 0 0
POINTS 851
DATA ascii
34.0096435546875 5.738190650939941 1.823350429534912
34.012428283691406 5.524343013763428 1.8206384181976318
34.01288604736328 5.310521602630615 1.8179805278778076
34.012001037597656 5.096901893615723 1.8153252601623535
34.0384407043457 4.887606143951416 1.81113862991333
34.046775817871094 4.675868511199951 1.807848572731018
34.051815032958984 4.463950157165527 1.8046650886535645
34.06148147583008 4.252887725830078 1.8011630773544312
34.08272933959961 4.043402194976807 1.7969655990600586
33.534088134765625 3.769900321960449 1.8234527111053467
33.51365280151367 3.5595951080322266 1.8214155435562134
33.58728790283203 3.359219789505005 1.8142175674438477
33.64183044433594 3.1563949584960938 1.8079729080200195
33.666290283203125 2.950498104095459 1.8032838106155396
33.665611267089844 2.7424728870391846 1.7998888492584229
33.66463851928711 2.5346410274505615 1.7964413166046143
33.668365478515625 2.3273351192474365 1.7926676273345947
33.658851623535156 2.1193253993988037 1.7895482778549194
33.667991638183594 1.9126509428024292 1.7853373289108276
33.667884826660156 1.7055386304855347 1.781562328338623
12.396811485290527 0.5520325303077698 2.950145959854126
12.364957809448242 0.4746401011943817 2.9504616260528564
12.41246223449707 0.40023043751716614 2.94636607170105
12.774922370910645 0.33347904682159424 2.9247610569000244
12.484149932861328 0.24927958846092224 2.9393584728240967
33.738365173339844 0.4659976363182068 1.753466248512268
12.46812629699707 0.09596964716911316 2.937107801437378
12.552263259887695 0.019616181030869484 2.9307868480682373
12.631933212280273 -0.057747986167669296 2.9246675968170166
12.73009204864502 -0.13629302382469177 2.9174602031707764
12.734917640686035 -0.21447846293449402 2.9154605865478516
33.817054748535156 -0.7777114510536194 1.7222003936767578
33.81539535522461 -0.985247790813446 1.7175568342208862
33.81146240234375 -1.1927595138549805 1.7129673957824707
12.484064102172852 -0.5168456435203552 2.9225523471832275
12.621182441711426 -0.6001037955284119 2.9128921031951904
13.163494110107422 -0.7068642377853394 2.879969358444214
12.85286808013916 -0.7692751288414001 2.895805597305298
11.859600067138672 -0.7828372120857239 2.9509894847869873
12.270715713500977 -0.8856235146522522 2.925419807434082
12.629240036010742 -0.9894259572029114 2.902735471725464
12.39603328704834 -1.0476986169815063 2.9142396450042725
12.384310722351074 -1.1232653856277466 2.9129035472869873
12.743760108947754 -1.234747290611267 2.889885663986206
33.91848373413086 -3.497191905975342 1.6487113237380981
13.311985969543457 -1.4548922777175903 2.8522393703460693
33.94887924194336 -3.9218544960021973 1.6353144645690918
12.47539234161377 -1.5185502767562866 2.897005796432495
33.94819641113281 -4.344498634338379 1.6234073638916016
33.9691276550293 -4.559162616729736 1.616066575050354
33.96596908569336 -4.771053791046143 1.6100682020187378
33.992103576660156 -4.98757266998291 1.602236270904541
33.99217987060547 -5.200817584991455 1.5958706140518188
33.989933013916016 -5.414095878601074 1.589558720588684
34.002105712890625 -5.630153179168701 1.5822906494140625
34.001094818115234 -5.844534873962402 1.5757278203964233
29.278676986694336 -5.217872142791748 1.8557462692260742
34.02839660644531 -6.28005313873291 1.560550570487976
34.0615234375 -6.502516746520996 1.551628589630127
34.0265998840332 -6.712486743927002 1.5467745065689087
33.94636917114258 -6.913310527801514 1.5446311235427856
33.900123596191406 -7.120791435241699 1.5403307676315308
33.9296760559082 -7.3446502685546875 1.5312602519989014
33.96360397338867 -7.570444107055664 1.521810531616211
33.98824691772461 -7.795146465301514 1.5128296613693237
34.03569412231445 -8.026164054870605 1.502313494682312
34.05345153808594 -8.251241683959961 1.4935450553894043
34.05712890625 -8.47370719909668 1.485556960105896
34.09126663208008 -8.70467758178711 1.4755396842956543
34.10743713378906 -8.932088851928711 1.4665474891662598
34.1240234375 -9.160543441772461 1.4574192762374878
34.121761322021484 -9.384775161743164 1.449386477470398
34.10457992553711 -9.605536460876465 1.4422086477279663
34.117618560791016 -9.835564613342285 1.4329848289489746
34.127197265625 -10.065549850463867 1.4238719940185547
34.12281036376953 -10.292277336120605 1.415554404258728
34.14744567871094 -10.528740882873535 1.405236005783081
34.13333511352539 -10.754197120666504 1.3973326683044434
34.173789978027344 -10.997918128967285 1.3857367038726807
34.14900588989258 -11.221665382385254 1.3783146142959595
34.11897659301758 -11.444252014160156 1.371138334274292
34.189476013183594 -11.701799392700195 1.3571693897247314
34.17140579223633 -11.930376052856445 1.3489662408828735
34.14711380004883 -12.157498359680176 1.3410720825195312
34.14945602416992 -12.394989013671875 1.3312748670578003
34.26716995239258 -12.676247596740723 1.3135446310043335
34.304264068603516 -12.929849624633789 1.301103949546814
34.306915283203125 -13.171862602233887 1.2908682823181152
34.330196380615234 -13.423118591308594 1.2790892124176025
34.32942199707031 -13.66629695892334 1.2688233852386475
34.34360122680664 -13.916715621948242 1.2573940753936768
34.354148864746094 -14.167064666748047 1.2460753917694092
34.370269775390625 -14.421154022216797 1.2342267036437988
34.35335922241211 -14.662656784057617 1.22454833984375
34.38419723510742 -14.92595100402832 1.211378574371338
29.554515838623047 -13.045496940612793 1.5420104265213013
34.418190002441406 -15.445513725280762 1.1865257024765015
34.424163818359375 -15.702725410461426 1.1746538877487183
34.41830825805664 -15.955975532531738 1.1634809970855713
34.45035934448242 -16.228456497192383 1.1494308710098267
34.448848724365234 -16.486852645874023 1.1376392841339111
34.466094970703125 -16.755874633789062 1.1243302822113037
34.483123779296875 -17.026613235473633 1.1108697652816772
34.481170654296875 -17.28969383239746 1.098633885383606
34.40792465209961 -17.518075942993164 1.0915075540542603
34.365081787109375 -17.762706756591797 1.082014560699463
34.4212532043457 -18.060321807861328 1.0650010108947754
34.43806838989258 -18.339595794677734 1.0507285594940186
34.42904281616211 -18.606945037841797 1.0382219552993774
34.42152786254883 -18.876792907714844 1.025435209274292
30.815383911132812 -17.14599609375 1.286553978919983
34.58897399902344 -19.524734497070312 0.9853792786598206
34.59202575683594 -19.807430267333984 0.9711881279945374
34.54199981689453 -20.061336517333984 0.9609165787696838
34.563232421875 -20.358413696289062 0.9449553489685059
34.5949592590332 -20.664182662963867 0.9279655814170837
34.589229583740234 -20.94991111755371 0.9136982560157776
34.56258773803711 -21.224857330322266 0.9008926749229431
34.51184844970703 -21.48655891418457 0.8898245096206665
34.592498779296875 -21.832571029663086 0.868093729019165
34.54916763305664 -22.102951049804688 0.8560494780540466
34.621009826660156 -22.44961929321289 0.8345221877098083
34.62485122680664 -22.75525665283203 0.8182415962219238
34.563961029052734 -23.02030372619629 0.8070328831672668
34.75664520263672 -23.45792579650879 0.7748005390167236
34.73030471801758 -23.75177764892578 0.7602770924568176
34.75332260131836 -24.081987380981445 0.7414394021034241
34.74092483520508 -24.390439987182617 0.7253075838088989
34.81871795654297 -24.765562057495117 0.7013508081436157
34.81631088256836 -25.0871524810791 0.683864951133728
34.804813385009766 -25.404932022094727 0.6669058799743652
34.83403396606445 -25.755542755126953 0.646212100982666
34.84587478637695 -26.096702575683594 0.626725971698761
34.854827880859375 -26.43897247314453 0.6072124242782593
34.86167907714844 -26.78293800354004 0.5876040458679199
34.87584686279297 -27.13594627380371 0.5670672655105591
34.89324951171875 -27.495071411132812 0.5459478497505188
34.875579833984375 -27.829917907714844 0.5276453495025635
34.791473388671875 -28.11416244506836 0.5150237083435059
34.814048767089844 -28.48750114440918 0.49257928133010864
34.90016174316406 -28.917545318603516 0.46403247117996216
34.853912353515625 -29.241992950439453 0.4471721351146698
34.91446304321289 -29.65995979309082 0.4202222228050232
34.939414978027344 -30.052448272705078 0.3961711525917053
34.91947937011719 -30.41031837463379 0.37594491243362427
34.85979461669922 -30.736743927001953 0.35913941264152527
34.93581771850586 -31.187145233154297 0.3292311131954193
34.709373474121094 -31.370079040527344 0.32767778635025024
34.9559326171875 -31.985065460205078 0.28070002794265747
34.92401123046875 -32.35207748413086 0.259920209646225
35.05841064453125 -32.87888717651367 0.22262659668922424
34.95109939575195 -33.18396759033203 0.20844480395317078
32.34827423095703 30.865293502807617 1.4896212816238403
32.33684539794922 30.477890014648438 1.498831868171692
32.327003479003906 30.096555709838867 1.5077283382415771
32.451934814453125 29.843608856201172 1.5075929164886475
32.500308990478516 29.522428512573242 1.5123205184936523
32.457496643066406 29.122400283813477 1.5228089094161987
32.4042854309082 28.718053817749023 1.5337632894515991
32.55327224731445 28.4957218170166 1.5314527750015259
32.56248474121094 28.153093338012695 1.5380222797393799
32.5786018371582 27.81985855102539 1.5439753532409668
32.59949493408203 27.493932723999023 1.549454927444458
32.616092681884766 27.167518615722656 1.5550456047058105
32.61294174194336 26.827978134155273 1.561728596687317
32.62779998779297 26.50650978088379 1.567104458808899
32.65007400512695 26.193994522094727 1.5718551874160767
32.67366409301758 25.88530921936035 1.5763709545135498
32.6648063659668 25.55393409729004 1.5827758312225342
32.69975662231445 25.25967025756836 1.5862796306610107
32.70136260986328 24.94231605529785 1.591726541519165
32.729827880859375 24.648128509521484 1.5953501462936401
32.715049743652344 24.324140548706055 1.6015230417251587
32.74100875854492 24.03317642211914 1.6050224304199219
32.5511360168457 23.58809471130371 1.6217271089553833
32.55849838256836 23.290359497070312 1.6260735988616943
32.66379165649414 23.064285278320312 1.6242616176605225
32.62004852294922 22.735002517700195 1.631489872932434
32.718326568603516 22.506746292114258 1.629876971244812
32.724143981933594 22.216432571411133 1.6338081359863281
32.6936149597168 21.90410804748535 1.6398271322250366
32.707149505615234 21.623838424682617 1.6430288553237915
32.72098922729492 21.34586524963379 1.6460901498794556
32.78892135620117 21.104753494262695 1.6457511186599731
32.775882720947266 20.813283920288086 1.6502047777175903
32.777435302734375 20.53337860107422 1.653652548789978
32.739410400390625 20.231136322021484 1.6593683958053589
32.657135009765625 19.9046688079834 1.6676228046417236
32.63115310668945 19.615478515625 1.672361969947815
32.789276123046875 19.437864303588867 1.6659339666366577
32.84126281738281 19.19756317138672 1.6657817363739014
32.87163543701172 18.94588279724121 1.6668204069137573
32.86109161376953 18.672353744506836 1.6701982021331787
32.8074836730957 18.376728057861328 1.6760334968566895
32.87301254272461 18.149559020996094 1.6746543645858765
32.9755859375 17.94327735900879 1.6709742546081543
33.01350021362305 17.702442169189453 1.6710460186004639
33.022335052490234 17.44735336303711 1.6727452278137207
33.02751159667969 17.19190216064453 1.6745595932006836
33.041465759277344 16.9425106048584 1.6757515668869019
33.05717468261719 16.695396423339844 1.6767410039901733
33.061256408691406 16.44383430480957 1.6783186197280884
33.084136962890625 16.20295524597168 1.678687572479248
33.08731460571289 15.95373821258545 1.6801236867904663
33.11484909057617 15.717509269714355 1.6800261735916138
33.11087417602539 15.467595100402832 1.681692123413086
33.13139724731445 15.230417251586914 1.6818188428878784
33.15935516357422 14.997685432434082 1.68141508102417
33.11637496948242 14.734332084655762 1.6850934028625488
33.123558044433594 14.494889259338379 1.685726523399353
33.14006042480469 14.260650634765625 1.6857205629348755
33.15034103393555 14.02480697631836 1.6859897375106812
33.1718864440918 13.7947416305542 1.6855077743530273
33.186309814453125 13.562674522399902 1.6853547096252441
33.226016998291016 13.341737747192383 1.6836292743682861
33.08870315551758 13.051575660705566 1.6922028064727783
33.12041091918945 12.829968452453613 1.6907703876495361
33.57529067993164 12.769973754882812 1.6644344329833984
33.668643951416016 12.569719314575195 1.6592190265655518
33.71767807006836 12.352998733520508 1.656516194343567
33.72491455078125 12.121624946594238 1.6561776399612427
33.74471664428711 11.895604133605957 1.6550170183181763
33.76017761230469 11.668819427490234 1.6540250778198242
33.75238037109375 11.43492317199707 1.6543117761611938
33.757205963134766 11.206278800964355 1.6537744998931885
33.77283477783203 10.98201847076416 1.6525181531906128
33.78223419189453 10.756471633911133 1.6515449285507202
33.805389404296875 10.535978317260742 1.6496806144714355
33.81851577758789 10.312980651855469 1.6483218669891357
33.80817794799805 10.08365535736084 1.6482582092285156
33.824092864990234 9.86294937133789 1.6465703248977661
33.841461181640625 9.643247604370117 1.644715428352356
33.84586715698242 9.420489311218262 1.6435405015945435
33.8430290222168 9.1964693069458 1.6427104473114014
33.85029983520508 8.975907325744629 1.6412049531936646
33.87160873413086 8.759601593017578 1.6387921571731567
33.898311614990234 8.54507827758789 1.6359803676605225
33.896514892578125 8.32388973236084 1.634766697883606
33.90201950073242 8.105132102966309 1.633043646812439
33.90708541870117 7.886845588684082 1.6312659978866577
33.913673400878906 7.669461727142334 1.629319190979004
33.93057632446289 7.454863548278809 1.6266831159591675
33.94319534301758 7.239720821380615 1.6242201328277588
33.95445251464844 7.0247015953063965 1.6217589378356934
33.966304779052734 6.810208797454834 1.6191819906234741
33.96406555175781 6.593359470367432 1.6173617839813232
33.96436309814453 6.377530097961426 1.615312933921814
33.97214126586914 6.163547515869141 1.612741231918335
33.988407135009766 5.951430797576904 1.6095855236053467
34.00727844238281 5.74000883102417 1.6061944961547852
34.00907516479492 5.526016712188721 1.6037416458129883
34.01248550415039 5.312678813934326 1.6011147499084473
34.01752471923828 5.099949836730957 1.5983128547668457
34.03901290893555 4.889912128448486 1.594446063041687
34.04437255859375 4.677763938903809 1.5914655923843384
34.047428131103516 4.465601921081543 1.588545799255371
34.06302261352539 4.25531005859375 1.5847933292388916
34.07929992675781 4.045228004455566 1.580918550491333
33.5328369140625 3.771944046020508 1.610906958580017
33.524314880371094 3.5629124641418457 1.6084192991256714
33.57607650756836 3.3602893352508545 1.6022099256515503
33.632568359375 3.1577234268188477 1.5956271886825562
33.65601348876953 2.9517982006073 1.5909614562988281
33.66128921508789 2.744323492050171 1.5873180627822876
33.66926956176758 2.537193536758423 1.5834317207336426
33.678958892822266 2.3302743434906006 1.5793626308441162
33.679405212402344 2.1228280067443848 1.5757777690887451
33.66263198852539 1.9145547151565552 1.573168396949768
33.660518646240234 1.7073750495910645 1.5695856809616089
13.038451194763184 0.580937385559082 2.832592487335205
13.026708602905273 0.5003734230995178 2.8318164348602295
13.016465187072754 0.42003926634788513 2.830920457839966
33.72514343261719 0.8819435834884644 1.5499591827392578
33.734642028808594 0.6751574277877808 1.5452567338943481
33.746864318847656 0.4683418273925781 1.5403035879135132
12.746992111206055 0.09843818843364716 2.8412561416625977
33.7595100402832 0.05432702973484993 1.5308818817138672
12.670193672180176 -0.05759890004992485 2.8427274227142334
12.677488327026367 -0.13540171086788177 2.8405745029449463
33.79689407348633 -0.5676063895225525 1.5149749517440796
12.782435417175293 -0.2933848798274994 2.8304941654205322
33.81378173828125 -0.9829555153846741 1.504451036453247
33.8148193359375 -1.1906306743621826 1.4995276927947998
33.81657409667969 -1.3984397649765015 1.4944766759872437
12.597532272338867 -0.598655641078949 2.834810495376587
13.004105567932129 -0.6979401707649231 2.80706787109375
12.857020378112793 -0.769176185131073 2.814441680908203
12.886811256408691 -0.8503249883651733 2.810532331466675
33.877845764160156 -2.4435153007507324 1.4645863771438599
12.52996826171875 -0.9813259840011597 2.829315662384033
33.88154983520508 -2.8620402812957764 1.453342080116272
33.89985275268555 -3.0731475353240967 1.4465277194976807
12.753835678100586 -1.235382080078125 2.808584451675415
33.907676696777344 -3.4937984943389893 1.434482216835022
13.331732749938965 -1.4566553831100464 2.766597270965576
13.817109107971191 -1.5955103635787964 2.7325916290283203
33.95566177368164 -4.13159704208374 1.4133623838424683
33.93434524536133 -4.340435028076172 1.408576250076294
33.970088958740234 -4.556995391845703 1.3999537229537964
33.976783752441406 -4.770274639129639 1.3931410312652588
33.98016357421875 -4.983519077301025 1.3864517211914062
33.985164642333984 -5.197439193725586 1.3795602321624756
33.97600173950195 -5.40956974029541 1.3735132217407227
33.99898147583008 -5.627324104309082 1.3652297258377075
34.01466751098633 -5.844552516937256 1.3573294878005981
29.278278350830078 -5.215921878814697 1.6682981252670288
34.0183219909668 -6.275872230529785 1.3430824279785156
34.05435562133789 -6.49882173538208 1.3334989547729492
34.03410720825195 -6.711640357971191 1.3276135921478271
33.939205169677734 -6.909529209136963 1.3267104625701904
33.9369010925293 -7.126191139221191 1.3194338083267212
33.92637634277344 -7.341609001159668 1.3126167058944702
33.94370651245117 -7.563677787780762 1.3037899732589722
34.000431060791016 -7.795600891113281 1.2921370267868042
34.028385162353516 -8.022095680236816 1.2823408842086792
34.0742301940918 -8.253925323486328 1.2711848020553589
34.069129943847656 -8.474337577819824 1.2634432315826416
34.10610580444336 -8.706104278564453 1.2526575326919556
34.1029052734375 -8.928536415100098 1.2445577383041382
34.126197814941406 -9.158758163452148 1.2344862222671509
34.12197494506836 -9.382460594177246 1.2262307405471802
34.11628341674805 -9.606456756591797 1.2179679870605469
34.13884735107422 -9.839303970336914 1.2075849771499634
34.129207611083984 -10.063759803771973 1.1993703842163086
34.11427688598633 -10.28731632232666 1.1914222240447998
34.16271209716797 -10.531055450439453 1.1788095235824585
34.163761138916016 -10.761387825012207 1.1694679260253906
34.16706085205078 -10.993352890014648 1.1598408222198486
34.14794921875 -11.218914985656738 1.1517173051834106
34.149105072021484 -11.451952934265137 1.1420011520385742
34.1873779296875 -11.698668479919434 1.1294381618499756
34.1749267578125 -11.929190635681152 1.1204564571380615
34.157169342041016 -12.158661842346191 1.1117435693740845
34.13507080078125 -12.387346267700195 1.1032319068908691
34.27892303466797 -12.678157806396484 1.082249641418457
34.311256408691406 -12.93004322052002 1.0693793296813965
34.311058044433594 -13.171004295349121 1.0587942600250244
34.32683563232422 -13.419350624084473 1.046866536140442
34.32416915893555 -13.661747932434082 1.0361840724945068
34.34755325317383 -13.915855407714844 1.0233813524246216
34.354347229003906 -14.164678573608398 1.0116851329803467
34.364898681640625 -14.416424751281738 0.99955153465271
34.355289459228516 -14.661005020141602 0.9888133406639099
34.37051010131836 -14.917526245117188 0.9760124087333679
29.53630828857422 -13.035449981689453 1.3396693468093872
34.43267059326172 -15.449515342712402 0.9474461674690247
34.428565979003906 -15.70223331451416 0.9356529712677002
34.43440628051758 -15.96093463897705 0.9229201674461365
34.448299407958984 -16.2249755859375 0.9093860387802124
34.454837799072266 -16.48720359802246 0.8962621092796326
34.46124267578125 -16.750995635986328 0.8829770088195801
34.4683837890625 -17.016809463500977 0.8694603443145752
34.4699821472168 -17.281553268432617 0.8562127947807312
34.41630172729492 -17.51980972290039 0.8472660779953003
34.36098098754883 -17.758058547973633 0.8383176326751709
34.42591857910156 -18.060230255126953 0.819403886795044
34.424163818359375 -18.329647064208984 0.8057350516319275
34.4309196472168 -18.605411529541016 0.7911803126335144
30.843021392822266 -16.912092208862305 1.0746623277664185
30.810705184936523 -17.141202926635742 1.064477562904358
34.574947357177734 -19.514236450195312 0.7359735369682312
34.5987548828125 -19.808698654174805 0.7191389799118042
34.579708099365234 -20.080646514892578 0.7057112455368042
34.5775260925293 -20.364242553710938 0.690660297870636
34.603126525878906 -20.666461944580078 0.6730278730392456
34.61863327026367 -20.965110778808594 0.6560293436050415
34.58586883544922 -21.236549377441406 0.6429758071899414
34.56039047241211 -21.51417350769043 0.6291013956069946
34.58340072631836 -21.8242130279541 0.6107909083366394
34.556854248046875 -22.10525131225586 0.5965882539749146
34.585052490234375 -22.423677444458008 0.5773438215255737
34.62563705444336 -22.753135681152344 0.5567384362220764
34.585445404052734 -23.0319766998291 0.5430732369422913
34.69853210449219 -23.41604995727539 0.5154320597648621
34.75386428833008 -23.765222549438477 0.49264901876449585
34.74308776855469 -24.072223663330078 0.47556519508361816
34.753517150878906 -24.396602630615234 0.45629826188087463
34.81082534790039 -24.75726318359375 0.4324484169483185
34.81565856933594 -25.0839900970459 0.41312375664711
34.792808532714844 -25.393476486206055 0.39609891176223755
34.82599639892578 -25.746898651123047 0.3735769987106323
34.82980728149414 -26.081958770751953 0.35350292921066284
34.8355712890625 -26.421646118164062 0.3329518139362335
34.863773345947266 -26.78182601928711 0.30996260046958923
34.85580062866211 -27.117624282836914 0.290111780166626
34.80506134033203 -27.422855377197266 0.2740933895111084
34.84541702270508 -27.803115844726562 0.2489781230688095
34.76606369018555 -28.090898513793945 0.23519845306873322
34.73695755004883 -28.42168617248535 0.2162509709596634
34.84560775756836 -28.869585037231445 0.18337376415729523
34.88740539550781 -29.267335891723633 0.1566821187734604
34.89750671386719 -29.642793655395508 0.1327723264694214
34.913368225097656 -30.02727508544922 0.10791681706905365
30.31363868713379 -28.778575897216797 0.39903756976127625
32.334144592285156 30.853309631347656 1.2246921062469482
32.3277587890625 30.470836639404297 1.2351562976837158
32.30183792114258 30.074636459350586 1.2468303442001343
32.45674514770508 29.849573135375977 1.2449548244476318
32.500736236572266 29.524368286132812 1.251079797744751
32.454261779785156 29.121057510375977 1.2636173963546753
32.39959716796875 28.7154598236084 1.276511788368225
32.54553985595703 28.49053382873535 1.2746275663375854
32.535858154296875 28.131664276123047 1.2838537693023682
32.57008743286133 27.814193725585938 1.2897138595581055
32.57417678833008 27.47418785095215 1.2975538969039917
32.596805572509766 27.153076171875 1.3038766384124756
32.598995208740234 26.818132400512695 1.3114748001098633
32.619232177734375 26.50118637084961 1.3176051378250122
32.65473556518555 26.199378967285156 1.3224811553955078
32.66115188598633 25.87704849243164 1.32924222946167
32.668785095214844 25.558706283569336 1.3357430696487427
32.69666290283203 25.258949279785156 1.340652346611023
32.69431686401367 24.938617706298828 1.3475141525268555
32.71639633178711 24.639694213867188 1.352502465248108
32.71921157836914 24.32892417907715 1.3586723804473877
32.74119186401367 24.035005569458008 1.3633503913879395
32.536861419677734 23.579437255859375 1.3835265636444092
32.5766716003418 23.305051803588867 1.386629581451416
32.669803619384766 23.070236206054688 1.3859244585037231
32.71131896972656 22.800323486328125 1.3886394500732422
32.711273193359375 22.50360679626465 1.3940621614456177
32.62870407104492 22.153352737426758 1.4049735069274902
32.68407440185547 21.899438858032227 1.4063116312026978
32.735904693603516 21.644580841064453 1.4077634811401367
32.726470947265625 21.351173400878906 1.4132448434829712
32.75581359863281 21.085180282592773 1.4159581661224365
32.78986740112305 20.82391357421875 1.418222427368164
32.81349563598633 20.557720184326172 1.4210624694824219
18.41552734375 11.380193710327148 2.394312620162964
18.406410217285156 11.219210624694824 2.3972647190093994
18.396869659423828 11.059283256530762 2.4001693725585938
18.37833595275879 10.89531421661377 2.4036006927490234
32.84621047973633 19.202226638793945 1.4390736818313599
32.9259147644043 18.97894859313965 1.4374154806137085
32.87392807006836 18.681425094604492 1.4444199800491333
32.81953430175781 18.38525390625 1.4514493942260742
32.87024688720703 18.149816513061523 1.4513696432113647
32.96665954589844 17.940214157104492 1.44814932346344
32.999271392822266 17.696613311767578 1.4490516185760498
33.02131652832031 17.44862174987793 1.450541615486145
33.02207946777344 17.190881729125977 1.4533227682113647
33.04758071899414 16.947458267211914 1.4543594121932983
33.05440902709961 16.69581413269043 1.4565147161483765
33.05046081542969 16.44028091430664 1.4592680931091309
33.07600402832031 16.200794219970703 1.4599707126617432
33.08097839355469 15.95250415802002 1.461917757987976
33.089561462402344 15.707332611083984 1.4635192155838013
33.10723876953125 15.467726707458496 1.4644181728363037
33.119598388671875 15.226826667785645 1.4655601978302002
33.154808044433594 14.997465133666992 1.465102195739746
33.12826156616211 14.74145793914795 1.4685801267623901
33.128177642822266 14.498749732971191 1.4702227115631104
33.129112243652344 14.257779121398926 1.4716947078704834
33.13478088378906 14.020065307617188 1.4727568626403809
33.17288589477539 13.797002792358398 1.4716038703918457
33.17161178588867 13.558513641357422 1.472918152809143
33.195533752441406 13.331348419189453 1.4724924564361572
33.074920654296875 13.04798412322998 1.4813745021820068
33.110321044921875 12.827908515930176 1.4800039529800415
33.56035614013672 12.766180992126465 1.4515793323516846
33.674224853515625 12.573700904846191 1.44492769241333
33.70452117919922 12.350079536437988 1.4436140060424805
33.72488784790039 12.123519897460938 1.4428497552871704
33.7428092956543 11.896841049194336 1.4421488046646118
33.74789810180664 11.666484832763672 1.4421862363815308
33.741981506347656 11.433308601379395 1.4428439140319824
33.7458381652832 11.204418182373047 1.4427721500396729
33.76240539550781 10.980539321899414 1.441781997680664
33.78224563598633 10.758394241333008 1.4404860734939575
33.807308197021484 10.538496971130371 1.4387587308883667
33.81758117675781 10.314618110656738 1.4378992319107056
33.79290008544922 10.081021308898926 1.4392176866531372
33.81071090698242 9.860970497131348 1.437685489654541
33.8309326171875 9.64217472076416 1.435905933380127
33.837242126464844 9.42002010345459 1.434938907623291
33.850772857666016 9.200505256652832 1.433413028717041
33.84552001953125 8.976572036743164 1.4330185651779175
33.8561897277832 8.757548332214355 1.4314988851547241
33.87705993652344 8.541658401489258 1.4292265176773071
33.88783264160156 8.32369613647461 1.4275219440460205
33.90011978149414 8.106619834899902 1.4256293773651123
33.904212951660156 7.888121604919434 1.4241816997528076
33.903987884521484 7.669215679168701 1.422928810119629
33.92379379272461 7.455321311950684 1.4202805757522583
33.9461555480957 7.242303848266602 1.4173773527145386
33.95252990722656 7.026257038116455 1.4154300689697266
33.95752716064453 6.810402870178223 1.4134845733642578
33.960174560546875 6.594560623168945 1.4116055965423584
33.96243667602539 6.379125118255615 1.4096660614013672
33.97020721435547 6.16515588760376 1.4072785377502441
33.988426208496094 5.953396797180176 1.4041178226470947
34.00138854980469 5.7409796714782715 1.401214838027954
34.013031005859375 5.528625011444092 1.3983118534088135
34.00362014770508 5.313260555267334 1.3967050313949585
34.0116081237793 5.1010308265686035 1.3938686847686768
34.0320930480957 4.890889644622803 1.3901218175888062
34.04336929321289 4.679599761962891 1.3868924379348755
34.04740524291992 4.4675750732421875 1.3840562105178833
34.060020446777344 4.256913185119629 1.3805646896362305
34.076290130615234 4.04685115814209 1.376744031906128
33.51713943481445 3.7721142768859863 1.4109923839569092
33.51158142089844 3.563495397567749 1.4084926843643188
33.56827163696289 3.361450672149658 1.4017720222473145
33.624725341796875 3.1589362621307373 1.394970178604126
33.64716339111328 2.9529736042022705 1.3903428316116333
33.6544075012207 2.7457165718078613 1.3866384029388428
33.66237258911133 2.538630247116089 1.3828009366989136
33.67403793334961 2.331892490386963 1.3786283731460571
33.66352081298828 2.1237854957580566 1.375855565071106
33.655704498291016 1.9161206483840942 1.3728185892105103
33.6595573425293 1.7092881202697754 1.368911623954773
33.66214370727539 1.5024787187576294 1.3650028705596924
33.68638610839844 1.2965834140777588 1.3595459461212158
19.279876708984375 0.6231392025947571 2.329850435256958
12.997736930847168 0.33989521861076355 2.753126859664917
12.373035430908203 0.24756421148777008 2.7939453125
12.429084777832031 0.17243067920207977 2.788602590560913
33.751739501953125 0.263333261013031 1.3346751928329468
33.75342559814453 0.05629921704530716 1.3302056789398193
12.741106986999512 -0.057681743055582047 2.7624568939208984
33.786895751953125 -0.3581569790840149 1.3189371824264526
33.785762786865234 -0.5654299259185791 1.3143891096115112
12.821342468261719 -0.2940309941768646 2.751704454421997
33.80460739135742 -0.9806942939758301 1.3035701513290405
33.80662536621094 -1.1883457899093628 1.2985327243804932
33.810359954833984 -1.3961840867996216 1.2932852506637573
33.72612380981445 -1.600005030632019 1.2940475940704346
12.714095115661621 -0.6821452379226685 2.7496984004974365
12.899761199951172 -0.7714763283729553 2.734781503677368
12.869787216186523 -0.8489489555358887 2.734830617904663
12.816466331481934 -0.9244351983070374 2.736488103866577
12.50810718536377 -0.9793905019760132 2.756021499633789
33.88414764404297 -2.860241174697876 1.250586748123169
12.80290699005127 -1.160650372505188 2.7310309410095215
12.738840103149414 -1.2336853742599487 2.733351469039917
12.785494804382324 -1.3174192905426025 2.727813482284546
13.956103324890137 -1.5245074033737183 2.64239501953125
12.289521217346191 -1.4189541339874268 2.758538007736206
33.93927001953125 -4.127568244934082 1.210727334022522
12.668724060058594 -1.6204466819763184 2.7268407344818115
12.6396484375 -1.6956069469451904 2.7265236377716064
12.620991706848145 -1.7719968557357788 2.7254302501678467
12.61174488067627 -1.8496688604354858 2.7236275672912598
12.599061012268066 -1.9268428087234497 2.7220394611358643
12.541577339172363 -1.996877908706665 2.7236685752868652
12.50339412689209 -2.0695371627807617 2.7238786220550537
34.008975982666016 -5.841516017913818 1.1520881652832031
29.255773544311523 -5.210257530212402 1.4927424192428589
34.01649856567383 -6.273472785949707 1.1370809078216553
34.03583908081055 -6.493220806121826 1.1282681226730347
34.011680603027344 -6.705149173736572 1.122550129890442
33.93733596801758 -6.907083988189697 1.1204499006271362
33.89692687988281 -7.11573600769043 1.1157519817352295
33.92737579345703 -7.339756965637207 1.1056824922561646
33.95439910888672 -7.563987731933594 1.0957428216934204
33.99161148071289 -7.791500568389893 1.0849144458770752
34.040889739990234 -8.022957801818848 1.073045253753662
34.0711555480957 -8.251089096069336 1.0624710321426392
34.07860565185547 -8.474601745605469 1.053493618965149
34.10295486450195 -8.703202247619629 1.0431102514266968
34.109371185302734 -8.928129196166992 1.0339622497558594
34.12297439575195 -9.15578842163086 1.0241402387619019
34.117759704589844 -9.379196166992188 1.0156347751617432
34.116844177246094 -9.604504585266113 1.006676435470581
34.1297721862793 -9.834575653076172 0.9965250492095947
34.12394332885742 -10.060090065002441 0.9876951575279236
34.12712478637695 -10.289072036743164 0.9780400991439819
34.1735725402832 -10.53227710723877 0.964876115322113
34.150779724121094 -10.755171775817871 0.9569822549819946
34.14362335205078 -10.983681678771973 0.9477405548095703
34.14915466308594 -11.217179298400879 0.9373676180839539
34.15215301513672 -11.450839042663574 0.9270572066307068
34.17904281616211 -11.69367504119873 0.9147092700004578
34.17786407470703 -11.928071975708008 0.9044472575187683
34.15066909790039 -12.154205322265625 0.8961316347122192
34.138858795166016 -12.386575698852539 0.8864542841911316
34.23583221435547 -12.660065650939941 0.8678525686264038
34.28873825073242 -12.919390678405762 0.8526190519332886
34.271785736083984 -13.153762817382812 0.8428915739059448
34.32660675048828 -13.41708755493164 0.8271594047546387
34.33038330078125 -13.662042617797852 0.8154294490814209
34.332435607910156 -13.907546997070312 0.8036859035491943
34.35304260253906 -14.161953926086426 0.790249764919281
34.36261749267578 -14.41327953338623 0.7775594592094421
34.345638275146484 -14.654691696166992 0.7669191956520081
34.35990524291992 -14.910728454589844 0.7535097599029541
29.513959884643555 -13.023823738098145 1.1490674018859863
34.41380310058594 -15.438841819763184 0.7240222096443176
34.416046142578125 -15.69431209564209 0.7110953330993652
34.42820358276367 -15.955842018127441 0.6971496343612671
34.432125091552734 -16.215139389038086 0.6837269067764282
34.441349029541016 -16.478525161743164 0.6696682572364807
34.44055938720703 -16.73871421813965 0.6562895774841309
34.482566833496094 -17.021577835083008 0.6390138268470764
34.46089553833008 -17.27475929260254 0.6270761489868164
34.39564895629883 -17.507062911987305 0.6187875270843506
34.35364532470703 -17.752031326293945 0.6083172559738159
34.43970489501953 -18.065217971801758 0.5863580703735352
34.385921478271484 -18.30704116821289 0.5765637755393982
34.43220901489258 -18.603857040405273 0.5576770901679993
30.822113037109375 -16.898706436157227 0.8667741417884827
30.791563034057617 -17.128633499145508 0.8559445142745972
34.57423400878906 -19.511560440063477 0.49926745891571045
34.60056686401367 -19.80745506286621 0.48120808601379395
34.568519592285156 -20.071868896484375 0.4682546555995941
34.5637321472168 -20.353832244873047 0.45260217785835266
34.598716735839844 -20.66153907775879 0.43305346369743347
34.615013122558594 -20.96062660217285 0.41498175263404846
34.629783630371094 -21.261211395263672 0.3968079090118408
34.5854606628418 -21.527477264404297 0.38393735885620117
34.558555603027344 -21.806230545043945 0.36922687292099
34.594181060791016 -22.12681770324707 0.3483639657497406
34.65309524536133 -22.465473175048828 0.3249945640563965
34.59084701538086 -22.72795867919922 0.3129441440105438
30.39645004272461 -20.240467071533203 0.6995618939399719
30.291996002197266 -20.440467834472656 0.6934370994567871
34.641868591308594 -23.686309814453125 0.2524360716342926
34.68720626831055 -24.031171798706055 0.22891715168952942
34.73613357543945 -24.382055282592773 0.20471954345703125
29.84969711303711 -21.22711181640625 0.670161247253418
29.97814178466797 -21.59681510925293 0.6401825547218323
29.763385772705078 -21.72093963623047 0.644274115562439
29.677284240722656 -21.938640594482422 0.6353673338890076
29.62712860107422 -22.184175491333008 0.6226518154144287
29.581424713134766 -22.43474006652832 0.6092803478240967
29.552722930908203 -22.700149536132812 0.5939496755599976
32.34548568725586 30.822269439697266 0.9746853709220886
32.38824462890625 30.48644256591797 0.9825992584228516
32.30017852783203 30.032299041748047 1.0009506940841675
32.41876983642578 29.774188995361328 1.0022166967391968
32.50954055786133 29.492277145385742 1.0055650472640991
32.47690200805664 29.10178565979004 1.0186684131622314
32.416046142578125 28.690977096557617 1.0337769985198975
32.55803680419922 28.46269416809082 1.0324077606201172
32.56473159790039 28.118276596069336 1.0416672229766846
32.597293853759766 27.799461364746094 1.0486546754837036
32.598934173583984 27.457515716552734 1.057884693145752
32.609886169433594 27.126813888549805 1.0661662817001343
32.61878967285156 26.79764747619629 1.0744026899337769
32.62489318847656 26.469390869140625 1.0826544761657715
32.671043395996094 26.17640495300293 1.0875840187072754
32.66551971435547 25.84482765197754 1.0963499546051025
32.67525863647461 25.528438568115234 1.1037342548370361
32.682350158691406 25.212909698486328 1.1111332178115845
32.71142578125 24.917001724243164 1.1166539192199707
32.731719970703125 24.616891860961914 1.1226725578308105
32.73835754394531 24.309139251708984 1.1295619010925293
32.75292205810547 24.009906768798828 1.1356672048568726
32.549163818359375 23.555164337158203 1.158204197883606
32.6131477355957 23.298206329345703 1.1601741313934326
32.668678283691406 23.036746978759766 1.1626358032226562
32.71977615356445 22.773773193359375 1.1652857065200806
32.72610092163086 22.48165512084961 1.171156406402588
32.799476623535156 22.237361907958984 1.1718326807022095
32.720947265625 21.892553329467773 1.1837471723556519
32.764366149902344 21.63204002380371 1.186363697052002
32.77070236206055 21.34893798828125 1.1916013956069946
32.83189392089844 21.103271484375 1.1926069259643555
32.80702590942383 20.804201126098633 1.1998637914657593
32.817806243896484 20.530054092407227 1.2043230533599854
18.416202545166016 11.363289833068848 2.2733047008514404
18.439355850219727 11.222089767456055 2.2743823528289795
18.404142379760742 11.04661750793457 2.279679536819458
18.38808822631836 10.884201049804688 2.283479690551758
32.88484191894531 19.19556999206543 1.2235063314437866
32.925559997558594 18.949684143066406 1.2249313592910767
32.93324661254883 18.686290740966797 1.2286394834518433
32.817012786865234 18.35530662536621 1.2412482500076294
32.88236618041992 18.12812614440918 1.2404780387878418
32.97686767578125 17.917510986328125 1.2374730110168457
33.00227355957031 17.670141220092773 1.2393704652786255
33.022361755371094 17.42127227783203 1.2415293455123901
33.03976058959961 17.172361373901367 1.243759036064148
33.05889892578125 16.92571258544922 1.2457389831542969
33.05665969848633 16.669588088989258 1.249139428138733
33.065040588378906 16.420339584350586 1.2516493797302246
33.07878494262695 16.175127029418945 1.2536530494689941
33.094364166259766 15.93209457397461 1.255405306816101
33.09739303588867 15.684347152709961 1.2579400539398193
33.113094329833984 15.443914413452148 1.2594478130340576
33.12891387939453 15.204710960388184 1.26083242893219
33.1694221496582 14.977804183959961 1.2603347301483154
33.104434967041016 14.70478630065918 1.2672687768936157
33.12147903442383 14.469886779785156 1.2682206630706787
33.133216857910156 14.233757019042969 1.2694398164749146
33.1396369934082 13.996471405029297 1.270926833152771
33.173885345458984 13.77188777923584 1.270321011543274
33.199241638183594 13.544393539428711 1.270241618156433
33.1943359375 13.305595397949219 1.2722067832946777
33.0772819519043 13.023858070373535 1.2820371389389038
33.12088394165039 12.807043075561523 1.280333399772644
33.539005279541016 12.73292350769043 1.2519299983978271
33.670406341552734 12.547171592712402 1.2438026666641235
33.719261169433594 12.330465316772461 1.2414332628250122
33.72164535522461 12.097455024719238 1.2422559261322021
33.74409103393555 11.872496604919434 1.2415519952774048
33.73203659057617 11.636326789855957 1.2431888580322266
33.747657775878906 11.410660743713379 1.242760419845581
33.75041580200195 11.181472778320312 1.2431398630142212
33.76397705078125 10.956683158874512 1.2426527738571167
33.79220962524414 10.737283706665039 1.241024136543274
33.80854797363281 10.514689445495605 1.2401373386383057
33.811973571777344 10.288810729980469 1.2400633096694946
33.795738220214844 10.057877540588379 1.2412809133529663
33.810508728027344 9.837007522583008 1.2402037382125854
33.823848724365234 9.6163330078125 1.239128589630127
33.83768081665039 9.39639663696289 1.2379196882247925
33.847190856933594 9.17586898803711 1.2369178533554077
33.860103607177734 8.956852912902832 1.2355769872665405
33.861934661865234 8.735528945922852 1.2349228858947754
33.868141174316406 8.515978813171387 1.2338621616363525
33.885520935058594 8.299765586853027 1.2319118976593018
33.90346908569336 8.084121704101562 1.2298256158828735
33.90449142456055 7.864959239959717 1.228840947151184
33.90702819824219 7.646745681762695 1.227654218673706
33.92473220825195 7.4324259757995605 1.2252942323684692
33.94010543823242 7.217967987060547 1.2230042219161987
33.949241638183594 7.002591609954834 1.221061110496521
33.95212173461914 6.786395072937012 1.2194682359695435
33.962440490722656 6.5721306800842285 1.2172505855560303
33.963565826416016 6.356525897979736 1.2155921459197998
33.969215393066406 6.142217636108398 1.2135173082351685
33.9892463684082 5.930822372436523 1.2103232145309448
34.00204849243164 5.718417167663574 1.2075486183166504
34.003684997558594 5.504482269287109 1.2054756879806519
34.00495910644531 5.290894031524658 1.2033360004425049
34.00094223022461 5.076906204223633 1.2014802694320679
34.02521514892578 4.867404460906982 1.1975070238113403
34.03435516357422 4.655900955200195 1.1945208311080933
34.049102783203125 4.445370197296143 1.191038727760315
34.06057357788086 4.234586238861084 1.1876965761184692
34.062808990478516 4.022890090942383 1.1849225759506226
33.51655960083008 3.7500686645507812 1.2215304374694824
33.50589370727539 3.540949583053589 1.2195442914962769
33.56339645385742 3.339017152786255 1.2125511169433594
33.61372375488281 3.135953903198242 1.205973505973816
33.6419563293457 2.9305782318115234 1.200893759727478
33.656002044677734 2.7239253520965576 1.196742296218872
33.66082763671875 2.5166127681732178 1.1931654214859009
33.6733283996582 2.3099570274353027 1.1889374256134033
33.677589416503906 2.1028053760528564 1.1852134466171265
33.681575775146484 1.8957418203353882 1.1814152002334595
33.68428421020508 1.6887073516845703 1.1776164770126343
33.691707611083984 1.481972098350525 1.1733802556991577
33.71180725097656 1.2757363319396973 1.1681214570999146
19.262685775756836 0.6097704768180847 2.222663164138794
33.70733642578125 0.8616470098495483 1.160585641860962
33.717655181884766 0.6549903750419617 1.1557543277740479
13.010601997375488 0.17164969444274902 2.6759233474731445
33.74146270751953 0.24144724011421204 1.1455671787261963
33.755950927734375 0.03449166938662529 1.1401355266571045
33.75819778442383 -0.1725790798664093 1.135509967803955
12.821944236755371 -0.145482137799263 2.683107614517212
12.766849517822266 -0.22319523990154266 2.6854329109191895
11.725281715393066 -0.2771093249320984 2.76114559173584
12.805773735046387 -0.3810642957687378 2.6789019107818604
33.7982063293457 -1.2099093198776245 1.108780026435852
33.769893646240234 -1.4163659811019897 1.1058526039123535
33.723388671875 -1.6217095851898193 1.104199767112732
12.718405723571777 -0.6911203265190125 2.6777443885803223
12.864109992980957 -0.7781886458396912 2.6647589206695557
12.867926597595215 -0.8576764464378357 2.6623988151550293
33.871055603027344 -2.463003158569336 1.0715043544769287
12.535106658935547 -0.9901590943336487 2.683370351791382
13.091034889221191 -1.1148306131362915 2.63899827003479
12.767053604125977 -1.1662237644195557 2.6614058017730713
13.063220024108887 -1.2740843296051025 2.6365504264831543
13.105616569519043 -1.3594272136688232 2.6309664249420166
13.117718696594238 -1.4420747756958008 2.627650022506714
12.234916687011719 -1.4211845397949219 2.693086624145508
33.926517486572266 -4.148259162902832 1.0190929174423218
33.90998458862305 -4.3575520515441895 1.0138707160949707
33.95343017578125 -4.575050354003906 1.0039026737213135
33.938209533691406 -4.785178184509277 0.9983653426170349
12.962285041809082 -1.9101060628890991 2.624544143676758
12.848689079284668 -1.9740005731582642 2.6307616233825684
13.04198169708252 -2.085649013519287 2.6129660606384277
33.98823165893555 -5.646058559417725 0.9664754271507263
33.98896789550781 -5.860697269439697 0.9591374397277832
13.465234756469727 -2.4082281589508057 2.5711870193481445
34.02361297607422 -6.29752779006958 0.9414945840835571
34.009456634521484 -6.510977268218994 0.9349870085716248
12.611363410949707 -2.496025562286377 2.630075454711914
33.92631912231445 -6.927694320678711 0.926017701625824
33.89746856689453 -7.138742923736572 0.9203671216964722
33.899452209472656 -7.35667610168457 0.9121360778808594
33.94576644897461 -7.585118293762207 0.9002141356468201
33.98374557495117 -7.8128437995910645 0.8888219594955444
34.02117156982422 -8.04155158996582 0.8773327469825745
34.057064056396484 -8.271013259887695 0.8658258318901062
34.073036193847656 -8.496637344360352 0.8557993173599243
34.09621047973633 -8.724994659423828 0.8450496196746826
34.10725784301758 -8.951173782348633 0.8351541757583618
34.13028335571289 -9.181443214416504 0.8241382241249084
34.11235809326172 -9.40147590637207 0.8163617253303528
34.09589385986328 -9.622447967529297 0.8083411455154419
34.11055374145508 -9.852977752685547 0.7976087927818298
34.1408805847168 -10.089134216308594 0.7854272127151489
34.113285064697266 -10.309024810791016 0.7779402732849121
34.17475128173828 -10.556901931762695 0.7628503441810608
34.147953033447266 -10.778623580932617 0.7550259828567505
34.15007019042969 -11.010201454162598 0.7446296215057373
34.148738861083984 -11.241588592529297 0.7343832850456238
34.18553161621094 -11.48670768737793 0.7207446694374084
34.17721939086914 -11.717833518981934 0.7107939720153809
34.17676544189453 -11.952579498291016 0.7000278830528259
34.15311813354492 -12.180065155029297 0.6911093592643738
34.12046813964844 -12.404986381530762 0.6828339099884033
34.244293212890625 -12.688483238220215 0.6608437299728394
34.27266311645508 -12.938769340515137 0.6469336748123169
34.28342819213867 -13.183798789978027 0.6343885660171509
34.293399810791016 -13.429813385009766 0.6217458844184875
34.3062629699707 -13.678291320800781 0.6086791753768921
34.32013702392578 -13.928558349609375 0.5953512191772461
34.34051513671875 -14.18293285369873 0.5812686085700989
34.34343338012695 -14.431522369384766 0.5685625672340393
34.31892776489258 -14.66971206665039 0.5581409335136414
34.33483123779297 -14.926422119140625 0.5439285039901733
29.486740112304688 -13.034891128540039 0.9690662026405334
34.40194320678711 -15.460454940795898 0.5117368698120117
34.3994255065918 -15.713822364807129 0.49862125515937805
34.41044998168945 -15.974872589111328 0.48408475518226624
34.4123420715332 -16.233251571655273 0.47019389271736145
34.41595458984375 -16.493976593017578 0.455955445766449
34.42482376098633 -16.758848190307617 0.4410349130630493
34.454063415527344 -17.03548812866211 0.42401644587516785
34.43132400512695 -17.2880802154541 0.41164106130599976
34.3668212890625 -17.52066993713379 0.40301069617271423
34.31580352783203 -17.760908126831055 0.3929610550403595
34.42280197143555 -18.085058212280273 0.36775943636894226
34.33892822265625 -18.31085777282715 0.3604485094547272
34.41571044921875 -18.624042510986328 0.33761537075042725
30.79779052734375 -16.911693572998047 0.6700307726860046
30.79492950439453 -17.15701675415039 0.6560357213020325
34.54560470581055 -19.525243759155273 0.2771488428115845
34.55786895751953 -19.813087463378906 0.25949525833129883
34.53860855102539 -20.08478355407715 0.24469296634197235
34.524173736572266 -20.361038208007812 0.22920000553131104
34.55210876464844 -20.664466857910156 0.20928554236888885
34.47025680541992 -20.90390396118164 0.20003747940063477
34.3774299621582 -21.137380599975586 0.1917268931865692
34.38872528076172 -21.436384201049805 0.1727839857339859
34.410274505615234 -21.74430274963379 0.15254047513008118
34.525814056396484 -22.115089416503906 0.12245853245258331
34.51941680908203 -22.411075592041016 0.10445643216371536
34.37001419067383 -22.615262985229492 0.10089471191167831
34.0187873840332 -22.684707641601562 0.11808252334594727
30.261856079101562 -20.44926643371582 0.4892634451389313
29.805383682250977 -21.22536277770996 0.46698909997940063
30.183238983154297 -21.774965286254883 0.4085488021373749
29.764728546142578 -21.752197265625 0.434959352016449
