# .PCD v0.7 - Point Cloud Data file format
VERSION 0.7
FIELDS x y z
SIZE 4 4 4
TYPE F F F
COUNT 1 1 1
WIDTH 850
HEIGHT 1
VIEWPOINT 0 0 0 1 0 0 0
POINTS 850
DATA ascii
33.74245834350586 0.24145440757274628 1.1454932689666748
33.74597930908203 0.03448085859417915 1.1408714056015015
33.76517868041992 -0.17261433601379395 1.134993314743042
12.812970161437988 -0.14538174867630005 2.6837728023529053
12.765851974487305 -0.223177969455719 2.685506820678711
11.699360847473145 -0.27650126814842224 2.7630743980407715
12.819729804992676 -0.38147732615470886 2.677861452102661
33.788238525390625 -1.2095533609390259 1.1095246076583862
33.79081344604492 -1.4172422885894775 1.1042864322662354
33.720401763916016 -1.6215660572052002 1.1044244766235352
12.741308212280273 -0.6923611760139465 2.676023006439209
12.863114356994629 -0.7781286239624023 2.6648340225219727
12.862951278686523 -0.8573456406593323 2.6627743244171143
33.85912322998047 -2.4621360301971436 1.072407603263855
12.525166511535645 -0.9893754124641418 2.684123992919922
13.099976539611816 -1.1155906915664673 2.6383190155029297
12.765067100524902 -1.166042685508728 2.6615569591522217
13.066198348999023 -1.27437424659729 2.6363232135772705
13.11652660369873 -1.360557198524475 2.630131721496582
13.103842735290527 -1.440551519393921 2.628714084625244
13.092652320861816 -1.5206719636917114 2.627145767211914
33.94037628173828 -4.149952411651611 1.0180249214172363
33.930755615234375 -4.360219478607178 1.0122660398483276
33.94355010986328 -4.5737199783325195 1.0046684741973877
33.92833709716797 -4.783786296844482 0.9991315603256226
12.945515632629395 -1.9076377153396606 2.625849723815918
12.883182525634766 -1.9792941808700562 2.6280691623687744
13.031152725219727 -2.083918809890747 2.613813638687134
33.99314880371094 -5.646875381469727 0.9660897254943848
33.98503875732422 -5.860020160675049 0.9594470262527466
13.444623947143555 -2.4045450687408447 2.5728132724761963
33.99714279174805 -6.292630195617676 0.9435887336730957
34.009456634521484 -6.510977268218994 0.9349870085716248
12.612340927124023 -2.4962191581726074 2.629997730255127
33.93120193481445 -6.928691387176514 0.9256280064582825
33.91893005371094 -7.143261432647705 0.9186491370201111
33.899452209472656 -7.35667610168457 0.9121360778808594
33.93214416503906 -7.582075119018555 0.9013110995292664
33.95071029663086 -7.805251598358154 0.89149010181427
34.02796173095703 -8.043155670166016 0.876783013343811
34.037689208984375 -8.26630973815918 0.8674006462097168
34.03240966796875 -8.486509323120117 0.8591118454933167
34.105873107910156 -8.727465629577637 0.8442590832710266
34.10918426513672 -8.951680183410645 0.8349965214729309
34.113914489746094 -9.177042007446289 0.8254855871200562
34.11235809326172 -9.40147590637207 0.8163617253303528
34.10932159423828 -9.626237869262695 0.8072288036346436
34.109596252441406 -9.852701187133789 0.7976888418197632
34.131317138671875 -10.086309432983398 0.7862251996994019
34.138092041015625 -10.316520690917969 0.7758636474609375
34.1433219909668 -10.547195434570312 0.765490710735321
34.15175247192383 -10.779823303222656 0.7547056078910828
34.13868713378906 -11.006531715393066 0.7455930113792419
34.14684295654297 -11.240965843200684 0.7345438599586487
34.16663360595703 -11.480359077453613 0.7223551869392395
34.158363342285156 -11.711368560791016 0.7124073505401611
34.18899917602539 -11.956856727600098 0.6989774107933044
34.127769470214844 -12.171027183532715 0.6932937502861023
34.13545608520508 -12.41043472290039 0.6815380454063416
34.209712982177734 -12.675673484802246 0.6638461947441101
34.278255462646484 -12.940881729125977 0.646446943283081
34.29552459716797 -13.18844985961914 0.6333301663398743
34.31196212768555 -13.437080383300781 0.6201151609420776
34.3062629699707 -13.678291320800781 0.6086791753768921
34.316444396972656 -13.927059173583984 0.595678448677063
34.32946014404297 -14.17836856842041 0.5822516083717346
34.3324089050293 -14.426889419555664 0.5695462822914124
34.31709671020508 -14.668929100036621 0.5583049654960632
34.349456787109375 -14.932779312133789 0.5426123142242432
29.46577262878418 -13.02562427520752 0.9709610342979431
34.39558029174805 -15.457594871520996 0.5123137831687927
34.40395736694336 -15.71589183807373 0.4982081949710846
34.399600982666016 -15.969839096069336 0.48507827520370483
34.4195556640625 -16.236652374267578 0.46953117847442627
34.41775131225586 -16.49483871459961 0.45578935742378235
34.4167594909668 -16.75492286682129 0.44178253412246704
34.431732177734375 -17.024446487426758 0.4260967969894409
34.442901611328125 -17.293893814086914 0.41055750846862793
34.37480926513672 -17.524742126464844 0.40225979685783386
34.31580352783203 -17.760908126831055 0.3929610550403595
34.42985916137695 -18.08876609802246 0.3670896887779236
34.35563659667969 -18.319766998291016 0.3588557541370392
34.393798828125 -18.612186431884766 0.33971360325813293
30.796916961669922 -16.91121482849121 0.6701144576072693
30.78448486328125 -17.15119743347168 0.6570459008216858
34.541263580322266 -19.522794723510742 0.2775708734989166
34.57083511352539 -19.820520401000977 0.25822970271110535
34.52826690673828 -20.078773498535156 0.24570728838443756
34.53189468383789 -20.3655948638916 0.22843922674655914
34.54440689086914 -20.65986442565918 0.21004825830459595
34.4387321472168 -20.884790420532227 0.2031775861978531
34.41986846923828 -21.16347312927246 0.1874774545431137
34.39887619018555 -21.44270896911621 0.17176282405853271
34.435546875 -21.760271072387695 0.14998432993888855
34.58203125 -22.151092529296875 0.11674156785011292
34.5202522277832 -22.411617279052734 0.10437163710594177
34.34587478637695 -22.599382400512695 0.10337565094232559
33.979827880859375 -22.65873146057129 0.12210885435342789
30.261856079101562 -20.44926643371582 0.4892634451389313
29.834598541259766 -21.246164321899414 0.4638846516609192
30.15738296508789 -21.756315231323242 0.41131147742271423
29.763120651245117 -21.751022338867188 0.4351320266723633
29.68396759033203 -21.97406578063965 0.4251112937927246
29.642253875732422 -22.226238250732422 0.410845011472702
29.583480834960938 -22.467281341552734 0.39821797609329224
29.56234359741211 -22.738805770874023 0.3812423646450043
33.89127731323242 -29.91790771484375 -0.3616722524166107
33.75190353393555 -30.165706634521484 -0.3716983497142792
33.65581130981445 -30.453689575195312 -0.38709717988967896
33.466373443603516 -30.6581974029541 -0.3915437161922455
33.6839599609375 -31.24015235900879 -0.4454062879085541
20.1824951171875 -18.95115852355957 1.1727073192596436
20.020782470703125 -19.032045364379883 1.1754258871078491
32.3416748046875 30.889739990234375 0.6829532980918884
31.45454216003418 29.67599868774414 0.7766717076301575
15.538161277770996 14.481078147888184 2.2285706996917725
31.651081085205078 29.136531829833984 0.7836986780166626
31.6597957611084 28.788122177124023 0.7949501276016235
32.018798828125 28.758068084716797 0.774665892124176
32.30620574951172 28.660457611083984 0.7607501149177551
32.484798431396484 28.465045928955078 0.7564217448234558
32.51961135864258 28.14511489868164 0.764647901058197
32.53959655761719 27.815454483032227 0.7739508152008057
32.577354431152344 27.50398826599121 0.7814659476280212
32.59183120727539 27.17585563659668 0.7907944917678833
32.62046432495117 26.862537384033203 0.7986645698547363
32.59771728515625 26.51023292541504 0.8107696771621704
32.63334274291992 26.208576202392578 0.8175942897796631
32.65321350097656 25.896942138671875 0.8255706429481506
32.656349182128906 25.574981689453125 0.834771454334259
32.660728454589844 25.257007598876953 0.8436509370803833
32.695743560791016 24.965375900268555 0.8497105836868286
32.71726608276367 24.66585922241211 0.8567250370979309
32.72034454345703 24.355104446411133 0.8651052713394165
32.751399993896484 24.067691802978516 0.8709243535995483
32.57100296020508 23.629077911376953 0.8943426609039307
32.617652893066406 23.35914421081543 0.8984358906745911
32.682586669921875 23.103925704956055 0.9008304476737976
32.68753433227539 22.80825424194336 0.9080679416656494
32.741851806640625 22.549043655395508 0.9110147356987
32.76287078857422 22.268714904785156 0.9165636301040649
32.76926040649414 21.98063850402832 0.9231500625610352
32.76171112060547 21.68561553955078 0.9307110905647278
32.786865234375 21.414424896240234 0.9354010224342346
32.83927917480469 21.162656784057617 0.9376896023750305
32.83932876586914 20.878938674926758 0.944116473197937
32.82615280151367 20.58912467956543 0.9514544606208801
32.82933044433594 20.311803817749023 0.9572879672050476
32.86952209472656 20.059123992919922 0.9599481225013733
32.84203338623047 19.767107009887695 0.9679545164108276
32.89027404785156 19.522518157958984 0.9696568250656128
32.905757904052734 19.259939193725586 0.9738660454750061
32.9114875793457 18.99341583251953 0.9787110686302185
32.91345977783203 18.726564407348633 0.9837073683738708
32.82726287841797 18.412090301513672 0.995637834072113
32.86592483520508 18.169845581054688 0.997377872467041
32.95978546142578 17.958843231201172 0.9945608377456665
32.99253463745117 17.715282440185547 0.996509850025177
33.02618408203125 17.473392486572266 0.998250424861908
33.03865051269531 17.22161293029785 1.001544713973999
33.04306411743164 16.967147827148438 1.00534188747406
33.066078186035156 16.7236328125 1.0075232982635498
33.04716873168945 16.460458755493164 1.0128962993621826
33.07017135620117 16.219669342041016 1.014809489250183
33.085174560546875 15.976180076599121 1.017224669456482
33.10114288330078 15.734403610229492 1.0194334983825684
33.1144905090332 15.492607116699219 1.0217205286026
33.1234016418457 15.249985694885254 1.0242278575897217
33.15239715576172 15.017715454101562 1.0250266790390015
33.09141159057617 14.746283531188965 1.0327751636505127
33.10783386230469 14.510998725891113 1.0343080759048462
33.1107063293457 14.2709321975708 1.0367809534072876
33.126583099365234 14.037604331970215 1.0381107330322266
33.15005111694336 13.808450698852539 1.0387250185012817
33.1858024597168 13.585205078125 1.0382592678070068
33.2330207824707 13.3672513961792 1.036780834197998
33.078453063964844 13.070061683654785 1.0509439706802368
33.104679107666016 12.846351623535156 1.0508626699447632
33.47797393798828 12.755617141723633 1.0236059427261353
33.657081604003906 12.588109970092773 1.0114021301269531
33.70711898803711 12.371803283691406 1.0091484785079956
33.725738525390625 12.144542694091797 1.0092262029647827
33.74190139770508 11.91718578338623 1.0093809366226196
33.75560760498047 11.689760208129883 1.0096112489700317
33.74418640136719 11.45460033416748 1.0116808414459229
33.75386428833008 11.227572441101074 1.0119962692260742
33.76581954956055 11.002093315124512 1.012021780014038
33.78768539428711 10.780523300170898 1.0111668109893799
33.783355712890625 10.551369667053223 1.012232780456543
33.80514907836914 10.331125259399414 1.01116144657135
33.80066680908203 10.103583335876465 1.0120173692703247
33.80998611450195 9.880960464477539 1.0116937160491943
33.8303108215332 9.662160873413086 1.010406494140625
33.852108001708984 9.44428539276123 1.0088965892791748
33.83787155151367 9.217071533203125 1.0100722312927246
33.85007095336914 8.99781322479248 1.0090903043746948
33.846378326416016 8.774998664855957 1.0092339515686035
33.8692626953125 8.559651374816895 1.007209300994873
33.89368438720703 8.34506607055664 1.0049583911895752
33.894447326660156 8.12515640258789 1.0044366121292114
33.89864730834961 7.906681060791016 1.0035419464111328
33.90532684326172 7.689340591430664 1.002349853515625
33.91938781738281 7.47414493560791 1.0004788637161255
33.929161071777344 7.258439064025879 0.998837411403656
33.93951416015625 7.043298244476318 0.9970446228981018
33.958282470703125 6.830267429351807 0.994493305683136
33.9678840637207 6.615744113922119 0.9925509095191956
33.96241760253906 6.398774147033691 0.9916760325431824
33.97322463989258 6.185333251953125 0.9894315004348755
33.98269271850586 5.971998691558838 0.9871873259544373
33.99279022216797 5.759111404418945 0.9847915768623352
34.006473541259766 5.547126293182373 0.982011616230011
34.003074645996094 5.33271598815918 0.9804614186286926
34.01311492919922 5.1207804679870605 0.9777595400810242
34.03368377685547 4.9106292724609375 0.9741316437721252
34.04405975341797 4.69918966293335 0.9711968898773193
34.05015563964844 4.4874138832092285 0.9684929847717285
34.05988311767578 4.276360034942627 0.9654021263122559
34.074241638183594 4.066062927246094 0.9618446230888367
33.60881805419922 3.8016295433044434 0.9958422780036926
33.495357513427734 3.5808892250061035 1.0021569728851318
33.52825927734375 3.376565456390381 0.9968782663345337
33.61846923828125 3.177504539489746 0.9869813323020935
33.63698959350586 2.9712345600128174 0.9826193451881409
33.64430618286133 2.764038324356079 0.9790376424789429
33.652339935302734 2.557013750076294 0.9752975106239319
33.66505813598633 2.3504085540771484 0.9710837006568909
33.685462951660156 2.1443119049072266 0.9661574363708496
15.757490158081055 0.9062775373458862 2.3843495845794678
15.785492897033691 0.8107819557189941 2.3804824352264404
15.794990539550781 0.7141659259796143 2.37803316116333
15.783973693847656 0.6166850924491882 2.3771674633026123
15.800252914428711 0.5202832221984863 2.374080181121826
15.822917938232422 0.423890620470047 2.370431423187256
15.831040382385254 0.32695072889328003 2.367892265319824
15.82062816619873 0.22966614365577698 2.3667869567871094
33.759334564208984 0.28254765272140503 0.9258508682250977
13.000033378601074 0.029294757172465324 2.5893826484680176
12.97790813446045 -0.05036022141575813 2.589451789855957
33.76375198364258 -0.3387443423271179 0.9121572375297546
33.786598205566406 -0.5462580919265747 0.9056570529937744
33.776283264160156 -0.7533554434776306 0.9017285704612732
11.892216682434082 -0.33799731731414795 2.670192003250122
33.80961608886719 -1.1692293882369995 0.8891832232475281
33.82236862182617 -1.37744140625 0.8830623626708984
33.74422836303711 -1.5816550254821777 0.8842366337776184
13.074213027954102 -0.6929832696914673 2.5664660930633545
12.812887191772461 -0.7579724192619324 2.5857529640197754
12.85361385345459 -0.8395397067070007 2.5803256034851074
33.85588836669922 -2.4205987453460693 0.8532694578170776
12.646331787109375 -0.981951117515564 2.593069314956665
33.87656021118164 -2.8402349948883057 0.8399755358695984
12.97353744506836 -1.1676676273345947 2.5616157054901123
33.89499282836914 -3.2610366344451904 0.8264099955558777
33.90769577026367 -3.4723329544067383 0.8191654682159424
33.9190788269043 -3.6839096546173096 0.8119121789932251
33.93013381958008 -3.8958725929260254 0.8045695424079895
33.934906005859375 -4.107512474060059 0.7976323962211609
33.935401916503906 -4.31898307800293 0.7909368872642517
33.94346237182617 -4.531802654266357 0.7834904789924622
33.962032318115234 -4.7465410232543945 0.7750401496887207
33.95162582397461 -4.957647800445557 0.7689086198806763
33.974388122558594 -5.17405891418457 0.7598578333854675
33.98691177368164 -5.389533519744873 0.7515465021133423
33.9744758605957 -5.601467609405518 0.7452312707901001
12.764835357666016 -2.184863805770874 2.54573917388916
13.418230056762695 -2.3815534114837646 2.487035036087036
34.04288864135742 -6.258450031280518 0.7165298461914062
34.02404022216797 -6.471053600311279 0.7102740406990051
34.0361213684082 -6.690006256103516 0.7012366652488708
33.97648620605469 -6.895082950592041 0.6982643008232117
33.93219757080078 -7.103153705596924 0.6938629746437073
33.94994354248047 -7.324601650238037 0.6839653849601746
34.001258850097656 -7.554316997528076 0.6710044145584106
34.047142028808594 -7.784050464630127 0.6583613753318787
34.08372116088867 -8.012807846069336 0.6463790535926819
34.09067916870117 -8.23552417755127 0.6368471384048462
34.09135437011719 -8.457428932189941 0.6277322173118591
34.12244415283203 -8.687766075134277 0.6157899498939514
34.136566162109375 -8.914776802062988 0.6051993370056152
34.123191833496094 -9.135332107543945 0.5969087481498718
34.10551071166992 -9.355268478393555 0.5888701677322388
34.14876174926758 -9.592850685119629 0.575242817401886
34.15494155883789 -9.821127891540527 0.5647776126861572
34.165340423583984 -10.051530838012695 0.553784191608429
34.167510986328125 -10.280423164367676 0.5433824062347412
34.199581146240234 -10.519388198852539 0.5301173329353333
34.179622650146484 -10.743300437927246 0.5214216709136963
34.1790771484375 -10.974067687988281 0.5108132362365723
34.16939926147461 -11.202749252319336 0.5008891820907593
34.22999954223633 -11.455756187438965 0.4843505024909973
34.21523666381836 -11.68481731414795 0.47457465529441833
34.233760833740234 -11.926255226135254 0.4615652561187744
34.17268753051758 -12.140680313110352 0.4557860493659973
34.166465759277344 -12.375162124633789 0.4447651207447052
34.22126388549805 -12.63314151763916 0.4278688430786133
34.312400817871094 -12.906638145446777 0.40735164284706116
34.300994873046875 -13.143234252929688 0.39627954363822937
34.316741943359375 -13.391403198242188 0.3824722170829773
34.313140869140625 -13.633273124694824 0.3703204095363617
34.337406158447266 -13.887555122375488 0.3553359806537628
34.33588790893555 -14.132790565490723 0.3426273465156555
34.341835021972656 -14.382377624511719 0.3290218114852905
34.30659866333008 -14.61578369140625 0.31920793652534485
34.36392593383789 -14.890091896057129 0.3002575933933258
29.495302200317383 -12.996052742004395 0.7608887553215027
34.42594909667969 -15.421685218811035 0.26680243015289307
34.391902923583984 -15.660621643066406 0.2561400830745697
34.419490814208984 -15.92900562286377 0.23923155665397644
34.40361022949219 -16.17881965637207 0.2264058142900467
34.41560745239258 -16.44321060180664 0.21062004566192627
34.404144287109375 -16.697919845581055 0.19696487486362457
34.30598068237305 -16.911270141601562 0.19181039929389954
34.37392807006836 -17.207868576049805 0.169794499874115
34.20601272583008 -17.387243270874023 0.17137941718101501
34.307125091552734 -17.70451545715332 0.14554697275161743
33.76337814331055 -17.687223434448242 0.1852700412273407
34.24031448364258 -18.20585060119629 0.12054787576198578
34.04252243041992 -18.36964988708496 0.12470555305480957
29.824726104736328 -21.18575096130371 0.23032496869564056
30.197254180908203 -21.73061752319336 0.16849184036254883
29.81592559814453 -21.7353572845459 0.19289283454418182
29.71282386779785 -21.94089126586914 0.18521162867546082
29.644195556640625 -22.172819137573242 0.17334963381290436
29.595264434814453 -22.420961380004883 0.15897002816200256
29.615488052368164 -22.72389030456543 0.13618668913841248
33.761959075927734 -26.236547470092773 -0.37715283036231995
33.658538818359375 -26.48931312561035 -0.3887709081172943
33.54315948486328 -26.73373031616211 -0.39916741847991943
33.46012878417969 -27.005247116088867 -0.4136819541454315
32.79301452636719 -26.801071166992188 -0.3573605418205261
32.58528518676758 -26.9667911529541 -0.35667696595191956
32.412628173828125 -27.161027908325195 -0.36038151383399963
32.253231048583984 -27.366403579711914 -0.3658532500267029
32.06534957885742 -27.54749298095703 -0.3679129481315613
31.902748107910156 -27.750181198120117 -0.37324991822242737
31.735132217407227 -27.948623657226562 -0.3780955970287323
31.394641876220703 -27.99300765991211 -0.3610800802707672
31.14126968383789 -28.11232566833496 -0.3550722897052765
30.972856521606445 -28.307498931884766 -0.36001282930374146
31.13910484313965 29.743061065673828 0.5132738947868347
31.22264289855957 29.459102630615234 0.519207239151001
15.524476051330566 14.468704223632812 2.0921847820281982
31.303552627563477 28.81852912902832 0.5389072299003601
31.365718841552734 28.522647857666016 0.5462292432785034
31.53525161743164 28.32572364807129 0.5427904725074768
31.68787956237793 28.113889694213867 0.5408579707145691
31.92310333251953 27.974870681762695 0.5307403802871704
31.967029571533203 27.66888427734375 0.5390539169311523
32.04631042480469 27.39581871032715 0.5437196493148804
32.362728118896484 27.324846267700195 0.5254009366035461
32.517086029052734 27.115610122680664 0.5225597023963928
14.559673309326172 11.990484237670898 2.246042251586914
14.635098457336426 11.902841567993164 2.244013547897339
14.672676086425781 11.784747123718262 2.2455055713653564
14.67497730255127 11.639370918273926 2.2502379417419434
14.709811210632324 11.520853042602539 2.251805305480957
14.695625305175781 11.365129470825195 2.2578775882720947
14.735568046569824 11.252382278442383 2.2587835788726807
14.706202507019043 11.087939262390137 2.266056776046753
14.755372047424316 10.983830451965332 2.265928268432617
14.790962219238281 10.870086669921875 2.2669830322265625
14.872529029846191 10.790285110473633 2.263723134994507
14.861249923706055 10.643693923950195 2.2689390182495117
14.909805297851562 10.540825843811035 2.2685725688934326
14.963383674621582 10.441756248474121 2.2676782608032227
15.029447555541992 10.351473808288574 2.2655813694000244
15.179084777832031 10.31795597076416 2.2558376789093018
15.047314643859863 10.094106674194336 2.271555185317993
15.079679489135742 9.982355117797852 2.272296667098999
15.126266479492188 9.880401611328125 2.27168345451355
15.1277494430542 9.74962043762207 2.275055408477783
15.178688049316406 9.651297569274902 2.2739100456237793
15.204492568969727 9.537347793579102 2.2749476432800293
15.25830078125 9.4412841796875 2.2734146118164062
15.310651779174805 9.344398498535156 2.2719502449035645
15.384599685668945 9.260595321655273 2.268507480621338
15.42551326751709 9.156892776489258 2.267937421798706
15.47433853149414 9.058074951171875 2.2666029930114746
32.924400329589844 19.003074645996094 0.7308929562568665
32.92472457885742 18.735177993774414 0.7368839383125305
32.809085845947266 18.40409278869629 0.7528901100158691
32.8572998046875 18.167282104492188 0.754332423210144
32.95287322998047 17.957290649414062 0.75148606300354
32.99089431762695 17.716617584228516 0.7535356283187866
33.02014923095703 17.472421646118164 0.7562021017074585
33.02997589111328 17.219316482543945 0.7604104280471802
33.036170959472656 16.96583366394043 0.7647819519042969
33.05473327636719 16.720125198364258 0.7679290771484375
33.05547332763672 16.466825485229492 0.7724739909172058
33.05256271362305 16.21326446533203 0.7771831750869751
33.080108642578125 15.975969314575195 0.7791157364845276
33.082576751708984 15.727815628051758 0.7830682396888733
33.11305236816406 15.494175910949707 0.7844671607017517
33.120182037353516 15.250744819641113 0.7877350449562073
33.14191436767578 15.015213966369629 0.7896090149879456
33.10737228393555 14.755637168884277 0.7961710095405579
33.08368682861328 14.502655029296875 0.8016568422317505
33.12405776977539 14.278931617736816 0.8015209436416626
33.1280517578125 14.040472984313965 0.8043641448020935
33.15430450439453 13.812472343444824 0.8051736950874329
33.183616638183594 13.586564064025879 0.8055927157402039
33.22805404663086 13.367512702941895 0.804596483707428
33.080997467041016 13.073312759399414 0.8197641372680664
33.12025451660156 12.854644775390625 0.8189444541931152
33.48689270019531 12.761299133300781 0.790198802947998
33.66221618652344 12.592330932617188 0.7776083946228027
33.707584381103516 12.37428092956543 0.7759304046630859
33.724342346191406 12.14634895324707 0.7765536308288574
33.73957824707031 11.918676376342773 0.7771809697151184
33.74858093261719 11.689640998840332 0.778209388256073
33.75132751464844 11.45934009552002 0.7796424627304077
33.76198196411133 11.232590675354004 0.7802830338478088
33.76828384399414 11.005212783813477 0.7811682224273682
33.77402114868164 10.778482437133789 0.7819777131080627
33.78110122680664 10.552985191345215 0.7825524806976318
33.79145431518555 10.329263687133789 0.78272944688797
33.79938507080078 10.105523109436035 0.782991349697113
33.80775451660156 9.8826322555542 0.7830947041511536
33.82808303833008 9.663850784301758 0.7820722460746765
33.84891891479492 9.445725440979004 0.7808879017829895
33.84527587890625 9.221418380737305 0.7816495895385742
33.85171890258789 9.00058364868164 0.7814434766769409
33.849971771240234 8.778263092041016 0.7818098664283752
33.86996078491211 8.562163352966309 0.7802295684814453
33.8914794921875 8.346861839294434 0.7784028053283691
33.88740539550781 8.12580680847168 0.7786180973052979
33.892574310302734 7.907604217529297 0.7779392004013062
33.89536666870117 7.689423084259033 0.7773451805114746
33.915252685546875 7.475578308105469 0.7751967906951904
33.92989730834961 7.260942459106445 0.7733762264251709
33.92464065551758 7.042557716369629 0.7731190323829651
33.94045639038086 6.829030513763428 0.7709711790084839
33.95492935180664 6.615572452545166 0.7688243985176086
33.959251403808594 6.400529861450195 0.7674199342727661
33.97593688964844 6.1881818771362305 0.764860212802887
33.98933410644531 5.975522518157959 0.7624644041061401
33.99452209472656 5.761763572692871 0.7606493234634399
34.0042724609375 5.549127101898193 0.7583379149436951
34.001861572265625 5.33488655090332 0.7569425702095032
34.00992965698242 5.122663497924805 0.7545489072799683
34.02357482910156 4.91153621673584 0.7515712380409241
34.03788375854492 4.7007060050964355 0.7484248876571655
34.042991638183594 4.488840103149414 0.7459475994110107
34.05369567871094 4.277955532073975 0.7428830862045288
34.06903076171875 4.06781530380249 0.739313006401062
33.58701705932617 3.8014941215515137 0.7779229283332825
33.49044418334961 3.58268666267395 0.7836882472038269
33.529266357421875 3.3789944648742676 0.777826189994812
33.60554504394531 3.1786184310913086 0.7686558365821838
33.62999725341797 2.9729559421539307 0.7637879848480225
33.63630676269531 2.7657227516174316 0.760356068611145
33.64630889892578 2.558899164199829 0.7564980983734131
33.66100311279297 2.3524720668792725 0.7521278858184814
33.67343521118164 2.145894765853882 0.7478395700454712
15.753093719482422 0.9066867232322693 2.282207489013672
15.786046981811523 0.8114764094352722 2.2777657508850098
15.790559768676758 0.7146327495574951 2.27571177482605
15.793477058410645 0.6177243590354919 2.273743152618408
15.808747291564941 0.5212332010269165 2.2706568241119385
15.82840347290039 0.4247106611728668 2.267136335372925
15.836517333984375 0.3277384638786316 2.264557361602783
15.812153816223145 0.23021668195724487 2.2647366523742676
33.74515914916992 0.28479933738708496 0.7076560258865356
12.046629905700684 0.027492929250001907 2.587745189666748
12.183920860290527 -0.04692358896136284 2.574215888977051
12.947338104248047 -0.12925824522972107 2.506065845489502
33.75641632080078 -0.5433912873268127 0.6886537075042725
33.775970458984375 -0.7509662508964539 0.6821565628051758
12.199479103088379 -0.34640371799468994 2.5660228729248047
33.803279876708984 -1.166621208190918 0.6698390245437622
33.808040618896484 -1.3744665384292603 0.6642833352088928
13.214563369750977 -0.6187257170677185 2.471139430999756
13.179534912109375 -0.6981368064880371 2.4721291065216064
12.817867279052734 -0.7578689455986023 2.50193190574646
12.828739166259766 -0.8375142812728882 2.4988467693328857
12.722865104675293 -0.9090207815170288 2.5060627460479736
33.85640335083008 -2.6270806789398193 0.6267271041870117
12.843481063842773 -1.076167345046997 2.490891456604004
13.004154205322266 -1.170004963874817 2.4742558002471924
12.928173065185547 -1.243171215057373 2.478663921356201
12.985555648803711 -1.3291378021240234 2.471111297607422
33.91145706176758 -3.6806559562683105 0.5907757878303528
33.91555404663086 -3.891770124435425 0.5838317275047302
33.92525863647461 -4.103912353515625 0.5762580633163452
33.92671585083008 -4.31544303894043 0.5693010091781616
33.94857406616211 -4.530045509338379 0.5603734850883484
33.939476013183594 -4.740947246551514 0.5541189312934875
13.080081939697266 -1.9092966318130493 2.4442241191864014
13.134927749633789 -1.9996817111968994 2.436398506164551
13.190135955810547 -2.090967893600464 2.428466558456421
13.220146179199219 -2.1789584159851074 2.4227683544158936
34.002891540527344 -5.818213939666748 0.5109968781471252
29.233776092529297 -5.187056541442871 0.9422503709793091
34.021202087402344 -6.251993656158447 0.49344950914382935
34.04539489746094 -6.472642421722412 0.4830774664878845
34.02027893066406 -6.684417247772217 0.477135568857193
33.963584899902344 -6.889993190765381 0.4740084111690521
33.92319869995117 -7.0987982749938965 0.46925094723701477
33.937015533447266 -7.319336414337158 0.4593082666397095
34.00869369506836 -7.553483486175537 0.4437900483608246
34.084598541259766 -7.790117263793945 0.42769789695739746
34.08518981933594 -8.010653495788574 0.4185273349285126
34.0853271484375 -8.231727600097656 0.40925726294517517
34.08789825439453 -8.454065322875977 0.3996126353740692
34.1112174987793 -8.682394027709961 0.3878454864025116
34.10892105102539 -8.905041694641113 0.3783639371395111
34.11383056640625 -9.130305290222168 0.368044376373291
34.1076545715332 -9.353333473205566 0.3586356043815613
34.14411544799805 -9.58901596069336 0.3449729084968567
34.158870697021484 -9.819722175598145 0.33323267102241516
34.1539192199707 -10.045633316040039 0.323237806558609
34.13985824584961 -10.269560813903809 0.3139767050743103
34.20997619628906 -10.520033836364746 0.2963525652885437
34.18141555786133 -10.741310119628906 0.2881831228733063
34.155208587646484 -10.963850021362305 0.27963799238204956
34.183380126953125 -11.20477294921875 0.2655889391899109
34.21364974975586 -11.447718620300293 0.2511480152606964
34.192283630371094 -11.674407005310059 0.2416425347328186
34.20984649658203 -11.915348052978516 0.2281065285205841
34.13003921508789 -12.122956275939941 0.22411541640758514
34.04522705078125 -12.328680992126465 0.22050870954990387
34.17959976196289 -12.615175247192383 0.1947328895330429
34.315452575683594 -12.905183792114258 0.16853351891040802
34.302127838134766 -13.141061782836914 0.15717393159866333
34.30017852783203 -13.382329940795898 0.1444837898015976
34.26140213012695 -13.610105514526367 0.1353716254234314
33.75872802734375 -13.650941848754883 0.1736520677804947
33.9344367980957 -13.964961051940918 0.1423368602991104
33.694332122802734 -14.108631134033203 0.15364259481430054
33.60395431518555 -14.313863754272461 0.14942409098148346
33.57991409301758 -14.547804832458496 0.13817940652370453
29.494945526123047 -12.993749618530273 0.5512003898620605
33.550411224365234 -22.61071014404297 -0.37547919154167175
20.612958908081055 -14.076737403869629 1.1574949026107788
20.06682777404785 -13.885255813598633 1.2101489305496216
19.86444091796875 -13.926390647888184 1.2215746641159058
19.750741958618164 -14.028374671936035 1.2222455739974976
19.625234603881836 -14.121355056762695 1.2243221998214722
19.554012298583984 -14.253183364868164 1.2196681499481201
19.5611572265625 -14.443181991577148 1.2051808834075928
19.509326934814453 -14.590896606445312 1.1978422403335571
19.557941436767578 -14.815424919128418 1.1777536869049072
19.502689361572266 -14.962964057922363 1.1705023050308228
19.511571884155273 -15.161056518554688 1.1549662351608276
29.11551856994629 -26.28124237060547 -0.3510686159133911
20.23710823059082 -18.723491668701172 0.8271817564964294
20.126588821411133 -18.852022171020508 0.8236892819404602
20.00803565979004 -18.973058700561523 0.8212244510650635
19.86076545715332 -19.06648063659668 0.8227359056472778
32.34025573730469 31.251283645629883 0.11024694889783859
30.900442123413086 29.495914459228516 0.2830800712108612
30.979551315307617 29.210756301879883 0.2901555001735687
15.516632080078125 14.45145034790039 1.9668841361999512
31.13078498840332 28.640888214111328 0.30430668592453003
31.2154598236084 28.36760902404785 0.31004777550697327
31.150333404541016 27.961843490600586 0.3314388692378998
31.267148971557617 27.722633361816406 0.3332572281360626
31.406951904296875 27.504714965820312 0.33246347308158875
13.535813331604004 11.707487106323242 2.21702241897583
13.543532371520996 11.569849014282227 2.2219834327697754
13.591980934143066 11.467916488647461 2.2225990295410156
13.594505310058594 11.328170776367188 2.2278835773468018
13.635087013244629 11.221135139465332 2.229130506515503
13.676413536071777 11.115283966064453 2.2302160263061523
13.659431457519531 10.963172912597656 2.2371816635131836
13.713752746582031 10.86927604675293 2.2367565631866455
13.74545669555664 10.757922172546387 2.238556385040283
13.80155086517334 10.666094779968262 2.237802743911743
13.852282524108887 10.570354461669922 2.237521171569824
13.898378372192383 10.471393585205078 2.2376341819763184
13.90859317779541 10.346085548400879 2.2412662506103516
13.997331619262695 10.279461860656738 2.236964464187622
14.025250434875488 10.168252944946289 2.238668918609619
14.075028419494629 10.073332786560059 2.2381224632263184
14.102191925048828 9.962655067443848 2.239743232727051
14.15550708770752 9.87083625793457 2.2387044429779053
14.17292308807373 9.754437446594238 2.241128921508789
14.218301773071289 9.657800674438477 2.240727424621582
14.25557804107666 9.555975914001465 2.241049289703369
14.286322593688965 9.450209617614746 2.2419352531433105
14.317976951599121 9.345514297485352 2.2426576614379883
14.358941078186035 9.247261047363281 2.242403745651245
14.401762008666992 9.150460243225098 2.2419021129608154
14.421134948730469 9.039189338684082 2.24359393119812
14.471900939941406 8.947942733764648 2.2421889305114746
14.52293872833252 8.856931686401367 2.2406954765319824
14.559741973876953 8.757411003112793 2.2405028343200684
14.628442764282227 8.677093505859375 2.237196922302246
14.764663696289062 8.636018753051758 2.2274045944213867
14.830998420715332 8.553261756896973 2.224231004714966
14.91246509552002 8.4788818359375 2.21956729888916
14.997054100036621 8.40577220916748 2.214559555053711
15.18510627746582 8.389298439025879 2.1997311115264893
15.114446640014648 8.229747772216797 2.2092819213867188
27.743545532226562 14.887578010559082 1.0239325761795044
27.789966583251953 14.693835258483887 1.0245625972747803
27.890735626220703 14.529088020324707 1.0199722051620483
33.01435470581055 16.43381118774414 0.556058943271637
32.94503402709961 16.148099899291992 0.5676174759864807
33.02512741088867 15.937057495117188 0.5651105046272278
33.0435676574707 15.696990013122559 0.5681883692741394
33.08919906616211 15.470799446105957 0.5685960650444031
33.102516174316406 15.230475425720215 0.571850061416626
33.13047790527344 14.997967720031738 0.5736013650894165
33.132259368896484 14.754742622375488 0.5776219964027405
33.086669921875 14.49206829071045 0.5858569741249084
33.111412048339844 14.261650085449219 0.587460458278656
33.13549041748047 14.031862258911133 0.5889826416969299
33.161678314208984 13.803845405578613 0.5901703834533691
33.18263244628906 13.57452392578125 0.5916988849639893
33.21311569213867 13.349923133850098 0.5922145247459412
33.0743522644043 13.059219360351562 0.608078122138977
33.107933044433594 12.83845043182373 0.6080228686332703
33.46875 12.742921829223633 0.5779533386230469
33.66535568237305 12.582046508789062 0.5627856850624084
33.714385986328125 12.365365028381348 0.5609613656997681
33.72077560424805 12.133708953857422 0.5628901124000549
33.73311233520508 11.90509033203125 0.564140796661377
33.73826217651367 11.674821853637695 0.5659096240997314
33.74846649169922 11.447175979614258 0.5670839548110962
33.766605377197266 11.222986221313477 0.5674048066139221
33.75958251953125 10.991290092468262 0.5698777437210083
33.767127990722656 10.765246391296387 0.570895254611969
33.7769775390625 10.540709495544434 0.5715736746788025
33.788204193115234 10.317328453063965 0.5719963908195496
33.78841781616211 10.091351509094238 0.5732873678207397
33.799564361572266 9.869390487670898 0.5734581351280212
33.816925048828125 9.649858474731445 0.5729395747184753
33.842464447021484 9.43315601348877 0.5715532302856445
33.840667724609375 9.209437370300293 0.5725143551826477
33.844139099121094 8.987885475158691 0.5728727579116821
33.8548469543457 8.76888370513916 0.5724493861198425
33.86704635620117 8.550817489624023 0.5717669725418091
33.877838134765625 8.332930564880371 0.5710868835449219
33.879486083984375 8.113374710083008 0.5711098313331604
33.891361236572266 7.896821975708008 0.5700843334197998
33.894081115722656 7.678667068481445 0.5697633028030396
33.90707778930664 7.463343620300293 0.5683899521827698
33.923580169677734 7.24918794631958 0.5665770173072815
33.91922378540039 7.031064510345459 0.5665287971496582
33.93593215942383 6.817778587341309 0.5644536018371582
33.9454345703125 6.603408336639404 0.5629084706306458
33.94379425048828 6.38733434677124 0.5622507929801941
33.96430206298828 6.175803184509277 0.5594674944877625
33.981529235839844 5.963914394378662 0.5568605661392212
33.98369216918945 5.749717712402344 0.5554968118667603
33.987449645996094 5.536197185516357 0.5538687705993652
33.99380874633789 5.323461055755615 0.551885724067688
34.003761291503906 5.111593723297119 0.549456775188446
34.018306732177734 4.900654315948486 0.5464910864830017
34.0275993347168 4.689182758331299 0.5438822507858276
34.03360366821289 4.477518558502197 0.5414519906044006
34.0422477722168 4.266451835632324 0.5386636257171631
34.05748748779297 4.056386947631836 0.5351545214653015
33.603336334228516 3.7934329509735107 0.5742661356925964
33.47208023071289 3.570866823196411 0.5838983654975891
33.475128173828125 3.3636975288391113 0.5811850428581238
33.52745819091797 3.1613929271698 0.5738565921783447
33.54285430908203 2.9554224014282227 0.5697786211967468
33.564918518066406 2.750030994415283 0.5649706721305847
33.53110885620117 2.540337324142456 0.5651564598083496
33.60030746459961 2.338423490524292 0.5557960271835327
33.60368347167969 2.1316535472869873 0.5523411631584167
15.746087074279785 0.9012633562088013 2.1884765625
15.785943984985352 0.8064449429512024 2.183229923248291
15.794387817382812 0.709782063961029 2.1808106899261475
15.784331321716309 0.6123484969139099 2.1800382137298584
15.791586875915527 0.5156502723693848 2.1776163578033447
15.81915283203125 0.41944098472595215 2.173262357711792
15.832196235656738 0.322626531124115 2.170189142227173
15.820746421813965 0.2253246307373047 2.1693241596221924
33.701377868652344 0.27466681599617004 0.5096995234489441
33.714969635009766 0.0679733157157898 0.504102885723114
33.7153434753418 -0.13883022964000702 0.49961236119270325
33.72440719604492 -0.34574002027511597 0.49419277906417847
12.938164710998535 -0.21279264986515045 2.4276459217071533
11.943037033081055 -0.26980966329574585 2.5187273025512695
12.17689037322998 -0.34981170296669006 2.495105266571045
12.838065147399902 -0.4475679397583008 2.431338310241699
33.78345489501953 -1.3832578659057617 0.4639550447463989
33.72221374511719 -1.588016390800476 0.46439769864082336
13.151310920715332 -0.7009570002555847 2.3957865238189697
12.694406509399414 -0.7547688484191895 2.436716079711914
12.792704582214355 -0.8393876552581787 2.4252917766571045
33.84524154663086 -2.4272708892822266 0.43030059337615967
12.74639892578125 -0.9935499429702759 2.4252355098724365
12.891695976257324 -1.0844676494598389 2.4091434478759766
33.83425521850586 -3.0532782077789307 0.4131302237510681
12.519384384155273 -1.2080477476119995 2.4398844242095947
33.881553649902344 -3.4771385192871094 0.39583250880241394
33.90468978881836 -3.689844846725464 0.387025386095047
33.900779724121094 -3.9000113010406494 0.3806758522987366
33.90149688720703 -4.110990047454834 0.3737521469593048
33.90977478027344 -4.323258876800537 0.365966796875
33.91179656982422 -4.53512716293335 0.35865089297294617
33.94009017944336 -4.751047611236572 0.3486573100090027
33.9561767578125 -4.965904712677002 0.33970171213150024
33.94137954711914 -5.176639080047607 0.33360692858695984
33.965576171875 -5.393779754638672 0.32358187437057495
33.9932975769043 -5.612224578857422 0.31306469440460205
33.98036575317383 -5.824490547180176 0.30637773871421814
29.23265838623047 -5.195709705352783 0.7643527388572693
13.286694526672363 -2.4464197158813477 2.326493263244629
34.0255126953125 -6.479081153869629 0.2772306203842163
33.99836730957031 -6.690350532531738 0.27138957381248474
33.93869400024414 -6.895192623138428 0.2686440944671631
33.90116882324219 -7.104456901550293 0.2635829448699951
33.940181732177734 -7.330327987670898 0.25076571106910706
33.95048904418945 -7.55089807510376 0.24064917862415314
34.039886474609375 -7.790298938751221 0.22245225310325623
34.04042434692383 -8.010565757751465 0.2129860520362854
34.038570404052734 -8.230901718139648 0.20360982418060303
34.027565002441406 -8.449601173400879 0.19500546157360077
34.09615707397461 -8.689115524291992 0.17818595468997955
34.10146713256836 -8.913689613342285 0.16760294139385223
34.09760284423828 -9.136595726013184 0.1577942669391632
34.096126556396484 -9.360844612121582 0.14758388698101044
34.0893440246582 -9.584343910217285 0.1377590000629425
34.096405029296875 -9.812520027160645 0.12635110318660736
34.04943084716797 -10.02568531036377 0.12035026401281357
34.04019546508789 -10.250410079956055 0.11030826717615128
29.611797332763672 -12.839240074157715 0.3573576509952545
29.47379493713379 -12.994940757751465 0.3598683476448059
33.39046096801758 -19.101665496826172 -0.3554115295410156
33.298805236816406 -19.321582794189453 -0.36311519145965576
33.33772277832031 -19.618778228759766 -0.38673317432403564
20.36210060119629 -13.551031112670898 1.066133975982666
19.973995208740234 -13.470490455627441 1.1019448041915894
19.760101318359375 -13.503535270690918 1.1158740520477295
19.577632904052734 -13.555980682373047 1.1258679628372192
19.51820945739746 -13.692935943603516 1.1200644969940186
19.461889266967773 -13.832555770874023 1.1137398481369019
19.444137573242188 -14.000471115112305 1.1022684574127197
19.42665672302246 -14.169862747192383 1.0905781984329224
19.543800354003906 -14.440017700195312 1.0609782934188843
19.421875 -14.535189628601074 1.0626404285430908
19.458866119384766 -15.3228178024292 0.9978304505348206
19.446577072143555 -15.507590293884277 0.983944296836853
28.744258880615234 -23.800827026367188 -0.354214608669281
28.7884521484375 -24.137022018432617 -0.3848450183868408
28.70602798461914 -24.369762420654297 -0.3981543183326721
28.70929718017578 -24.677581787109375 -0.4238273501396179
28.778112411499023 -25.045757293701172 -0.4592318832874298
28.68531608581543 -25.276348114013672 -0.4720403254032135
20.972427368164062 -18.710559844970703 0.612663745880127
20.76389503479004 -18.75486946105957 0.6232659816741943
20.30246925354004 -18.565860748291016 0.6708529591560364
20.117042541503906 -18.624515533447266 0.6784603595733643
19.890316009521484 -18.642847061157227 0.6922170519828796
19.725433349609375 -18.717269897460938 0.6968896985054016
19.54676628112793 -18.777292251586914 0.7036325335502625
15.51854133605957 14.438105583190918 1.848231315612793
13.174890518188477 11.812994956970215 2.1383371353149414
13.102217674255371 11.603784561157227 2.1530659198760986
13.103224754333496 11.462182998657227 2.159294843673706
13.131640434265137 11.34576416015625 2.162320375442505
13.170492172241211 11.239130973815918 2.1640775203704834
13.212340354919434 11.135660171508789 2.1654088497161865
13.249587059020996 11.028909683227539 2.167161226272583
13.289871215820312 10.925285339355469 2.168487548828125
13.313915252685547 10.80902099609375 2.1715104579925537
13.351802825927734 10.704713821411133 2.1729183197021484
13.393601417541504 10.604061126708984 2.1738128662109375
13.4378080368042 10.505753517150879 2.174363136291504
13.456076622009277 10.387815475463867 2.177640914916992
13.49400806427002 10.285755157470703 2.178699254989624
13.535176277160645 10.186615943908691 2.1793272495269775
13.574036598205566 10.086169242858887 2.1801230907440186
13.604142189025879 9.979735374450684 2.1817736625671387
13.64313793182373 9.880324363708496 2.1823928356170654
13.681425094604492 9.78080940246582 2.183009147644043
13.715752601623535 9.678897857666016 2.183966636657715
13.75343132019043 9.579780578613281 2.1844911575317383
13.79862117767334 9.486210823059082 2.184149980545044
13.815977096557617 9.373983383178711 2.1866540908813477
13.863104820251465 9.2824125289917 2.185960531234741
13.90215015411377 9.18567180633545 2.1860406398773193
13.939695358276367 9.088254928588867 2.186203956604004
13.977408409118652 8.991263389587402 2.186276912689209
14.01445484161377 8.894149780273438 2.1863465309143066
14.054215431213379 8.799034118652344 2.1860647201538086
14.092489242553711 8.703240394592285 2.185865640640259
14.136922836303711 8.611454963684082 2.1849656105041504
14.18332290649414 8.520990371704102 2.18379807472229
14.239428520202637 8.436373710632324 2.181575298309326
14.317391395568848 8.364455223083496 2.1770684719085693
14.411637306213379 8.184259414672852 2.174154758453369
14.48485279083252 8.108848571777344 2.169964551925659
14.6571044921875 8.087721824645996 2.155733108520508
15.059765815734863 8.189970016479492 2.118299722671509
15.83293628692627 8.485234260559082 2.0437302589416504
27.85777473449707 14.71223258972168 0.8413994312286377
27.677644729614258 14.40084171295166 0.8648418188095093
27.730539321899414 14.213085174560547 0.8647931814193726
27.807071685791016 14.037789344787598 0.8622580170631409
32.3044319152832 15.326671600341797 0.4359854459762573
32.72050857543945 15.279121398925781 0.39995431900024414
32.99058532714844 15.159658432006836 0.37829557061195374
33.12156677246094 14.974665641784668 0.3702610433101654
33.12229537963867 14.73115348815918 0.3749193549156189
33.09482192993164 14.476615905761719 0.3821868300437927
33.12495040893555 14.248555183410645 0.3836353123188019
33.13151168823242 14.011354446411133 0.3872423768043518
33.17136001586914 13.789138793945312 0.38743749260902405
33.17377853393555 13.552268028259277 0.3911456763744354
33.19948959350586 13.325901985168457 0.3924255669116974
33.09027099609375 13.047119140625 0.406720370054245
33.08661651611328 12.811896324157715 0.4105552136898041
33.44436264038086 12.715256690979004 0.37906524538993835
33.64913558959961 12.557589530944824 0.3623707592487335
33.697998046875 12.34102725982666 0.3607109487056732
33.727664947509766 12.117937088012695 0.36077380180358887
33.70796203613281 11.878063201904297 0.36548227071762085
33.71200180053711 11.64766788482666 0.3677412271499634
33.7352409362793 11.424695014953613 0.3679971992969513
33.74094772338867 11.196541786193848 0.3698093295097351
33.74607467651367 10.96905517578125 0.3715352714061737
33.75442886352539 10.743433952331543 0.3728082776069641
33.767940521240234 10.520196914672852 0.37344372272491455
33.776180267333984 10.296031951904297 0.37444940209388733
33.78007125854492 10.071308135986328 0.3757363557815552
33.80065155029297 9.852216720581055 0.3752763271331787
33.798744201660156 9.627246856689453 0.37684813141822815
33.82413101196289 9.410677909851074 0.37565383315086365
33.82891845703125 9.188937187194824 0.3763096332550049
33.82167434692383 8.964682579040527 0.3779888153076172
33.84476089477539 8.749085426330566 0.37661343812942505
33.847171783447266 8.528674125671387 0.3770952820777893
33.85395812988281 8.309985160827637 0.3770235776901245
33.86513900756836 8.092920303344727 0.37639671564102173
33.8836669921875 7.878057479858398 0.3749313950538635
33.87947082519531 7.658439636230469 0.3755209743976593
33.898162841796875 7.444508075714111 0.37377801537513733
33.90382385253906 7.228140830993652 0.37315818667411804
33.912010192871094 7.012789249420166 0.3721660375595093
33.924686431884766 6.79878044128418 0.37061259150505066
33.935035705566406 6.584688663482666 0.36915332078933716
33.928382873535156 6.367784023284912 0.36920127272605896
33.94679641723633 6.156003475189209 0.36670923233032227
33.95702362060547 5.943032741546631 0.36487582325935364
33.9718017578125 5.7311601638793945 0.3624761402606964
33.97151184082031 5.517092704772949 0.3614005148410797
33.974788665771484 5.304009437561035 0.3598543107509613
33.98164749145508 5.091829299926758 0.3578350841999054
33.99802780151367 4.881319046020508 0.35477086901664734
34.011131286621094 4.670525550842285 0.35189497470855713
34.01503372192383 4.4587178230285645 0.3497806489467621
34.03144073486328 4.248762607574463 0.34633079171180725
34.03667068481445 4.03759765625 0.3438347578048706
