# .PCD v0.7 - Point Cloud Data file format
VERSION 0.7
FIELDS x y z
SIZE 4 4 4
TYPE F F F
COUNT 1 1 1
WIDTH 846
HEIGHT 1
VIEWPOINT 0 0 0 1 0 0 0
POINTS 846
DATA ascii
33.97085189819336 5.303394794464111 0.36023321747779846
33.97377395629883 5.090649127960205 0.3585939109325409
33.989158630371094 4.880045413970947 0.3556267023086548
34.01409149169922 4.670932292938232 0.3516094386577606
34.02293014526367 4.459753513336182 0.3490182161331177
34.01860046386719 4.247159004211426 0.3475715219974518
34.03865051269531 4.037832736968994 0.3436434268951416
32.58353805541992 3.662649393081665 0.48228004574775696
32.7584114074707 3.4790267944335938 0.46320605278015137
32.39443588256836 3.2395761013031006 0.496183842420578
32.80078887939453 3.0771944522857666 0.45441946387290955
32.81565856933594 2.875685691833496 0.45045170187950134
32.5892219543457 2.6545374393463135 0.46979206800460815
33.09975051879883 2.491912841796875 0.4174296259880066
32.6483039855957 2.256624460220337 0.45842763781547546
32.869728088378906 2.069474220275879 0.43387532234191895
15.741162300109863 0.8930965065956116 2.1000287532806396
15.77795696258545 0.7981414794921875 2.094878911972046
15.779377937316895 0.7012163400650024 2.0931174755096436
15.781196594238281 0.6043408513069153 2.0912587642669678
15.787394523620605 0.5076289176940918 2.0889124870300293
15.82284927368164 0.41164273023605347 2.083638906478882
15.826869010925293 0.3146224021911621 2.0813827514648438
15.799445152282715 0.21713899075984955 2.0821547508239746
32.7300910949707 0.2512630522251129 0.41499847173690796
32.772396087646484 0.05056970939040184 0.4066135883331299
32.79257583618164 -0.1505410522222519 0.40027734637260437
12.513395309448242 -0.13548503816127777 2.398390054702759
12.509187698364258 -0.21218562126159668 2.3970515727996826
12.538335800170898 -0.28961634635925293 2.3923635482788086
12.828607559204102 -0.3750188648700714 2.361720323562622
12.853750228881836 -0.4546789824962616 2.3572773933410645
12.861495018005371 -0.5339635610580444 2.354509115219116
32.89111328125 -1.564459204673767 0.35653236508369446
13.090139389038086 -0.704383909702301 2.327540636062622
12.843045234680176 -0.7701666951179504 2.3500583171844482
12.815079689025879 -0.8474209904670715 2.3506643772125244
12.572282791137695 -0.9088999032974243 2.3727822303771973
12.816289901733398 -1.0055700540542603 2.3460114002227783
12.870196342468262 -1.0892709493637085 2.3382420539855957
33.18505859375 -3.0104918479919434 0.28662991523742676
33.1922721862793 -3.2165701389312744 0.2795749306678772
33.17940139770508 -3.4209156036376953 0.27441835403442383
33.1949462890625 -3.6284680366516113 0.26625001430511475
33.19633865356445 -3.8348586559295654 0.25937947630882263
33.40285873413086 -4.066522598266602 0.23147748410701752
33.09558868408203 -4.235351085662842 0.2557985484600067
32.92852783203125 -4.4194841384887695 0.265770822763443
33.910213470458984 -4.763158321380615 0.15792031586170197
33.92913055419922 -4.978280544281006 0.14840343594551086
33.88078308105469 -5.183738708496094 0.14566078782081604
33.76634979248047 -5.378469944000244 0.14961595833301544
33.732269287109375 -5.585478782653809 0.14516907930374146
33.85183334350586 -5.8188934326171875 0.12466662377119064
29.219762802124023 -5.207746505737305 0.5977210402488708
33.7642707824707 -6.231368064880371 0.11707213521003723
33.69955062866211 -6.433499336242676 0.11527209728956223
29.42938232421875 -12.992238998413086 0.18222233653068542
20.41254997253418 -13.599239349365234 0.9201804399490356
19.58284568786621 -13.220932006835938 1.0170453786849976
19.49529457092285 -13.336865425109863 1.0151607990264893
19.42829704284668 -13.46694278717041 1.010420322418213
19.31325912475586 -13.563576698303223 1.0120890140533447
19.272275924682617 -13.712309837341309 1.003607988357544
19.963918685913086 -14.389830589294434 0.8944384455680847
19.75640106201172 -14.612359046936035 0.8930115103721619
19.53558921813965 -14.635542869567871 0.9085220098495483
19.40154266357422 -14.722050666809082 0.9119711518287659
19.44784927368164 -15.329959869384766 0.8581761717796326
19.320968627929688 -15.618581771850586 0.8437271118164062
19.319791793823242 -15.814834594726562 0.8272339105606079
27.573326110839844 -22.854270935058594 -0.3959861993789673
27.41001319885254 -23.004430770874023 -0.39651167392730713
27.21863555908203 -23.13028907775879 -0.39298099279403687
27.004150390625 -23.2352237701416 -0.3860551118850708
26.856088638305664 -23.396493911743164 -0.3890816569328308
26.70631980895996 -23.556167602539062 -0.3919772207736969
20.527862548828125 -18.56045913696289 0.4995233714580536
20.325990676879883 -18.60618019104004 0.5101091265678406
20.066757202148438 -18.596773147583008 0.5296400189399719
19.84102439880371 -18.615488052368164 0.5441462993621826
19.66049575805664 -18.674560546875 0.5516948103904724
19.447044372558594 -18.7004451751709 0.5644751787185669
15.500467300415039 14.451205253601074 1.7185598611831665
12.955353736877441 11.78515625 2.0478594303131104
12.99979305267334 11.6808443069458 2.0495998859405518
13.032270431518555 11.566516876220703 2.0526931285858154
13.080310821533203 11.466670989990234 2.053795337677002
13.111056327819824 11.352331161499023 2.0568861961364746
13.155271530151367 11.250341415405273 2.0582540035247803
13.188079833984375 11.139240264892578 2.06088924407959
13.223081588745117 11.030712127685547 2.0631604194641113
13.270316123962402 10.932937622070312 2.0638837814331055
13.30449104309082 10.824941635131836 2.0660598278045654
13.337841033935547 10.716938018798828 2.068234443664551
13.372710227966309 10.61078929901123 2.070134162902832
13.410698890686035 10.507686614990234 2.07157564163208
13.443202018737793 10.400859832763672 2.073563575744629
13.478066444396973 10.296448707580566 2.0751841068267822
13.514543533325195 10.193799018859863 2.0765278339385986
13.55026912689209 10.091089248657227 2.077869415283203
13.580430030822754 9.984785079956055 2.0797598361968994
13.62269401550293 9.887847900390625 2.0801784992218018
13.662660598754883 9.789607048034668 2.080777168273926
13.697057723999023 9.687799453735352 2.0819251537323
13.736435890197754 9.589924812316895 2.082425594329834
13.778410911560059 9.494192123413086 2.0825531482696533
13.79749870300293 9.383187294006348 2.085172414779663
13.840548515319824 9.288949966430664 2.085016965866089
13.878808975219727 9.191787719726562 2.085320234298706
13.917234420776367 9.095049858093262 2.085527181625366
13.947464942932129 8.993330001831055 2.08656644821167
13.98453426361084 8.896390914916992 2.0867674350738525
14.024311065673828 8.801450729370117 2.086592674255371
14.062604904174805 8.705833435058594 2.0865070819854736
14.102802276611328 8.61163330078125 2.0861377716064453
14.141521453857422 8.516751289367676 2.085857629776001
14.179607391357422 8.421717643737793 2.085573196411133
14.217061042785645 8.3265380859375 2.085284948348999
14.25819206237793 8.233702659606934 2.084524393081665
14.30044937133789 8.141661643981934 2.083571195602417
14.342982292175293 8.049897193908691 2.0825188159942627
14.555676460266113 8.052369117736816 2.063030481338501
14.912281036376953 8.130684852600098 2.0280539989471436
15.819364547729492 8.49988079071045 1.9339889287948608
27.535133361816406 14.577705383300781 0.6809853911399841
27.579530715942383 14.385520935058594 0.6822277903556824
27.617290496826172 14.1906099319458 0.6840359568595886
27.627944946289062 13.982739448547363 0.6885904669761658
27.7056941986084 13.809465408325195 0.6858505010604858
27.78861427307129 13.638830184936523 0.6824359893798828
27.922470092773438 13.492816925048828 0.6734973192214966
28.142770767211914 13.387147903442383 0.6553035974502563
28.495344161987305 13.341324806213379 0.623058557510376
32.54706954956055 14.995738983154297 0.200528085231781
33.111263275146484 15.010361671447754 0.14654693007469177
33.11863327026367 14.769689559936523 0.151137575507164
33.09330749511719 14.515894889831543 0.15899093449115753
33.10451126098633 14.279523849487305 0.16283515095710754
33.127803802490234 14.04939079284668 0.16524577140808105
33.16147232055664 13.824484825134277 0.16641083359718323
33.180728912353516 13.59441089630127 0.16892287135124207
33.214115142822266 13.370936393737793 0.16980226337909698
33.07662582397461 13.08057975769043 0.18832755088806152
33.11034393310547 12.859796524047852 0.18884211778640747
33.46809005737305 12.763216972351074 0.1555250585079193
33.60496520996094 12.580026626586914 0.14506129920482635
33.64554977416992 12.360627174377441 0.14445483684539795
33.660369873046875 12.132428169250488 0.14636927843093872
33.66802978515625 11.902518272399902 0.1488693654537201
33.67507553100586 11.673296928405762 0.15127864480018616
33.67398452758789 11.442192077636719 0.15437503159046173
33.691158294677734 11.218140602111816 0.15543073415756226
33.69928741455078 10.991838455200195 0.15727080404758453
33.71633529663086 10.769186973571777 0.1580406278371811
33.71197509765625 10.540501594543457 0.16086770594120026
33.72416687011719 10.317804336547852 0.16184134781360626
33.724403381347656 10.092214584350586 0.16389715671539307
33.73461151123047 9.870361328125 0.16478011012077332
33.760589599609375 9.653682708740234 0.16389653086662292
33.76792907714844 9.432238578796387 0.16478459537029266
33.78150939941406 9.21315860748291 0.16488710045814514
33.785972595214844 8.992218017578125 0.16578203439712524
33.78804397583008 8.77131462097168 0.16678081452846527
33.805076599121094 8.554874420166016 0.16610075533390045
33.808162689208984 8.335455894470215 0.16671030223369598
33.81951141357422 8.118640899658203 0.16633166372776031
33.83334732055664 7.902904510498047 0.16555751860141754
33.843868255615234 7.686859130859375 0.16498331725597382
33.852046966552734 7.470766544342041 0.16451038420200348
33.86663055419922 7.256527900695801 0.16324134171009064
33.86330032348633 7.03894567489624 0.16367098689079285
33.88198471069336 6.826391696929932 0.1617058664560318
33.88468933105469 6.611012935638428 0.1612403690814972
33.89971923828125 6.398438930511475 0.15937596559524536
33.91047668457031 6.185391426086426 0.1578112095594406
33.910099029541016 5.970725059509277 0.15725213289260864
33.91719055175781 5.757791519165039 0.15579017996788025
33.92982482910156 5.546116828918457 0.15362592041492462
33.93721008300781 5.333882808685303 0.15186291933059692
33.9383430480957 5.121022701263428 0.15060660243034363
33.94602584838867 4.909485340118408 0.14854323863983154
33.96125793457031 4.6992716789245605 0.14556844532489777
33.95644760131836 4.486577033996582 0.1445184201002121
33.9730110168457 4.276973724365234 0.14113712310791016
33.986305236816406 4.067096710205078 0.13795651495456696
32.46518325805664 3.683295488357544 0.2925790548324585
32.40167236328125 3.4749746322631836 0.2971329391002655
32.34969711303711 3.268869161605835 0.300377756357193
32.39644241333008 3.0730161666870117 0.29332295060157776
32.360748291015625 2.869506359100342 0.2946411669254303
32.3525276184082 2.668919324874878 0.2930007874965668
32.32421875 2.467100143432617 0.2933107316493988
32.39586639404297 2.2728259563446045 0.28315892815589905
32.428619384765625 2.0753490924835205 0.2768945097923279
15.749420166015625 0.9111697673797607 2.002241849899292
15.779337882995605 0.8158347606658936 1.997618317604065
15.795762062072754 0.7195774912834167 1.9943279027938843
15.790727615356445 0.6223260760307312 1.9932020902633667
15.794035911560059 0.5254597663879395 1.9911466836929321
15.826581954956055 0.4293834865093231 1.9859836101531982
15.82870864868164 0.3323008716106415 1.9839218854904175
15.812336921691895 0.2349415421485901 1.983728051185608
32.49479675292969 0.2830784320831299 0.23834247887134552
32.69340133666992 0.08427014201879501 0.21339640021324158
32.573516845703125 -0.11583461612462997 0.22163504362106323
32.51606369018555 -0.315085768699646 0.22322623431682587
32.40070724487305 -0.5127414464950562 0.2307852953672409
32.425350189208984 -0.712099015712738 0.22352099418640137
32.42490005493164 -0.9111100435256958 0.21876150369644165
32.41825866699219 -1.10997474193573 0.21452417969703674
12.88390064239502 -0.520051896572113 2.273149013519287
32.55430221557617 -1.5146830081939697 0.18986164033412933
13.045026779174805 -0.6869539022445679 2.251889228820801
12.86865234375 -0.7568486928939819 2.2684102058410645
12.863595008850098 -0.8357659578323364 2.2667253017425537
12.855076789855957 -0.9144389033317566 2.265357732772827
12.863923072814941 -0.9944199919700623 2.262087345123291
13.243870735168457 -1.1055759191513062 2.219106435775757
11.982827186584473 -1.074334740638733 2.3515844345092773
12.824706077575684 -1.867970585823059 2.237135648727417
12.80398178100586 -1.9452530145645142 2.2364139556884766
29.231895446777344 -5.17848539352417 0.4143846333026886
19.55465316772461 -6.939971446990967 1.3111646175384521
19.522628784179688 -7.063837051391602 1.3072237968444824
19.386323928833008 -7.149403095245361 1.3156623840332031
19.321338653564453 -7.260484218597412 1.3155348300933838
19.280778884887695 -7.380631923675537 1.3124003410339355
19.243173599243164 -7.501999855041504 1.308821439743042
19.26299285888672 -7.646284580230713 1.2981888055801392
19.23845672607422 -7.773597717285156 1.292814016342163
20.62979507446289 -13.171412467956543 0.7834734916687012
20.343107223510742 -13.164936065673828 0.8091696500778198
20.061439514160156 -13.158169746398926 0.8343515992164612
19.809589385986328 -13.167696952819824 0.855536699295044
19.62264060974121 -13.21791934967041 0.867717981338501
19.474384307861328 -13.2926664352417 0.8744738101959229
19.38395118713379 -13.406208038330078 0.8729956746101379
19.343286514282227 -13.554483413696289 0.8643078804016113
19.32096290588379 -13.71656322479248 0.8528201580047607
19.304630279541016 -13.884098052978516 0.840275228023529
19.304624557495117 -14.06481647491455 0.8251528739929199
19.303918838500977 -14.2466459274292 0.809900164604187
19.292158126831055 -14.421860694885254 0.7960384488105774
19.28846549987793 -14.604660034179688 0.7807613611221313
19.2824649810791 -14.787353515625 0.7655888795852661
19.28513526916504 -14.97844123840332 0.7488783001899719
19.297109603881836 -15.17871379852295 0.7305091023445129
19.28636932373047 -15.362988471984863 0.7152968645095825
19.288772583007812 -15.559549331665039 0.6978370547294617
19.296405792236328 -15.762370109558105 0.679302990436554
19.29690933227539 -15.96143913269043 0.6615767478942871
19.31624412536621 -16.178321838378906 0.6406501531600952
19.32984733581543 -16.392831802368164 0.620293378829956
19.41385841369629 -16.670215606689453 0.588571310043335
20.83867645263672 -18.57184600830078 0.30310338735580444
20.51677703857422 -18.51238250732422 0.33357006311416626
20.334224700927734 -18.575584411621094 0.34179165959358215
20.080238342285156 -18.571178436279297 0.36168840527534485
19.825632095336914 -18.563005447387695 0.3818757236003876
19.63674545288086 -18.613893508911133 0.3914050757884979
19.446552276611328 -18.661788940429688 0.40120723843574524
15.4967622756958 14.448139190673828 1.5810707807540894
12.908864974975586 11.888341903686523 1.9320363998413086
12.961455345153809 11.790858268737793 1.9330519437789917
13.054795265197754 11.73043155670166 1.9286456108093262
14.435670852661133 12.812294960021973 1.7567263841629028
14.465108871459961 12.680866241455078 1.7612398862838745
14.531853675842285 12.582786560058594 1.7608075141906738
13.126777648925781 11.226175308227539 1.9492207765579224
13.173133850097656 11.126827239990234 1.9504122734069824
13.220294952392578 11.028607368469238 1.9514051675796509
13.266746520996094 10.93022632598877 1.9523934125900269
13.303998947143555 10.824780464172363 1.954450011253357
13.339683532714844 10.71866512298584 1.956601858139038
13.36053466796875 10.601385116577148 1.9605103731155396
13.4008207321167 10.50020980834961 1.9618785381317139
13.444303512573242 10.401985168457031 1.9627546072006226
13.48471450805664 10.30180835723877 1.9639207124710083
13.505337715148926 10.187142372131348 1.9674370288848877
13.551401138305664 10.092227935791016 1.9677157402038574
13.588791847229004 9.991235733032227 1.9689724445343018
13.620622634887695 9.8866548538208 1.9708164930343628
13.658963203430176 9.787276268005371 1.9717730283737183
13.697410583496094 9.688374519348145 1.972628116607666
13.74168872833252 9.593924522399902 1.9726905822753906
13.768936157226562 9.48800277709961 1.9747239351272583
13.807743072509766 9.390501022338867 1.975273847579956
13.843396186828613 9.291215896606445 1.9761171340942383
13.877521514892578 9.191296577453613 1.9770567417144775
13.913443565368652 9.092940330505371 1.9776965379714966
13.957043647766113 8.999881744384766 1.9773403406143188
13.979877471923828 8.893810272216797 1.9793646335601807
14.014578819274902 8.795729637145996 1.979896903038025
14.055371284484863 8.701749801635742 1.9796292781829834
14.096388816833496 8.608116149902344 1.979257583618164
14.136785507202148 8.51430606842041 1.9788814783096313
14.17485237121582 8.419307708740234 1.9787006378173828
14.21400260925293 8.325166702270508 1.978315830230713
14.250809669494629 8.229866981506348 1.978126883506775
14.289576530456543 8.135903358459473 1.9776335954666138
14.33380126953125 8.045183181762695 1.976433277130127
14.587258338928223 8.070304870605469 1.9510160684585571
15.041584014892578 8.201693534851074 1.9025092124938965
15.873138427734375 8.529366493225098 1.81080162525177
27.470439910888672 14.545165061950684 0.4852927327156067
27.511110305786133 14.351552963256836 0.4872688055038452
27.500892639160156 14.13252067565918 0.4949004054069519
27.53340721130371 13.936616897583008 0.49748772382736206
27.46216583251953 13.689803123474121 0.5117181539535522
27.6765079498291 13.58554744720459 0.49334123730659485
27.77414894104004 13.422896385192871 0.4881085753440857
28.09901237487793 13.368114471435547 0.4570596218109131
28.41162109375 13.303938865661621 0.4273601770401001
15.762397766113281 0.9125930666923523 1.8978756666183472
15.767478942871094 0.8158958554267883 1.895825982093811
19.298704147338867 0.7615057229995728 1.5025843381881714
19.275917053222656 0.6422269344329834 1.5030381679534912
12.904064178466797 -0.5997598767280579 2.184642791748047
13.033928871154785 -0.685942530632019 2.167881488800049
12.882471084594727 -0.7572490572929382 2.1827197074890137
12.881365776062012 -0.8365077972412109 2.1805856227874756
12.85994815826416 -0.9143736958503723 2.1806912422180176
12.814657211303711 -1.14853036403656 2.178560733795166
12.81312084197998 -1.2276766300201416 2.1762049198150635
12.79474925994873 -1.3845465183258057 2.1730687618255615
12.778919219970703 -1.462207317352295 2.172179698944092
12.764589309692383 -1.5399651527404785 2.1710667610168457
12.782193183898926 -1.861365556716919 2.157433032989502
29.230770111083984 -5.176266193389893 0.2205645591020584
19.921199798583984 -6.522826671600342 1.161057710647583
19.462297439575195 -6.505121231079102 1.2104920148849487
19.223390579223633 -6.5567307472229 1.2326809167861938
19.14310646057129 -6.660807132720947 1.2350599765777588
19.135269165039062 -6.790050029754639 1.2282752990722656
19.111623764038086 -6.914043426513672 1.2233712673187256
19.089969635009766 -7.039034843444824 1.2181127071380615
19.07772445678711 -7.167863368988037 1.2115545272827148
19.136024475097656 -7.324138164520264 1.195893406867981
19.144081115722656 -7.462285041809082 1.1864794492721558
20.41855812072754 -8.249247550964355 1.0052154064178467
19.06685447692871 -7.839684963226318 1.1705249547958374
19.092283248901367 -7.987521648406982 1.1583553552627563
19.108386993408203 -8.132466316223145 1.1472417116165161
28.395580291748047 -16.22207260131836 -0.35808658599853516
28.403230667114258 -16.458629608154297 -0.3771986663341522
28.432144165039062 -16.709470748901367 -0.39960673451423645
28.378890991210938 -16.913522720336914 -0.4106138348579407
28.25623893737793 -17.076480865478516 -0.41189044713974
28.0412540435791 -17.182565689086914 -0.40000009536743164
27.804960250854492 -17.273569107055664 -0.38502031564712524
27.652603149414062 -17.415220260620117 -0.3821919560432434
20.536678314208984 -13.110671043395996 0.6369326710700989
20.214662551879883 -13.080558776855469 0.6694741249084473
19.933643341064453 -13.073122024536133 0.6962187886238098
19.735321044921875 -13.117125511169434 0.7109054327011108
19.536394119262695 -13.158638000488281 0.725756049156189
19.392629623413086 -13.23569393157959 0.7324294447898865
19.306617736816406 -13.3515625 0.7304125428199768
19.26298713684082 -13.49705696105957 0.7218933701515198
19.234479904174805 -13.654009819030762 0.7109134197235107
19.229745864868164 -13.829084396362305 0.6961121559143066
19.247644424438477 -14.022141456604004 0.6776028871536255
19.23594093322754 -14.195316314697266 0.6633921265602112
19.222829818725586 -14.368875503540039 0.6491712331771851
19.23995590209961 -14.566765785217285 0.6299991607666016
19.219932556152344 -14.738236427307129 0.6163730621337891
19.236141204833984 -14.93922233581543 0.5967976450920105
19.2466983795166 -15.137894630432129 0.5778241753578186
19.23457908630371 -15.320565223693848 0.5621806383132935
19.22788429260254 -15.50926399230957 0.5454093813896179
19.254175186157227 -15.726701736450195 0.5230377912521362
19.23569107055664 -15.90963077545166 0.5076040625572205
19.242305755615234 -16.115222930908203 0.487807035446167
19.2380313873291 -16.313791275024414 0.46948716044425964
19.260643005371094 -16.537473678588867 0.44641804695129395
20.560152053833008 -18.55019187927246 0.14528734982013702
20.314395904541016 -18.556167602539062 0.16485847532749176
20.087556838989258 -18.576671600341797 0.18134962022304535
19.855449676513672 -18.58967399597168 0.1988881230354309
19.639066696166992 -18.6148681640625 0.2138390690088272
19.43744659423828 -18.6518497467041 0.22632218897342682
12.861703872680664 11.987105369567871 1.8251482248306274
12.947937965393066 11.920123100280762 1.821717381477356
12.950677871704102 11.77690315246582 1.8298603296279907
12.936610221862793 11.620140075683594 1.8401660919189453
14.394292831420898 12.771194458007812 1.6470848321914673
14.472112655639648 12.68266773223877 1.6453040838241577
13.120499610900879 11.35671615600586 1.8390437364578247
13.120895385742188 11.217206954956055 1.8467917442321777
13.167192459106445 11.117910385131836 1.8481550216674805
13.223462104797363 11.027384757995605 1.8480699062347412
13.242265701293945 10.906232833862305 1.852935791015625
13.292490005493164 10.811627388000488 1.8534622192382812
13.311812400817871 10.692520141601562 1.8580189943313599
13.365239143371582 10.601400375366211 1.857917308807373
13.38594913482666 10.484878540039062 1.8620599508285522
13.430910110473633 10.387975692749023 1.8628838062286377
13.474395751953125 10.290308952331543 1.8638073205947876
13.499720573425293 10.179325103759766 1.867013931274414
13.528181076049805 10.071388244628906 1.8697010278701782
13.57505989074707 9.977622032165527 1.8698879480361938
13.613249778747559 9.877816200256348 1.8711122274398804
13.649918556213379 9.777338027954102 1.8724379539489746
13.691551208496094 9.680800437927246 1.8730297088623047
13.725174903869629 9.578996658325195 1.874558687210083
13.762980461120605 9.480527877807617 1.8754578828811646
13.798450469970703 9.380836486816406 1.8765631914138794
13.829915046691895 9.278850555419922 1.8780854940414429
13.863134384155273 9.17847728729248 1.879291296005249
13.90646743774414 9.08511734008789 1.8791286945343018
13.949177742004395 8.991568565368652 1.8789615631103516
13.975320816040039 8.887697219848633 1.880789875984192
14.05125617980957 8.815553665161133 1.8762938976287842
14.034666061401367 8.685765266418457 1.8832848072052002
14.082369804382324 8.596412658691406 1.8821533918380737
14.124393463134766 8.503721237182617 1.8816502094268799
14.16495418548584 8.41032886505127 1.8812477588653564
14.204901695251465 8.31675910949707 1.8808410167694092
14.24423599243164 8.223012924194336 1.8804296255111694
14.280362129211426 8.127619743347168 1.880332350730896
14.32192325592041 8.035499572753906 1.879487156867981
14.482096672058105 8.009108543395996 1.8640650510787964
15.005651473999023 8.179035186767578 1.8043135404586792
27.437990188598633 14.739169120788574 0.29560387134552
27.475614547729492 14.543155670166016 0.29843175411224365
27.5030517578125 14.342636108398438 0.30232715606689453
27.47954559326172 14.116881370544434 0.3122134804725647
27.54124641418457 13.935948371887207 0.3116256296634674
27.525236129760742 13.716649055480957 0.32024601101875305
27.60040283203125 13.543622970581055 0.3177245557308197
27.742517471313477 13.403060913085938 0.3070327043533325
27.918956756591797 13.277915954589844 0.292122483253479
28.230857849121094 13.214756965637207 0.26092833280563354
28.724519729614258 13.231876373291016 0.20801393687725067
44.93513870239258 8.194424629211426 -1.544840931892395
19.281856536865234 0.7582699656486511 1.388493299484253
19.256072998046875 0.6389996409416199 1.3894555568695068
12.899956703186035 -0.6808813810348511 2.1053061485290527
12.876506805419922 -0.7588824033737183 2.105854034423828
12.857542037963867 -0.8369448781013489 2.1058175563812256
12.88168716430664 -0.9179055094718933 2.100595474243164
12.789207458496094 -1.3066048622131348 2.0990381240844727
12.755090713500977 -1.3822441101074219 2.1004464626312256
12.710662841796875 -1.4563860893249512 2.1030502319335938
12.634321212768555 -1.604942798614502 2.1066203117370605
12.629947662353516 -1.6831916570663452 2.1042442321777344
12.63000774383545 -1.7621338367462158 2.1012706756591797
12.569642066955566 -1.8324106931686401 2.105584144592285
12.547174453735352 -1.9078313112258911 2.1052463054656982
20.072622299194336 -6.439198017120361 1.0229036808013916
20.052213668823242 -6.568675994873047 1.0176517963409424
19.363676071166992 -6.4750566482543945 1.0997458696365356
19.041263580322266 -6.628265380859375 1.1263251304626465
19.008337020874023 -6.747915267944336 1.1226779222488403
20.33513069152832 -7.359708786010742 0.938682496547699
19.01178741455078 -7.413707256317139 1.080385684967041
20.278165817260742 -8.48682975769043 0.8720195889472961
19.03036880493164 -8.10234546661377 1.0326826572418213
18.98088264465332 -8.219306945800781 1.0300134420394897
19.03691864013672 -8.382742881774902 1.0127182006835938
19.042755126953125 -8.525288581848145 1.0021594762802124
28.331445693969727 -13.742154121398926 -0.35771694779396057
28.312837600708008 -13.948541641235352 -0.370959997177124
28.287439346313477 -14.152556419372559 -0.3834555149078369
28.265016555786133 -14.359030723571777 -0.3965877294540405
28.184696197509766 -14.536665916442871 -0.4016474783420563
28.086559295654297 -14.705116271972656 -0.40429794788360596
27.61425018310547 -14.674625396728516 -0.3530508875846863
27.509225845336914 -14.836181640625 -0.3547400236129761
27.368450164794922 -14.977958679199219 -0.3513454794883728
27.257326126098633 -15.13542366027832 -0.3523663580417633
20.520326614379883 -13.10427474975586 0.49228739738464355
20.204357147216797 -13.077923774719238 0.5256365537643433
19.929304122924805 -13.074307441711426 0.5529046058654785
19.721141815185547 -13.111741065979004 0.5699679255485535
19.50423240661621 -13.141021728515625 0.5884885191917419
19.34013557434082 -13.203926086425781 0.5988280177116394
19.26816749572754 -13.32906436920166 0.5946604013442993
19.222190856933594 -13.472599029541016 0.5862498879432678
19.223690032958984 -13.650519371032715 0.5701062679290771
19.202791213989258 -13.813909530639648 0.557303249835968
19.22388458251953 -14.009093284606934 0.5375211238861084
19.22015953063965 -14.187975883483887 0.5214678645133972
19.208600997924805 -14.362590789794922 0.5064370632171631
19.21380043029785 -14.55136489868164 0.4884190261363983
19.214250564575195 -14.738329887390137 0.4709041118621826
19.220169067382812 -14.931321144104004 0.45220842957496643
19.229110717773438 -15.128619194030762 0.43271929025650024
19.223161697387695 -15.316083908081055 0.415420800447464
19.236465454101562 -15.520853996276855 0.3946007192134857
19.235687255859375 -15.716324806213379 0.3758436143398285
19.19884490966797 -15.883932113647461 0.3629303276538849
19.26935386657715 -16.14272117614746 0.3313819468021393
19.200538635253906 -16.28689193725586 0.3233989179134369
19.271329879760742 -16.551618576049805 0.29101836681365967
19.26476287841797 -16.752769470214844 0.27166202664375305
12.820113182067871 12.091578483581543 1.7199102640151978
12.890893936157227 12.010011672973633 1.7187621593475342
13.827908515930176 12.725858688354492 1.589406967163086
12.960286140441895 11.78143310546875 1.7268320322036743
14.079363822937012 12.642300605773926 1.5717859268188477
12.971738815307617 11.504805564880371 1.74281644821167
14.431015968322754 12.642257690429688 1.539528727531433
13.114435195922852 11.347427368164062 1.7391624450683594
13.11630630493164 11.2092924118042 1.7472153902053833
13.16787052154541 11.114527702331543 1.747983694076538
13.199681282043457 11.003637313842773 1.7514697313308716
13.239068984985352 10.899723052978516 1.7537559270858765
13.284622192382812 10.801384925842285 1.7550580501556396
13.31164264678955 10.688580513000488 1.7588671445846558
13.34946346282959 10.585116386413574 1.7610375881195068
13.370083808898926 10.468719482421875 1.765503168106079
13.414942741394043 10.371925354003906 1.766466498374939
13.456748008728027 10.273163795471191 1.7677541971206665
13.497848510742188 10.17427921295166 1.7690386772155762
13.52389144897461 10.064593315124512 1.772295594215393
13.573126792907715 9.972627639770508 1.77225661277771
13.600825309753418 9.865260124206543 1.7750712633132935
13.643074035644531 9.76892375946045 1.7757941484451294
13.678972244262695 9.66842269897461 1.7772841453552246
13.720671653747559 9.57239818572998 1.7778892517089844
13.748613357543945 9.467205047607422 1.780256986618042
13.784823417663574 9.36817455291748 1.7814081907272339
13.817036628723145 9.266839981079102 1.7829993963241577
13.85598373413086 9.17039966583252 1.7835923433303833
13.891773223876953 9.072196960449219 1.7845135927200317
13.921032905578613 8.970132827758789 1.7862087488174438
13.963821411132812 8.877115249633789 1.786015272140503
14.0026273727417 8.7817964553833 1.7862613201141357
14.045012474060059 8.688948631286621 1.7859472036361694
14.072367668151855 8.587108612060547 1.7875211238861084
14.122840881347656 8.499610900878906 1.7859736680984497
14.154827117919922 8.401161193847656 1.7867614030838013
14.195570945739746 8.308161735534668 1.7863185405731201
14.233124732971191 8.213485717773438 1.7862062454223633
14.269186973571777 8.118169784545898 1.7862019538879395
14.310684204101562 8.026122093200684 1.7854100465774536
14.443765640258789 7.984841823577881 1.772730827331543
14.938096046447754 8.139095306396484 1.7135710716247559
15.882159233093262 8.527828216552734 1.5968986749649048
27.467172622680664 14.533833503723145 0.11852427572011948
27.49280548095703 14.332474708557129 0.1230417937040329
27.547054290771484 14.146782875061035 0.12373166531324387
27.561050415039062 13.9412260055542 0.12937936186790466
27.52198600769043 13.710329055786133 0.14157846570014954
27.57925033569336 13.528575897216797 0.14136885106563568
27.697956085205078 13.376883506774902 0.133236825466156
27.980934143066406 13.302746772766113 0.10425267368555069
19.263715744018555 0.7549188733100891 1.2780109643936157
19.254785537719727 0.6363233923912048 1.2770823240280151
19.300689697265625 0.5193652510643005 1.2693465948104858
12.899723052978516 -0.6828993558883667 2.0298566818237305
12.863387107849121 -0.7601383924484253 2.0321173667907715
12.878083229064941 -0.8403103947639465 2.0279626846313477
12.699453353881836 -1.4571330547332764 2.029674768447876
12.61225414276123 -1.525597095489502 2.037858009338379
20.17788314819336 -6.339635848999023 0.893162727355957
20.118431091308594 -6.456912517547607 0.8931838274002075
20.135574340820312 -6.599018573760986 0.8826537132263184
20.104705810546875 -6.7258524894714355 0.8785582780838013
18.96843147277832 -6.475586414337158 1.0263450145721436
18.97390365600586 -6.6077799797058105 1.0174914598464966
18.955101013183594 -6.731991767883301 1.0118627548217773
18.942014694213867 -6.858585834503174 1.005326747894287
18.942140579223633 -7.255931377410889 0.9794704914093018
18.98468780517578 -7.406198501586914 0.964602530002594
18.87957763671875 -7.499079704284668 0.9703912138938904
18.84101104736328 -8.299666404724121 0.9189962148666382
18.830110549926758 -8.43329906463623 0.9105849266052246
18.998741149902344 -8.649247169494629 0.8759663701057434
19.184307098388672 -8.87631893157959 0.8385412693023682
19.331897735595703 -9.089122772216797 0.806307852268219
20.67544174194336 -13.029346466064453 0.34020668268203735
20.41262435913086 -13.039618492126465 0.3665581941604614
20.125516891479492 -13.031006813049316 0.39698323607444763
19.846755981445312 -13.024264335632324 0.4262680411338806
19.63486671447754 -13.058499336242676 0.4448927938938141
19.45536231994629 -13.112224578857422 0.4583303928375244
19.303770065307617 -13.183243751525879 0.467239648103714
19.225387573242188 -13.303644180297852 0.4640829861164093
19.182764053344727 -13.449175834655762 0.454883337020874
19.40972137451172 -13.786893844604492 0.40059173107147217
19.32114601135254 -13.903362274169922 0.3984929621219635
19.202245712280273 -13.99767017364502 0.4013940691947937
19.208066940307617 -14.18344497680664 0.38313019275665283
19.215497970581055 -14.372190475463867 0.36431166529655457
19.217378616333008 -14.558568000793457 0.34615349769592285
19.227123260498047 -14.752747535705566 0.32635849714279175
19.216421127319336 -14.933005332946777 0.30979540944099426
19.23692512512207 -15.139418601989746 0.2875319719314575
19.21531867980957 -15.314537048339844 0.2722984254360199
19.23314666748047 -15.52293586730957 0.24986572563648224
19.21767807006836 -15.706426620483398 0.23298080265522003
19.186933517456055 -15.878941535949707 0.21853160858154297
19.2269287109375 -16.112117767333984 0.19115681946277618
19.221715927124023 -16.30984878540039 0.1715134233236313
19.286935806274414 -16.57008934020996 0.13878105580806732
19.221847534179688 -16.720569610595703 0.12932316958904266
12.767040252685547 12.211602210998535 1.610874056816101
12.837120056152344 12.128975868225098 1.6099847555160522
12.882698059082031 12.023579597473145 1.6128473281860352
12.858075141906738 11.854108810424805 1.6265437602996826
12.97216510772705 11.813150405883789 1.618449330329895
12.96362018585205 11.6609525680542 1.6293003559112549
13.016829490661621 11.565389633178711 1.6304421424865723
13.047700881958008 11.450608253479004 1.6348971128463745
13.098676681518555 11.35410213470459 1.6361453533172607
13.108209609985352 11.222513198852539 1.6435776948928833
13.147727012634277 11.117533683776855 1.6463122367858887
13.191788673400879 11.016946792602539 1.6482404470443726
13.228215217590332 10.91054916381836 1.651199460029602
13.267685890197754 10.807254791259766 1.6535817384719849
13.314129829406738 10.710112571716309 1.6548103094100952
13.32487964630127 10.585002899169922 1.6612181663513184
13.368988990783691 10.487139701843262 1.6625577211380005
13.40768814086914 10.385481834411621 1.6645857095718384
13.44880199432373 10.286157608032227 1.6661489009857178
13.479689598083496 10.179535865783691 1.6690959930419922
13.51375961303711 10.07589054107666 1.6714636087417603
13.557467460632324 9.979864120483398 1.6723244190216064
13.58443546295166 9.871999740600586 1.675498366355896
13.623504638671875 9.773443222045898 1.6768168210983276
13.66430950164795 9.676501274108887 1.6777836084365845
13.70036792755127 9.576580047607422 1.6793277263641357
13.741438865661621 9.4805269241333 1.6800551414489746
13.775280952453613 9.379857063293457 1.6817097663879395
13.820771217346191 9.287437438964844 1.6816147565841675
13.864819526672363 9.19426155090332 1.681631088256836
13.879988670349121 9.082406044006348 1.6856101751327515
13.91183090209961 8.982022285461426 1.6871390342712402
13.95804500579834 8.891191482543945 1.6865614652633667
13.985167503356934 8.788506507873535 1.6885523796081543
14.038568496704102 8.70256519317627 1.6867947578430176
14.069413185119629 8.602828979492188 1.6880773305892944
14.108916282653809 8.508681297302246 1.688067078590393
14.15291690826416 8.417418479919434 1.6873480081558228
14.195472717285156 8.325430870056152 1.6867411136627197
14.227115631103516 8.227272987365723 1.6875410079956055
14.258090019226074 8.129036903381348 1.6883379220962524
14.30224609375 8.038515090942383 1.6872467994689941
14.37101936340332 7.961709976196289 1.6827287673950195
14.837686538696289 8.101832389831543 1.6242330074310303
15.868850708007812 8.539056777954102 1.4896243810653687
19.276517868041992 0.7729669809341431 1.1605337858200073
19.252822875976562 0.6537792682647705 1.1615900993347168
19.27400016784668 0.5361772775650024 1.1567890644073486
12.89465045928955 -0.670060396194458 1.953061580657959
12.871273040771484 -0.7480425238609314 1.9538304805755615
12.872167587280273 -0.827355146408081 1.9513689279556274
19.688217163085938 -6.033956527709961 0.8443015813827515
19.425416946411133 -6.084103584289551 0.8736758828163147
19.094802856445312 -6.10951566696167 0.9128000736236572
19.03212547302246 -6.218512535095215 0.9137634634971619
18.953792572021484 -6.321956634521484 0.9168937802314758
18.940568923950195 -6.447027206420898 0.9105951189994812
18.91154670715332 -6.566975116729736 0.9064545631408691
18.904176712036133 -6.69474983215332 0.8990716338157654
18.906200408935547 -6.8263840675354 0.890195906162262
18.891508102416992 -6.952479362487793 0.8836151957511902
18.917726516723633 -7.094308853149414 0.8709328770637512
18.911441802978516 -7.224700450897217 0.8628487586975098
18.90241813659668 -7.354564666748047 0.8550311923027039
18.94777488708496 -7.506486892700195 0.8390549421310425
18.923059463500977 -7.631450653076172 0.8332613706588745
18.871864318847656 -7.745862007141113 0.8312788605690002
18.828203201293945 -7.863371849060059 0.828076183795929
18.836688995361328 -8.003108978271484 0.816967248916626
18.754140853881836 -8.104339599609375 0.8193633556365967
18.90595054626465 -8.308090209960938 0.7863854765892029
18.807231903076172 -8.402874946594238 0.7909666299819946
18.975934982299805 -8.618430137634277 0.7549141645431519
18.961009979248047 -8.752504348754883 0.7464820742607117
18.965778350830078 -8.89639663696289 0.7348917126655579
18.954288482666016 -9.03343391418457 0.725624680519104
18.981943130493164 -9.190089225769043 0.7101715207099915
19.20659637451172 -9.444900512695312 0.6640446782112122
20.49161720275879 -13.065028190612793 0.20925021171569824
20.135372161865234 -13.012557983398438 0.25271308422088623
19.88410186767578 -13.024036407470703 0.2787855565547943
19.642536163330078 -13.038955688476562 0.30337464809417725
19.46152114868164 -13.091752052307129 0.31779569387435913
19.29205894470215 -13.150632858276367 0.330291211605072
19.209781646728516 -13.268142700195312 0.32781437039375305
19.219266891479492 -13.449856758117676 0.3093468248844147
19.22157859802246 -13.628179550170898 0.2918475270271301
19.201515197753906 -13.792016983032227 0.2779897153377533
19.23459243774414 -13.995736122131348 0.25455817580223083
19.224445343017578 -14.169833183288574 0.23842576146125793
19.212085723876953 -14.343737602233887 0.2224244773387909
19.236997604370117 -14.547287940979004 0.19950266182422638
19.22083282470703 -14.72158145904541 0.18361704051494598
19.21184730529785 -14.902898788452148 0.16616879403591156
19.233272552490234 -15.109735488891602 0.14291413128376007
19.231178283691406 -15.300138473510742 0.1236002966761589
19.24905014038086 -15.508472442626953 0.10030926764011383
13.290891647338867 13.019116401672363 1.3849414587020874
12.737403869628906 12.325018882751465 1.4898656606674194
12.78738021850586 12.222658157348633 1.492505431175232
12.794715881347656 12.080617904663086 1.5021193027496338
12.865407943725586 11.999211311340332 1.501023530960083
12.922438621520996 11.905282974243164 1.5020872354507446
12.992019653320312 11.82313060760498 1.5009742975234985
13.020472526550293 11.704071044921875 1.5064886808395386
14.056002616882324 12.480158805847168 1.348010540008545
14.20141315460205 12.45458698272705 1.335032343864441
13.08952808380127 11.338398933410645 1.524731159210205
13.09973430633545 11.20757007598877 1.532550573348999
13.149018287658691 11.11099910736084 1.5339552164077759
13.196846961975098 11.0136079788208 1.5354763269424438
13.239383697509766 10.91225814819336 1.5377203226089478
13.266547203063965 10.798895835876465 1.5422685146331787
13.299009323120117 10.690585136413574 1.5458450317382812
13.340750694274902 10.590304374694824 1.5478395223617554
13.363799095153809 10.47582721710205 1.5526297092437744
13.410277366638184 10.380302429199219 1.5536457300186157
13.446624755859375 10.277366638183594 1.5561199188232422
13.48221492767334 10.174372673034668 1.5585917234420776
13.525010108947754 10.07726001739502 1.5598406791687012
13.543136596679688 9.962359428405762 1.564751386642456
13.589276313781738 9.868610382080078 1.5652616024017334
13.622675895690918 9.765995979309082 1.5676027536392212
13.6642427444458 9.669648170471191 1.5685946941375732
13.697003364562988 9.567474365234375 1.5708091259002686
13.738832473754883 9.47201919555664 1.571548581123352
13.77918529510498 9.375853538513184 1.5724072456359863
13.817229270935059 9.278440475463867 1.5735079050064087
13.86038875579834 9.184749603271484 1.5737438201904297
13.887968063354492 9.081100463867188 1.5761911869049072
13.900622367858887 8.968313217163086 1.5807325839996338
13.95344066619873 8.881821632385254 1.5792341232299805
13.994793891906738 8.788158416748047 1.5793325901031494
14.030464172363281 8.691184997558594 1.5801678895950317
14.056156158447266 8.588411331176758 1.582359790802002
14.107464790344238 8.501526832580566 1.580715298652649
14.147147178649902 8.407745361328125 1.5806734561920166
14.193058967590332 8.3178071975708 1.579635500907898
14.220358848571777 8.217195510864258 1.581196904182434
14.256441116333008 8.121964454650879 1.5813908576965332
14.297948837280273 8.029998779296875 1.5807112455368042
14.379664421081543 7.960416793823242 1.5741803646087646
15.012402534484863 8.190963745117188 1.4888238906860352
15.265706062316895 8.208221435546875 1.4578927755355835
19.26041030883789 0.7666199207305908 1.0359619855880737
19.24262809753418 0.6477400660514832 1.0363976955413818
19.261756896972656 0.5301422476768494 1.0317500829696655
12.885343551635742 -0.6736568212509155 1.8694456815719604
12.86788558959961 -0.7519238591194153 1.869523286819458
12.869726181030273 -0.8312798738479614 1.8668880462646484
27.854915618896484 -5.8092780113220215 -0.35263219475746155
27.809526443481445 -5.978138446807861 -0.3550606966018677
27.742809295654297 -6.142168998718262 -0.35456332564353943
19.848093032836914 -5.956322193145752 0.6928687691688538
19.470056533813477 -5.973410606384277 0.740880012512207
19.245624542236328 -6.034071445465088 0.7661746740341187
19.057964324951172 -6.103984832763672 0.7860262393951416
19.049903869628906 -6.230605125427246 0.7789792418479919
18.89357566833496 -6.308138370513916 0.7940948009490967
18.851348876953125 -6.422940254211426 0.7920054793357849
18.84488868713379 -6.550139904022217 0.7844057679176331
18.845972061157227 -6.680479049682617 0.775526762008667
18.84988784790039 -6.81242561340332 0.7660749554634094
18.84824562072754 -6.942962169647217 0.7573239803314209
18.835512161254883 -7.069910526275635 0.750128448009491
18.837644577026367 -7.202975749969482 0.7405141592025757
18.829626083374023 -7.332743167877197 0.7323143482208252
18.870407104492188 -7.482384204864502 0.7164257168769836
18.859575271606445 -7.612427711486816 0.7083520889282227
18.863414764404297 -7.749014854431152 0.6978510618209839
18.86172103881836 -7.884028911590576 0.6880549192428589
18.870004653930664 -8.023962020874023 0.6765381693840027
18.877275466918945 -8.164295196533203 0.6650114059448242
18.87718963623047 -8.302231788635254 0.6544763445854187
18.895994186401367 -8.449361801147461 0.6407843828201294
18.92000389099121 -8.599905014038086 0.6260759234428406
18.915019989013672 -8.73819351196289 0.6157987117767334
18.916213989257812 -8.880111694335938 0.6043661236763
18.91637420654297 -9.022374153137207 0.5929250121116638
18.908370971679688 -9.161521911621094 0.5826254487037659
18.953529357910156 -9.327566146850586 0.5635430812835693
19.001781463623047 -9.496720314025879 0.5437195897102356
16.555763244628906 -8.401778221130371 0.9309991002082825
16.495643615722656 -8.499080657958984 0.9300733208656311
16.70414924621582 -8.736751556396484 0.8848397731781006
16.628097534179688 -8.958818435668945 0.874859631061554
16.67057991027832 -9.114267349243164 0.8562707304954529
16.357881546020508 -9.07426929473877 0.896893322467804
16.300695419311523 -9.173937797546387 0.8948351144790649
16.251489639282227 -9.278154373168945 0.8913329243659973
16.233301162719727 -9.400458335876465 0.8824639916419983
16.31744956970215 -9.583515167236328 0.8560118675231934
16.167892456054688 -9.629746437072754 0.8692226409912109
19.91290283203125 -13.051603317260742 0.11624281108379364
19.625181198120117 -13.036101341247559 0.15026912093162537
19.44673728942871 -13.090483665466309 0.16503295302391052
19.294523239135742 -13.161009788513184 0.17514458298683167
19.20158576965332 -13.271222114562988 0.17457997798919678
19.22064971923828 -13.4596586227417 0.15362988412380219
19.19213104248047 -13.616204261779785 0.14103272557258606
19.166423797607422 -13.775796890258789 0.12769608199596405
12.831158638000488 12.884819984436035 1.3296290636062622
12.711763381958008 12.609553337097168 1.363416075706482
12.704272270202637 12.448725700378418 1.3768398761749268
12.74803638458252 12.33952522277832 1.3809481859207153
12.694150924682617 12.137700080871582 1.4020782709121704
12.726980209350586 12.02078914642334 1.407707929611206
12.86112117767334 11.99935531616211 1.395531177520752
12.945143699645996 11.930337905883789 1.392048716545105
12.997261047363281 11.832019805908203 1.3939918279647827
13.0818510055542 11.763360977172852 1.3902347087860107
13.123815536499023 11.656556129455566 1.3936834335327148
13.201498985290527 11.581735610961914 1.3909193277359009
13.050128936767578 11.308262825012207 1.4268271923065186
13.092597007751465 11.205436706542969 1.4296529293060303
13.140356063842773 11.107637405395508 1.431459903717041
13.185887336730957 11.008399963378906 1.433516025543213
13.232990264892578 10.910916328430176 1.4351871013641357
13.26093864440918 10.798233985900879 1.4399086236953735
13.283368110656738 10.681890487670898 1.4453953504562378
13.333608627319336 10.588500022888184 1.446165919303894
13.354327201843262 10.472248077392578 1.451651930809021
13.403923988342285 10.379215240478516 1.4522876739501953
13.42924690246582 10.26789379119873 1.4567515850067139
13.471916198730469 10.170395851135254 1.4582747220993042
13.515484809875488 10.073946952819824 1.4595381021499634
13.543203353881836 9.96617317199707 1.4632309675216675
13.579737663269043 9.865434646606445 1.4653854370117188
13.615547180175781 9.764620780944824 1.4675371646881104
13.659537315368652 9.670042037963867 1.4682743549346924
13.702065467834473 9.574722290039062 1.4691357612609863
13.730879783630371 9.470232963562012 1.4720499515533447
13.77368450164795 9.375795364379883 1.4726468324661255
13.806792259216309 9.275104522705078 1.474656343460083
13.830921173095703 9.168877601623535 1.4779523611068726
13.875012397766113 9.076275825500488 1.4780237674713135
13.910160064697266 8.978099822998047 1.4793810844421387
13.941278457641602 8.877701759338379 1.4812520742416382
13.986804962158203 8.786754608154297 1.480794072151184
14.021624565124512 8.689312934875488 1.4818832874298096
14.080312728881836 8.606772422790527 1.4792134761810303
14.099453926086426 8.500283241271973 1.4824975728988647
14.145092010498047 8.410100936889648 1.481630802154541
14.18416690826416 8.316166877746582 1.4816672801971436
14.211463928222656 8.215614318847656 1.4833887815475464
14.244953155517578 8.11896800994873 1.4840681552886963
14.289029121398926 8.028533935546875 1.4830524921417236
