# .PCD v0.7 - Point Cloud Data file format
VERSION 0.7
FIELDS x y z
SIZE 4 4 4
TYPE F F F
COUNT 1 1 1
WIDTH 847
HEIGHT 1
VIEWPOINT 0 0 0 1 0 0 0
POINTS 847
DATA ascii
15.802193641662598 0.2300713211297989 2.265599250793457
33.74216842651367 0.2847740650177002 0.7079153060913086
33.75187301635742 0.07782268524169922 0.7027357816696167
12.173958778381348 -0.04688557982444763 2.575082302093506
12.961284637451172 -0.12939700484275818 2.5048508644104004
33.7723503112793 -0.5436475872993469 0.6872633099555969
33.77895736694336 -0.7510325908660889 0.6818960905075073
12.170600891113281 -0.34558480978012085 2.5685508251190186
11.791786193847656 -0.40724700689315796 2.5999596118927
33.807044982910156 -1.3744261264801025 0.6643708348274231
13.22451400756836 -0.6191913485527039 2.470263957977295
13.180529594421387 -0.6981894373893738 2.472041368484497
12.815878868103027 -0.7577514052391052 2.502107620239258
12.80687141418457 -0.8360874056816101 2.500781297683716
12.74571704864502 -0.910652756690979 2.5040369033813477
33.8583869934082 -2.627234935760498 0.6265503168106079
12.85042953491211 -1.076749324798584 2.4902729988098145
12.993242263793945 -1.1690235137939453 2.475229263305664
12.892478942871094 -1.239740014076233 2.481853485107422
12.997446060180664 -1.3303544521331787 2.4700467586517334
33.91640853881836 -3.6811933517456055 0.5903314352035522
33.910606384277344 -3.891202449798584 0.5842761397361755
33.91042709350586 -4.102118492126465 0.5775947570800781
33.92572784423828 -4.315317153930664 0.5693905353546143
33.931793212890625 -4.527806282043457 0.5618920922279358
33.96018981933594 -4.74384069442749 0.5522394180297852
13.046573638916016 -1.9044065475463867 2.4472718238830566
13.123112678527832 -1.9978833198547363 2.4374759197235107
33.98595428466797 -5.386927604675293 0.5278782248497009
13.232921600341797 -2.181063652038574 2.421597957611084
34.00191116333008 -5.8180460929870605 0.5110870003700256
29.24750518798828 -5.189492225646973 0.9409862756729126
34.021202087402344 -6.251993656158447 0.49344950914382935
34.04539489746094 -6.472642421722412 0.4830774664878845
34.02223205566406 -6.6848015785217285 0.4769538342952728
33.96065902709961 -6.88939905166626 0.47428029775619507
33.9124755859375 -7.096554756164551 0.4702516198158264
33.929222106933594 -7.317656517028809 0.46003639698028564
34.02424621582031 -7.5569376945495605 0.44233080744743347
34.084598541259766 -7.790117263793945 0.42769789695739746
34.08616256713867 -8.010881423950195 0.41843661665916443
34.07855224609375 -8.230091094970703 0.40989890694618225
34.07339859008789 -8.450469970703125 0.4009881317615509
34.09095001220703 -8.677236557006836 0.38977447152137756
34.117591857910156 -8.907305717468262 0.377535879611969
34.11383056640625 -9.130305290222168 0.368044376373291
34.11053466796875 -9.354124069213867 0.3583591878414154
34.13740539550781 -9.58713150024414 0.3456193506717682
34.15312576293945 -9.818071365356445 0.33378690481185913
34.158695220947266 -10.047038078308105 0.3227745592594147
34.15129852294922 -10.273002624511719 0.31286370754241943
34.18523025512695 -10.512425422668457 0.29876619577407837
34.1823616027832 -10.741608619689941 0.2880900800228119
34.159950256347656 -10.965372085571289 0.27917248010635376
34.185272216796875 -11.20539379119873 0.26540204882621765
34.185325622558594 -11.438241004943848 0.25394895672798157
34.15742111206055 -11.662505149841309 0.24510134756565094
34.22865295410156 -11.921897888183594 0.22623439133167267
34.14317321777344 -12.1276216506958 0.22280250489711761
34.0695686340332 -12.337493896484375 0.218067929148674
34.16278839111328 -12.608970642089844 0.19642482697963715
34.316383361816406 -12.905533790588379 0.1684396117925644
34.303985595703125 -13.14177417755127 0.1569858342409134
34.29832458496094 -13.381606101989746 0.14467309415340424
34.2734260559082 -13.614882469177246 0.13414381444454193
33.77903366088867 -13.659152030944824 0.1715715527534485
33.566192626953125 -13.813424110412598 0.18022675812244415
33.70627212524414 -14.113630294799805 0.15240998566150665
33.6048698425293 -14.314253807067871 0.14932914078235626
33.601837158203125 -14.55730152130127 0.13589736819267273
29.492212295532227 -12.992545127868652 0.5514863729476929
33.65420150756836 -15.073376655578613 0.10232095420360565
33.46871566772461 -22.555652618408203 -0.36571553349494934
20.544750213623047 -14.030159950256348 1.1656895875930786
20.052099227905273 -13.8750638961792 1.2119277715682983
19.911701202392578 -13.959521293640137 1.2158358097076416
19.748308181762695 -14.02664566040039 1.222542405128479
19.624427795410156 -14.120774269104004 1.2244211435317993
19.562053680419922 -14.259044647216797 1.2186754941940308
19.56275749206543 -14.444364547729492 1.2049816846847534
19.518091201782227 -14.597453117370605 1.1967476606369019
19.526214599609375 -14.79139232635498 1.181738257408142
19.542949676513672 -14.993853569030762 1.1654165983200073
19.503713607788086 -15.154951095581055 1.1559646129608154
31.18043327331543 -24.536483764648438 -0.3509868383407593
29.14432144165039 -26.307241439819336 -0.3550109565258026
20.06549835205078 -18.564722061157227 0.8509832620620728
20.35748291015625 -19.06829261779785 0.7914493083953857
20.16324234008789 -19.12023162841797 0.7994053363800049
19.748809814453125 -18.95900535583496 0.8385830521583557
32.38972091674805 31.29908561706543 0.10485725104808807
30.907651901245117 29.502796173095703 0.2822979688644409
31.002761840820312 29.232643127441406 0.2876501679420471
15.507877349853516 14.443296432495117 1.9678244590759277
31.121246337890625 28.63211441040039 0.30532705783843994
31.202917098999023 28.35620880126953 0.3113834261894226
31.183713912963867 27.991811752319336 0.3278994858264923
31.23656463623047 27.695514678955078 0.33648571372032166
31.379953384399414 27.48107147216797 0.3353015184402466
13.54486083984375 11.715312957763672 2.2160751819610596
13.548080444335938 11.573734283447266 2.2215092182159424
13.605693817138672 11.479488372802734 2.221175193786621
13.604460716247559 11.336466789245605 2.226853847503662
13.644323348999023 11.228736877441406 2.2281789779663086
13.703487396240234 11.137290000915527 2.2274370193481445
13.68508529663086 10.9837646484375 2.23455810546875
13.734844207763672 10.885995864868164 2.234607458114624
13.757230758666992 10.767138481140137 2.237361192703247
13.799973487854004 10.664875984191895 2.237962245941162
13.854660034179688 10.572168350219727 2.237281560897827
13.89041805267334 10.465394973754883 2.238433837890625
13.909393310546875 10.346680641174316 2.2411861419677734
13.987690925598145 10.272380828857422 2.237926721572876
14.026864051818848 10.16942310333252 2.238508462905884
14.075028419494629 10.073332786560059 2.2381224632263184
14.103005409240723 9.96323013305664 2.2396626472473145
14.116263389587402 9.843467712402344 2.242572784423828
14.173744201660156 9.75500202178955 2.2410480976104736
14.218301773071289 9.657800674438477 2.240727424621582
14.263029098510742 9.560972213745117 2.240321397781372
14.288817405700684 9.451859474182129 2.241692304611206
14.326322555541992 9.350961685180664 2.2418465614318848
14.359779357910156 9.247800827026367 2.2423226833343506
14.389984130859375 9.142976760864258 2.2430403232574463
14.46935749053955 8.946370124816895 2.242433547973633
14.516133308410645 8.85278034210205 2.2413485050201416
14.571698188781738 8.764603614807129 2.23935866355896
14.618155479431152 8.670991897583008 2.2381789684295654
14.77154541015625 8.640045166015625 2.2267489433288574
14.836177825927734 8.556249618530273 2.223738670349121
14.91246509552002 8.4788818359375 2.21956729888916
14.997054100036621 8.40577220916748 2.214559555053711
15.130151748657227 8.358933448791504 2.2049219608306885
15.096941947937012 8.22021484375 2.2109320163726807
27.732128143310547 14.881452560424805 1.0250067710876465
27.797893524169922 14.698027610778809 1.0238183736801147
27.8872013092041 14.527246475219727 1.02030348777771
33.02505874633789 16.439138412475586 0.5550605058670044
32.93697738647461 16.14415168762207 0.5683665871620178
33.01435470581055 15.93186092376709 0.5661108493804932
33.05436706542969 15.702119827270508 0.567186713218689
33.08197784423828 15.467422485351562 0.5692653059959412
33.09889602661133 15.228809356689453 0.5721852779388428
33.117767333984375 14.992215156555176 0.5747753381729126
33.1231575012207 14.750688552856445 0.5784623026847839
33.09214782714844 14.494467735290527 0.5853520035743713
33.11964797973633 14.265198707580566 0.5867023468017578
33.12998580932617 14.02953052520752 0.5894894003868103
33.16904067993164 13.806907653808594 0.5894954800605774
33.17341232299805 13.570751190185547 0.592544674873352
33.22328567504883 13.354011535644531 0.5912832021713257
33.0743522644043 13.059219360351562 0.608078122138977
33.1107177734375 12.839530944824219 0.6077683568000793
33.47713088989258 12.746112823486328 0.5771884322166443
33.65415954589844 12.577859878540039 0.5638072490692139
33.700355529785156 12.360218048095703 0.5622408390045166
33.71046447753906 12.129997253417969 0.5638296604156494
33.730289459228516 11.904095649719238 0.5643970966339111
33.74014663696289 11.6754732131958 0.5657382011413574
33.733367919921875 11.442054748535156 0.5684562921524048
33.74674987792969 11.216386795043945 0.5692086219787598
33.762420654296875 10.992215156555176 0.5696200132369995
33.77471923828125 10.767667770385742 0.5702069997787476
33.7855339050293 10.543380737304688 0.5707970261573792
33.79963684082031 10.320820808410645 0.5709596872329712
33.80082702636719 10.09505844116211 0.572162926197052
33.80434799194336 9.870786666870117 0.5730254054069519
33.816925048828125 9.649858474731445 0.5729395747184753
33.81847381591797 9.426467895507812 0.5737239718437195
33.83489990234375 9.207867622375488 0.5730361342430115
33.84991455078125 8.989419937133789 0.5723501443862915
33.85870361328125 8.769883155822754 0.5721009373664856
33.857383728027344 8.548378944396973 0.5726407170295715
33.87106704711914 8.331265449523926 0.5716997981071472
33.879486083984375 8.113374710083008 0.5711098313331604
33.879722595214844 7.894109725952148 0.5711369514465332
33.88631057739258 7.676906108856201 0.570465624332428
33.91194152832031 7.464414596557617 0.5679500102996826
33.92942428588867 7.250437259674072 0.5660489797592163
33.9377555847168 7.034906387329102 0.564852774143219
33.93886184692383 6.818367004394531 0.564188539981842
33.95423126220703 6.605120658874512 0.5621127486228943
33.94770812988281 6.388071060180664 0.5618963837623596
33.961360931396484 6.175268650054932 0.5597336888313293
33.98054885864258 5.963741779327393 0.5569493174552917
33.97976303100586 5.74905252456665 0.5558528304100037
33.98253631591797 5.535396575927734 0.554314136505127
33.985939025878906 5.322227954864502 0.5525990724563599
34.002777099609375 5.111445903778076 0.5495464205741882
34.018306732177734 4.900654315948486 0.5464910864830017
34.03253173828125 4.689863204956055 0.5434336066246033
34.04644012451172 4.479208469390869 0.5402853488922119
34.052127838134766 4.267691135406494 0.5377652049064636
34.05946731567383 4.056622505187988 0.5349737405776978
33.66271209716797 3.800138473510742 0.5688592195510864
33.45425796508789 3.5689642429351807 0.5855221152305603
33.489990234375 3.365191698074341 0.5798287987709045
33.509613037109375 3.1597094535827637 0.5754855275154114
33.536903381347656 2.954897880554199 0.5703223347663879
33.58774948120117 2.7519021034240723 0.5628836154937744
33.53110885620117 2.540337324142456 0.5651564598083496
33.608253479003906 2.338977098464966 0.555067777633667
33.606666564941406 2.131842851638794 0.5520676374435425
15.755034446716309 0.9017762541770935 2.187655210494995
15.778984069824219 0.8060887455940247 2.1838698387145996
15.790410041809082 0.709602952003479 2.1811766624450684
15.788311004638672 0.6125032901763916 2.1796717643737793
15.793578147888184 0.5157154202461243 2.1774330139160156
15.82114315032959 0.4194939136505127 2.173078775405884
15.825225830078125 0.32248401641845703 2.1708333492279053
15.800833702087402 0.22503945231437683 2.1711678504943848
33.71730422973633 0.2747972905635834 0.5082228779792786
33.709991455078125 0.0679631233215332 0.5045649409294128
33.71335220336914 -0.13882209360599518 0.49979740381240845
33.72938537597656 -0.3457908630371094 0.49372920393943787
12.941150665283203 -0.2128414809703827 2.4273672103881836
11.964935302734375 -0.2703021168708801 2.5166821479797363
12.129118919372559 -0.34844425320625305 2.4995734691619873
12.848016738891602 -0.44791388511657715 2.430406093597412
33.78544616699219 -1.3833391666412354 0.46376845240592957
33.72221374511719 -1.588016390800476 0.46439769864082336
13.162246704101562 -0.7015388607978821 2.39475679397583
12.812673568725586 -0.7617889046669006 2.4255611896514893
12.779789924621582 -0.838541567325592 2.4265120029449463
11.936141014099121 -0.8568379878997803 2.5041725635528564
12.760294914245605 -0.9946318864822388 2.423917770385742
12.856973648071289 -1.081550121307373 2.412442445755005
33.800540924072266 -3.0502371788024902 0.416339248418808
12.518393516540527 -1.2079522609710693 2.439978837966919
33.89244842529297 -3.4782562255859375 0.3947913646697998
33.89479446411133 -3.688768148422241 0.38797351717948914
33.89682388305664 -3.8995563983917236 0.38105523586273193
33.906436920166016 -4.111588478088379 0.37327665090560913
33.913726806640625 -4.323761940002441 0.36558622121810913
33.932518005371094 -4.537897109985352 0.35664916038513184
33.946006774902344 -4.751875877380371 0.348084956407547
33.95322036743164 -4.965473175048828 0.3399878740310669
33.94432830810547 -5.177089214324951 0.3333202302455902
33.97049331665039 -5.39456033706665 0.32310301065444946
33.97954559326172 -5.609955310821533 0.31440865993499756
33.9784049987793 -5.824153900146484 0.30656933784484863
13.248696327209473 -2.3554725646972656 2.333441734313965
34.01512908935547 -6.261066913604736 0.28663602471351624
34.0333366394043 -6.480569839477539 0.27645906805992126
34.00617980957031 -6.691887378692627 0.2706175148487091
33.95332717895508 -6.89816427230835 0.26719364523887634
33.90701675415039 -7.1056809425354 0.26300162076950073
33.94990921020508 -7.3324294090271 0.24979527294635773
33.96117401123047 -7.553274631500244 0.23958095908164978
34.036006927490234 -7.7894110679626465 0.2228412926197052
34.04817581176758 -8.01239013671875 0.2122076451778412
34.04630661010742 -8.232772827148438 0.20282979309558868
34.012107849121094 -8.44576358795166 0.19656795263290405
34.08169174194336 -8.685429573059082 0.17965185642242432
34.08702087402344 -8.90991497039795 0.16907116770744324
34.09856414794922 -9.136853218078613 0.15769578516483307
34.07884979248047 -9.35610294342041 0.14935053884983063
34.08646774291992 -9.583537101745605 0.13805337250232697
34.09735870361328 -9.812795639038086 0.12625239789485931
34.058021545410156 -10.028214454650879 0.11946357041597366
34.05830001831055 -10.255861282348633 0.10843328386545181
29.461050033569336 -12.989322662353516 0.36128389835357666
33.36973571777344 -19.089813232421875 -0.35293591022491455
33.307411193847656 -19.326574325561523 -0.3641478717327118
33.33515167236328 -19.617263793945312 -0.3864229619503021
33.19828796386719 -19.81218147277832 -0.38905850052833557
20.295862197875977 -13.506953239440918 1.074487328529358
20.09025764465332 -13.548891067504883 1.0872066020965576
19.760101318359375 -13.503535270690918 1.1158740520477295
19.5882625579834 -13.563339233398438 1.1245062351226807
19.50518226623535 -13.683797836303711 1.1217424869537354
19.475669860839844 -13.8423490524292 1.1119552850723267
19.427995681762695 -13.988849639892578 1.1043699979782104
19.490346908569336 -14.58642864227295 1.0535751581192017
19.421566009521484 -14.721914291381836 1.048072099685669
19.404958724975586 -15.280373573303223 1.0051333904266357
19.42791748046875 -15.49271297454834 0.9864873886108398
29.091609954833984 -23.492040634155273 -0.35404038429260254
28.937196731567383 -23.662471771240234 -0.3567409813404083
28.78561782836914 -23.835071563720703 -0.35995256900787354
28.702350616455078 -24.064834594726562 -0.3728252351284027
28.728010177612305 -24.388423919677734 -0.4012422561645508
28.683658599853516 -24.655546188354492 -0.42020371556282043
28.712858200073242 -24.988969802856445 -0.44995054602622986
28.67412567138672 -25.266489028930664 -0.4704384207725525
20.94571876525879 -18.68673324584961 0.6165117621421814
20.772010803222656 -18.7622013092041 0.6220887899398804
20.287796020507812 -18.552440643310547 0.6729952096939087
20.143308639526367 -18.648828506469727 0.6746014356613159
19.870004653930664 -18.623809814453125 0.6952208280563354
19.69802474975586 -18.691267013549805 0.7009705305099487
19.53386116027832 -18.764894485473633 0.7055673599243164
15.514894485473633 14.434711456298828 1.8486511707305908
13.102217674255371 11.603784561157227 2.1530659198760986
13.111473083496094 11.469400405883789 2.1583664417266846
13.140687942504883 11.353582382202148 2.161306381225586
13.166703224182129 11.235897064208984 2.1645002365112305
13.22376823425293 11.145293235778809 2.1641385555267334
13.233506202697754 11.015521049499512 2.1689417362213135
13.279096603393555 10.916426658630371 2.169675827026367
13.320876121520996 10.81467342376709 2.170745611190796
13.342474937438965 10.697233200073242 2.1739392280578613
13.385008811950684 10.597256660461426 2.1747498512268066
13.430743217468262 10.500229835510254 2.175130605697632
13.447402000427246 10.381117820739746 2.1785800457000732
13.491631507873535 10.283943176269531 2.1789557933807373
13.532788276672363 10.184818267822266 2.17958402633667
13.567639350891113 10.081415176391602 2.1808083057403564
13.60253620147705 9.978556632995605 2.1819450855255127
13.640716552734375 9.878570556640625 2.182650566101074
13.676563262939453 9.77733325958252 2.1835248470306396
13.71656608581543 9.679472923278809 2.183880567550659
13.758336067199707 9.583198547363281 2.183974027633667
13.792875289916992 9.482258796691895 2.184753894805908
13.82751750946045 9.381814956665039 2.1854448318481445
13.85731029510498 9.278532028198242 2.18656587600708
13.892175674438477 9.17908000946045 2.187079668045044
13.932185173034668 9.083357810974121 2.186983823776245
13.982434272766113 8.994498252868652 2.185756206512451
14.009407997131348 8.890946388244629 2.1868677139282227
14.051682472229004 8.797447204589844 2.1863255500793457
14.100116729736328 8.707952499389648 2.185081958770752
14.130117416381836 8.607308387756348 2.1856632232666016
14.182469367980957 8.520477294921875 2.183885335922241
14.238572120666504 8.435864448547363 2.1816627979278564
14.324272155761719 8.368475914001465 2.176367998123169
14.422030448913574 8.190162658691406 2.1731016635894775
14.495283126831055 8.114688873291016 2.168910264968872
14.654487609863281 8.086277961730957 2.1559970378875732
15.080766677856445 8.201394081115723 2.1161856651306152
15.790796279907227 8.462644577026367 2.0479633808135986
27.582971572875977 14.567082405090332 0.8689485788345337
27.685598373413086 14.404980659484863 0.8640462756156921
27.717243194580078 14.206268310546875 0.8661206364631653
27.82752227783203 14.048114776611328 0.8602197766304016
27.80204963684082 13.610212326049805 0.8725314140319824
32.294532775878906 15.321974754333496 0.43696603178977966
32.64470291137695 15.243719100952148 0.40744683146476746
33.00959396362305 15.1683931350708 0.3764202296733856
33.12156677246094 14.974665641784668 0.3702610433101654
33.08134078979492 14.712937355041504 0.378948837518692
33.095733642578125 14.47701644897461 0.382097452878952
33.108482360839844 14.241470336914062 0.3852507472038269
33.12417221069336 14.00825023651123 0.3879620134830475
33.170440673828125 13.788755416870117 0.38752758502960205
33.16547775268555 13.548877716064453 0.3919566571712494
33.19948959350586 13.325901985168457 0.3924255669116974
33.06803512573242 13.038350105285645 0.4088890254497528
33.10333251953125 12.818370819091797 0.4089263379573822
33.472286224365234 12.725874900817871 0.37634775042533875
33.665931701660156 12.563858985900879 0.36073797941207886
33.68958282470703 12.337944984436035 0.3615279793739319
33.7164192199707 12.113896369934082 0.36186546087265015
33.7248649597168 11.884021759033203 0.36384299397468567
33.728946685791016 11.653521537780762 0.3660999536514282
33.73241424560547 11.423736572265625 0.36827099323272705
33.73716354370117 11.195287704467773 0.3701747953891754
33.74702072143555 10.969362258911133 0.3714437782764435
33.75917053222656 10.74494457244873 0.37235045433044434
33.767940521240234 10.520196914672852 0.37344372272491455
33.77998733520508 10.297194480895996 0.37408190965652466
33.779117584228516 10.071022987365723 0.3758281171321869
33.78630828857422 9.848036766052246 0.3766590654850006
33.79970169067383 9.627520561218262 0.37675583362579346
33.81645965576172 9.40854263305664 0.37639346718788147
33.8183479309082 9.186065673828125 0.3773278594017029
33.822635650634766 8.964937210083008 0.3778964877128601
33.83030319213867 8.745347023010254 0.37800538539886475
33.85875701904297 8.531595230102539 0.3759804666042328
33.854923248291016 8.310222625732422 0.376930832862854
33.86223602294922 8.092225074768066 0.37667572498321533
33.873966217041016 7.875802516937256 0.3758643865585327
33.88626480102539 7.659976959228516 0.37486764788627625
33.90885925292969 7.446857929229736 0.3727496862411499
33.91355895996094 7.230217456817627 0.37222176790237427
33.92176055908203 7.014806270599365 0.37122854590415955
33.925662994384766 6.798975944519043 0.37051841616630554
33.923309326171875 6.582412242889404 0.3702816069126129
33.93327331542969 6.368701934814453 0.3687307834625244
33.95953369140625 6.158313751220703 0.36548322439193726
33.96388626098633 5.944234371185303 0.3642151653766632
33.96984100341797 5.730828762054443 0.3626655638217926
33.9793701171875 5.518369674682617 0.360643595457077
33.984622955322266 5.305545330047607 0.3589065968990326
33.99149703979492 5.0933051109313965 0.35688573122024536
34.00394058227539 4.882168292999268 0.35420045256614685
34.01507568359375 4.671067714691162 0.35151463747024536
34.021942138671875 4.459624290466309 0.34911325573921204
34.03144073486328 4.248762607574463 0.34633079171180725
34.040626525878906 4.03806734085083 0.3434521555900574
32.57167053222656 3.6613142490386963 0.48342832922935486
32.7227783203125 3.4752402305603027 0.4666557312011719
32.36571502685547 3.2367019653320312 0.49896594882011414
32.81862258911133 3.078869104385376 0.45268967747688293
32.8245849609375 2.8764686584472656 0.4495862126350403
32.57533264160156 2.6534054279327393 0.4711405634880066
33.02630615234375 2.4863789081573486 0.4245665371417999
32.64433288574219 2.256349563598633 0.45881402492523193
32.9223747253418 2.0727922916412354 0.4287501573562622
15.755073547363281 0.8938876986503601 2.098672866821289
15.77795696258545 0.7981414794921875 2.094878911972046
15.78434944152832 0.7014378905296326 2.0926318168640137
15.784180641174316 0.6044555306434631 2.0909669399261475
15.785406112670898 0.5075646638870239 2.089107036590576
15.82185173034668 0.4116167426109314 2.0837368965148926
15.826869010925293 0.3146224021911621 2.0813827514648438
15.803425788879395 0.21719421446323395 2.081763982772827
32.74302673339844 0.2513631582260132 0.413726270198822
32.7504997253418 0.050534553825855255 0.4087703227996826
32.79555892944336 -0.1505545824766159 0.3999829888343811
12.501453399658203 -0.13535770773887634 2.399569272994995
12.497246742248535 -0.2119850516319275 2.3982326984405518
12.525402069091797 -0.289319783449173 2.393644332885742
12.805728912353516 -0.3743537664413452 2.3639893531799316
12.839827537536621 -0.4541887044906616 2.3586606979370117
12.849564552307129 -0.533470094203949 2.355696201324463
32.90900802612305 -1.5653091669082642 0.35474956035614014
13.105043411254883 -0.7051835656166077 2.3260531425476074
12.843045234680176 -0.7701666951179504 2.3500583171844482
12.827987670898438 -0.8482723832130432 2.3493714332580566
12.554417610168457 -0.9076113700866699 2.3745744228363037
12.82224178314209 -1.0060360431671143 2.3454132080078125
12.224747657775879 -1.0347474813461304 2.4032297134399414
33.11767578125 -3.004383087158203 0.29342666268348694
12.018693923950195 -1.1660245656967163 2.419440984725952
33.2100830078125 -3.424076795578003 0.27131161093711853
33.22956466674805 -3.6322498321533203 0.262737900018692
33.20622253417969 -3.8359997272491455 0.2583746910095215
33.414710998535156 -4.067964553833008 0.2302703559398651
33.0936164855957 -4.235098361968994 0.25599974393844604
33.863319396972656 -4.544887542724609 0.1701502650976181
33.910213470458984 -4.763158321380615 0.15792031586170197
33.935035705566406 -4.979146480560303 0.1477968692779541
33.892581939697266 -5.185543537139893 0.14444534480571747
33.77027893066406 -5.379095554351807 0.1492103785276413
33.75189971923828 -5.588728427886963 0.1431386023759842
33.84987258911133 -5.818556308746338 0.12486933171749115
29.243268966674805 -5.2119340896606445 0.5952786207199097
33.768184661865234 -6.232089996337891 0.11666489392518997
33.73863220214844 -6.4409589767456055 0.11119075864553452
29.441207885742188 -12.997458457946777 0.18083536624908447
32.898895263671875 -16.498876571655273 -0.3512399196624756
20.48098373413086 -13.284542083740234 0.9385846257209778
20.3929443359375 -13.406088829040527 0.9365807175636292
20.41254997253418 -13.599239349365234 0.9201804399490356
19.547422409057617 -13.197021484375 1.0217792987823486
19.456737518310547 -13.310493469238281 1.0203403234481812
19.3850040435791 -13.43693733215332 1.0162663459777832
19.250629425048828 -13.519598960876465 1.0205917358398438
20.02035903930664 -14.430505752563477 0.8866933584213257
19.557432174682617 -14.465219497680664 0.9206165075302124
19.47593116760254 -14.59085750579834 0.9168451428413391
19.42608642578125 -14.740671157836914 0.9085277318954468
19.446054458618164 -14.944917678833008 0.8902032971382141
19.40960693359375 -15.29981803894043 0.8636348247528076
19.346094131469727 -15.443371772766113 0.8565255403518677
19.29314422607422 -15.59609317779541 0.847745418548584
19.300565719604492 -15.799099922180176 0.8300269246101379
27.57562255859375 -22.856172561645508 -0.3963218927383423
27.421430587768555 -23.014013290405273 -0.3981904983520508
27.198945999145508 -23.113557815551758 -0.39006802439689636
27.041059494018555 -23.266979217529297 -0.39154985547065735
26.69948959350586 -23.26008415222168 -0.3656231760978699
26.51852035522461 -23.390535354614258 -0.36366647481918335
20.84630584716797 -18.61686897277832 0.4713219106197357
20.560293197631836 -18.589778900146484 0.4945715367794037
20.32305908203125 -18.60349464416504 0.5105597972869873
20.044891357421875 -18.576515197753906 0.5330225229263306
19.851896286010742 -18.62568473815918 0.5424536466598511
19.659053802490234 -18.67319107055664 0.5519206523895264
19.456356048583984 -18.70939826965332 0.5630053281784058
15.504110336303711 14.454601287841797 1.7181098461151123
12.964195251464844 11.793197631835938 2.0467770099639893
13.008683204650879 11.68883228302002 2.048516273498535
13.039719581604004 11.573127746582031 2.0517892837524414
13.065333366394043 11.453542709350586 2.055605173110962
13.113314628601074 11.354286193847656 2.056614398956299
13.155271530151367 11.250341415405273 2.0582540035247803
13.193406105041504 11.143738746643066 2.060253858566284
13.22537612915039 11.032626152038574 2.0628879070281982
13.264936447143555 10.928504943847656 2.0645205974578857
13.299083709716797 10.820542335510254 2.066697120666504
13.333959579467773 10.713820457458496 2.068690299987793
13.372710227966309 10.61078929901123 2.070134162902832
13.412267684936523 10.508915901184082 2.0713930130004883
13.452653884887695 10.408172607421875 2.0724663734436035
13.469362258911133 10.289799690246582 2.076190948486328
13.513748168945312 10.193199157714844 2.0766193866729736
13.551067352294922 10.091684341430664 2.077777624130249
13.582836151123047 9.986554145812988 2.079484224319458
13.618663787841797 9.884922981262207 2.0806379318237305
13.656184196472168 9.784967422485352 2.0815134048461914
13.696244239807129 9.687223434448242 2.082017421722412
13.73561954498291 9.58935546875 2.0825178623199463
13.774311065673828 9.49136734008789 2.083014726638794
13.802438735961914 9.386547088623047 2.084617853164673
13.834760665893555 9.285065650939941 2.085664749145508
13.879639625549316 9.192337036132812 2.0852274894714355
13.912233352661133 9.091782569885254 2.0860836505889893
13.947464942932129 8.993330001831055 2.08656644821167
13.985373497009277 8.896925926208496 2.086674451828003
14.024311065673828 8.801450729370117 2.086592674255371
14.062604904174805 8.705833435058594 2.0865070819854736
14.101102828979492 8.610594749450684 2.0863242149353027
14.139816284179688 8.515724182128906 2.0860443115234375
14.181320190429688 8.422735214233398 2.085386276245117
14.221357345581055 8.32905387878418 2.0848171710968018
14.259916305541992 8.234699249267578 2.084336996078491
14.303910255432129 8.143631935119629 2.083195924758911
14.351664543151855 8.054769515991211 2.0815796852111816
14.591394424438477 8.072127342224121 2.0591750144958496
14.825745582580566 8.08350658416748 2.037374258041382
15.830764770507812 8.50600528717041 1.932763695716858
27.543933868408203 14.582362174987793 0.6800416707992554
27.573352813720703 14.38229751586914 0.6828886866569519
27.621719360351562 14.192885398864746 0.6835628151893616
27.650148391723633 13.993978500366211 0.6862229108810425
27.699459075927734 13.806357383728027 0.6865145564079285
27.775209426879883 13.632251739501953 0.6838601231575012
27.933223724365234 13.498014450073242 0.6723570227622986
28.1337833404541 13.382871627807617 0.6562553644180298
28.451169967651367 13.320642471313477 0.627726674079895
32.53712463378906 14.991156578063965 0.20157748460769653
33.10310745239258 15.00666332244873 0.14740638434886932
33.14318084716797 14.780634880065918 0.1485566794872284
33.084190368652344 14.511897087097168 0.1599487066268921
33.1081657409668 14.28110122680664 0.16245129704475403
33.11589050292969 14.04433822631836 0.1664934903383255
33.14860534667969 13.819122314453125 0.1677558869123459
33.17704772949219 13.592901229858398 0.16930827498435974
33.20396041870117 13.36684799194336 0.17086146771907806
33.07755661010742 13.080945014953613 0.18823067843914032
33.10662841796875 12.858355522155762 0.1892285794019699
33.44019317626953 12.75257682800293 0.15842454135417938
33.619876861572266 12.585609436035156 0.1435130536556244
33.641815185546875 12.359253883361816 0.1448427438735962
33.669734954833984 12.13580322265625 0.14539898931980133
33.67459487915039 11.904840469360352 0.14818978309631348
33.677894592285156 11.674274444580078 0.150986909866333
33.68717956542969 11.446674346923828 0.15301157534122467
33.67982864379883 11.214367866516113 0.15660083293914795
33.71442413330078 10.99677562713623 0.15570949018001556
33.69358444213867 10.761919021606445 0.16038621962070465
33.70912551879883 10.539609909057617 0.16116204857826233
33.72416687011719 10.317804336547852 0.16184134781360626
33.73488998413086 10.095353126525879 0.16281786561012268
33.73461151123047 9.870361328125 0.16478011012077332
33.75293731689453 9.651494026184082 0.16468271613121033
33.76792907714844 9.432238578796387 0.16478459537029266
33.77094650268555 9.210278511047363 0.165972501039505
33.77635955810547 8.98965835571289 0.16676932573318481
33.7947883605957 8.773064613342285 0.1660883128643036
33.79446029663086 8.552188873291016 0.16719001531600952
33.80913162231445 8.335693359375 0.16661085188388824
33.814674377441406 8.117480278015137 0.1668272763490677
33.826560974121094 7.901319980621338 0.1662524789571762
33.83125686645508 7.683994770050049 0.1662762463092804
33.84233093261719 7.468621730804443 0.16550615429878235
33.86663055419922 7.256527900695801 0.16324134171009064
33.872066497802734 7.040768146514893 0.162772074341774
33.884910583496094 6.826981067657471 0.16140568256378174
33.89641189575195 6.613299369812012 0.16003930568695068
33.897762298583984 6.398070335388184 0.1595761775970459
33.905582427978516 6.1844987869262695 0.15831269323825836
33.915977478027344 5.971759796142578 0.1566493958234787
33.92307662963867 5.758790493011475 0.15518735349178314
33.933753967285156 5.546758651733398 0.1532224714756012
33.934261322021484 5.333419322967529 0.152165487408638
33.940311431884766 5.12131929397583 0.15040412545204163
33.951934814453125 4.910339832305908 0.1479363739490509
33.97012710571289 4.700499057769775 0.14465758204460144
33.97913360595703 4.489573955535889 0.14218729734420776
33.98880386352539 4.278961658477783 0.13951368629932404
33.99519348144531 4.068160533905029 0.13704226911067963
32.48495101928711 3.6855380535125732 0.2905443608760834
32.438270568847656 3.4788990020751953 0.2933638393878937
32.32099533081055 3.2659692764282227 0.303335964679718
32.3548469543457 3.0690712928771973 0.29761213064193726
32.345882415771484 2.8681886196136475 0.29617494344711304
32.365413665771484 2.6699821949005127 0.2916695475578308
32.34206771850586 2.4684624671936035 0.2914651930332184
32.39487075805664 2.272756338119507 0.2832616865634918
32.41273498535156 2.0743327140808105 0.2785382568836212
15.757364273071289 0.9116291999816895 2.0014188289642334
15.776359558105469 0.815680742263794 1.9979273080825806
15.780858993530273 0.7188988327980042 1.9958752393722534
15.793708801269531 0.6224434971809387 1.9928921461105347
15.796026229858398 0.5255258679389954 1.9909396171569824
15.824592590332031 0.4293295741081238 1.986190676689148
15.827713012695312 0.3322800099849701 1.9840257167816162
15.818305015563965 0.23503002524375916 1.9831050634384155
32.4928092956543 0.28306111693382263 0.2385503202676773
32.68345642089844 0.08424461632966995 0.2144366353750229
32.61727523803711 -0.1159907653927803 0.2170497328042984
32.50810241699219 -0.31500858068466187 0.22406107187271118
32.40766906738281 -0.5128516554832458 0.2300538718700409
32.427337646484375 -0.7121427059173584 0.22331207990646362
32.42390823364258 -0.9110820889472961 0.21886605024337769
32.42422103881836 -1.1101789474487305 0.21389509737491608
12.894831657409668 -0.5204934477806091 2.2719943523406982
32.51655197143555 -1.5129261016845703 0.19385574758052826
13.052971839904785 -0.6873724460601807 2.251047372817993
12.849790573120117 -0.7557388544082642 2.2704122066497803
12.862603187561035 -0.8357014656066895 2.2668309211730957
12.844165802001953 -0.9136624932289124 2.266519546508789
12.86590576171875 -0.9945733547210693 2.261875629425049
13.230988502502441 -1.1045001745224 2.22048282623291
11.982827186584473 -1.074334740638733 2.3515844345092773
12.83946418762207 -1.870120644569397 2.235527753829956
12.816760063171387 -1.9471946954727173 2.2350189685821533
29.266155242919922 -5.184555530548096 0.4106106162071228
19.599605560302734 -6.955926895141602 1.3058240413665771
19.494592666625977 -7.053692817687988 1.3105652332305908
19.412429809570312 -7.159031867980957 1.3125404119491577
19.353897094726562 -7.272719383239746 1.3116276264190674
19.299339294433594 -7.387737274169922 1.3101648092269897
19.257061004638672 -7.5074143409729 1.307142734527588
19.21404266357422 -7.626852989196777 1.304125428199768
19.208053588867188 -7.761312007904053 1.2965143918991089
33.63447952270508 -17.344635009765625 -0.7061707377433777
20.62979507446289 -13.171412467956543 0.7834734916687012
20.342273712158203 -13.164397239685059 0.8092854022979736
20.060609817504883 -13.157625198364258 0.8344676494598389
19.849292755126953 -13.194089889526367 0.8499670028686523
19.60369300842285 -13.205156326293945 0.8703893423080444
19.451416015625 -13.276987075805664 0.877729058265686
19.36842918395996 -13.39547348022461 0.8752065300941467
19.35223388671875 -13.560752868652344 0.8630264401435852
19.313674926757812 -13.711387634277344 0.8538691401481628
19.304630279541016 -13.884098052978516 0.840275228023529
19.295795440673828 -14.058382987976074 0.8264375925064087
19.284740447998047 -14.232490539550781 0.8127060532569885
19.293746948242188 -14.423049926757812 0.7958042621612549
19.289257049560547 -14.605259895324707 0.7806441187858582
19.2824649810791 -14.787353515625 0.7655888795852661
19.296117782592773 -14.986970901489258 0.7472357153892517
19.285400390625 -15.169503211975098 0.7322710156440735
19.284038543701172 -15.36113166809082 0.7156496047973633
19.2941837310791 -15.56391429901123 0.6970136761665344
19.2933292388916 -15.759857177734375 0.6797738671302795
19.309152603149414 -15.971565246582031 0.6596903800964355
19.305587768554688 -16.169395446777344 0.6423014402389526
19.329090118408203 -16.392189025878906 0.6204115748405457
19.376943588256836 -16.63851547241211 0.5943626165390015
20.837936401367188 -18.571184158325195 0.30322203040122986
20.55363655090332 -18.545642852783203 0.3276400566101074
20.313697814941406 -18.556833267211914 0.3451154828071594
20.066387176513672 -18.558368682861328 0.3639458119869232
19.84375 -18.579971313476562 0.37890326976776123
19.61728858947754 -18.595447540283203 0.39461806416511536
19.452999114990234 -18.667978286743164 0.4001350700855255
15.501858711242676 14.452889442443848 1.5803954601287842
12.905936241149902 11.885644912719727 1.932422399520874
12.95335578918457 11.783491134643555 1.9341148138046265
14.377031326293945 12.918557167053223 1.7558897733688354
14.420783042907715 12.799080848693848 1.7586629390716553
14.46361255645752 12.679553985595703 1.761433720588684
14.559694290161133 12.606891632080078 1.757218360900879
13.125265121459961 11.224882125854492 1.9494149684906006
13.170853614807129 11.124900817871094 1.9507039785385132
13.221823692321777 11.029882431030273 1.951210379600525
13.268282890319824 10.93149185180664 1.9521985054016113
13.29859447479248 10.82038402557373 1.955132246017456
13.338907241821289 10.71804141998291 1.9566996097564697
13.364433288574219 10.604476928710938 1.96002197265625
13.396120071411133 10.496526718139648 1.9624652862548828
13.438007354736328 10.397112846374512 1.963537573814392
13.474433898925781 10.293952941894531 1.9651941061019897
13.512487411499023 10.192536354064941 1.9665546417236328
13.540226936340332 10.083907127380371 1.9690899848937988
13.58558464050293 9.98887825012207 1.9693653583526611
13.614178657531738 9.881978988647461 1.971603512763977
13.65249252319336 9.782639503479004 1.9725606441497803
13.690911293029785 9.683777809143066 1.9734166860580444
13.731897354125977 9.587088584899902 1.973874807357788
13.77467155456543 9.491954803466797 1.9740326404571533
13.81350326538086 9.394418716430664 1.9745817184448242
13.841744422912598 9.290107727050781 1.9763151407241821
13.880840301513672 9.193495750427246 1.9766602516174316
13.91261100769043 9.09239673614502 1.9777956008911133
13.95871639251709 9.000960350036621 1.9771417379379272
13.982396125793457 8.89541244506836 1.9790666103363037
14.021320343017578 8.799962043762207 1.9791008234024048
14.056217193603516 8.70227336883545 1.979529857635498
14.099784851074219 8.610191345214844 1.9788589477539062
14.132523536682129 8.511739730834961 1.979380488395691
14.17485237121582 8.419307708740234 1.9787006378173828
14.214860916137695 8.325669288635254 1.9782156944274902
14.251670837402344 8.230363845825195 1.9780267477035522
14.290440559387207 8.136396408081055 1.977533221244812
14.33380126953125 8.045183181762695 1.976433277130127
14.529800415039062 8.0385160446167 1.9576464891433716
15.116704940795898 8.242655754089355 1.8938602209091187
15.89504623413086 8.541139602661133 1.8082846403121948
27.469560623168945 14.544699668884277 0.4853937327861786
27.50140953063965 14.346490859985352 0.4883786737918854
27.50177764892578 14.132974624633789 0.4947991371154785
27.544946670532227 13.942458152770996 0.49617305397987366
27.469287872314453 13.693354606628418 0.5109083652496338
27.689903259277344 13.592123985290527 0.4918208420276642
27.783105850219727 13.427226066589355 0.48709386587142944
28.111589431762695 13.37409782409668 0.45563727617263794
28.421531677246094 13.308579444885254 0.4262416660785675
32.25484085083008 3.461455821990967 0.10051459819078445
15.758430480957031 0.9123631715774536 1.8983128070831299
15.774426460266113 0.8162556290626526 1.8950600624084473
19.300689697265625 0.7615841627120972 1.502364993095398
19.257041931152344 0.6415976881980896 1.5051246881484985
12.903071403503418 -0.5997138023376465 2.1847546100616455
13.032936096191406 -0.6858903765678406 2.1679930686950684
12.886438369750977 -0.7574822306632996 2.1822726726531982
12.882357597351074 -0.8365721702575684 2.180473566055298
12.860939025878906 -0.9144441485404968 2.18057918548584
12.715690612792969 -1.061070203781128 2.192258358001709
12.82950210571289 -1.1498603820800781 2.1768743991851807
12.802651405334473 -1.3854014873504639 2.172166109085083
12.798662185668945 -1.4644657373428345 2.1699204444885254
12.776426315307617 -1.5413929224014282 2.1697096824645996
12.742866516113281 -1.855640172958374 2.1619770526885986
29.241531372070312 -5.178171157836914 0.21930749714374542
19.97405242919922 -6.540131568908691 1.1544959545135498
19.462297439575195 -6.505121231079102 1.2104920148849487
19.242189407348633 -6.563141822814941 1.2303322553634644
19.14310646057129 -6.660807132720947 1.2350599765777588
19.135269165039062 -6.790050029754639 1.2282752990722656
19.110689163208008 -6.913705825805664 1.2234890460968018
19.088106155395508 -7.0383477210998535 1.2183486223220825
19.09073829650879 -7.172752857208252 1.2099019289016724
19.080379486083984 -7.302842140197754 1.2029842138290405
19.107999801635742 -7.448221206665039 1.1910933256149292
20.363319396972656 -8.22693157196045 1.0123283863067627
19.11644744873047 -7.860074043273926 1.164116621017456
19.126176834106445 -8.001699447631836 1.153960108757019
19.108386993408203 -8.132466316223145 1.1472417116165161
28.413681030273438 -16.232410430908203 -0.36063170433044434
28.400653839111328 -16.457136154174805 -0.37683507800102234
28.441556930541992 -16.715003967285156 -0.400942325592041
28.39764976501465 -16.924701690673828 -0.4132876992225647
28.22395896911621 -17.05697250366211 -0.4072682559490204
27.94816017150879 -17.12552261352539 -0.3866063356399536
27.784727096557617 -17.260997772216797 -0.38209524750709534
27.666040420532227 -17.423683166503906 -0.3841440677642822
20.501541137695312 -13.088240623474121 0.6420611143112183
20.2221622467041 -13.085410118103027 0.6683743000030518
19.939451217651367 -13.076931953430176 0.6953626275062561
19.738628387451172 -13.11932373046875 0.7104153633117676
19.53145408630371 -13.155311584472656 0.7264915108680725
19.38443374633789 -13.230098724365234 0.7336560487747192
19.29029083251953 -13.340272903442383 0.7328680753707886
19.262174606323242 -13.496488571166992 0.7220159769058228
19.233671188354492 -13.653435707092285 0.7110363841056824
19.216856002807617 -13.81981372833252 0.6980818510055542
19.235612869262695 -14.01337718963623 0.6794509887695312
19.234344482421875 -14.194137573242188 0.6636387705802917
19.229984283447266 -14.374222755432129 0.6480604410171509
19.224132537841797 -14.554786682128906 0.6324697732925415
19.227807998657227 -14.744274139404297 0.6151361465454102
19.23535919189453 -14.938612937927246 0.5969216227531433
19.22330093383789 -15.119490623474121 0.5815398097038269
19.2244873046875 -15.312528610229492 0.5637925267219543
19.237924575805664 -15.517362594604492 0.5437965393066406
19.24802589416504 -15.721680641174316 0.5240309834480286
19.23569107055664 -15.90963077545166 0.5076040625572205
19.243066787719727 -16.11585807800293 0.48768213391304016
19.228193283081055 -16.305448532104492 0.4711051881313324
19.271936416625977 -16.547170639038086 0.4445488154888153
20.860675811767578 -18.590085983276367 0.11664760112762451
20.564573287963867 -18.554180145263672 0.1445372998714447
20.316593170166016 -18.55817413330078 0.16448360681533813
20.088285446166992 -18.57734489440918 0.18122433125972748
19.863414764404297 -18.59713363647461 0.19750967621803284
19.6333065032959 -18.609407424926758 0.2148425430059433
19.43243408203125 -18.647043228149414 0.22720061242580414
12.852971076965332 11.97896671295166 1.8263765573501587
12.93769359588623 11.910690307617188 1.823151707649231
12.939638137817383 11.766863822937012 1.831398606300354
12.93143081665039 11.615487098693848 1.8408846855163574
14.394292831420898 12.771194458007812 1.6470848321914673
14.463135719299316 12.674799919128418 1.6465380191802979
13.104706764221191 11.34304428100586 1.8412047624588013
13.121651649475098 11.217854499816895 1.8466886281967163
13.16643238067627 11.117269515991211 1.848258376121521
13.220406532287598 11.024836540222168 1.8484827280044556
13.246871948242188 10.910027503967285 1.8523160219192505
13.287089347839355 10.807233810424805 1.8541858196258545
13.3164644241333 10.696257591247559 1.8573980331420898
13.353550910949707 10.59212875366211 1.8594708442687988
13.392212867736816 10.489785194396973 1.8612306118011475
13.426190376281738 10.384324073791504 1.8635064363479614
13.464910507202148 10.283064842224121 1.8650537729263306
13.498132705688477 10.178128242492676 1.8672220706939697
13.533764839172363 10.075545310974121 1.868972659111023
13.568649291992188 9.972908973693848 1.8707212209701538
13.612444877624512 9.87723159790039 1.8712164163589478
13.645874977111816 9.774442672729492 1.8729597330093384
13.685867309570312 9.676780700683594 1.8737609386444092
13.724359512329102 9.578426361083984 1.8746633529663086
13.75970458984375 9.478271484375 1.8758764266967773
13.800095558166504 9.38195514678955 1.8763538599014282
13.834043502807617 9.281620979309082 1.8775612115859985
13.867280960083008 9.181222915649414 1.8787665367126465
13.90646743774414 9.08511734008789 1.8791286945343018
13.937477111816406 8.984024047851562 1.8804340362548828
13.974481582641602 8.887163162231445 1.8808952569961548
14.030198097229004 8.802340507507324 1.8789288997650146
14.049040794372559 8.694663047790527 1.8814911842346191
14.082369804382324 8.596412658691406 1.8821533918380737
14.115874290466309 8.498591423034668 1.8827073574066162
14.168375015258789 8.412360191345215 1.8808245658874512
14.208334922790527 8.318768501281738 1.8804173469543457
14.243374824523926 8.222516059875488 1.8805357217788696
14.280362129211426 8.127619743347168 1.880332350730896
14.31932258605957 8.034040451049805 1.8798061609268188
14.458603858947754 7.996114253997803 1.8669370412826538
15.046683311462402 8.201403617858887 1.799309253692627
27.42748260498047 14.733522415161133 0.2968827188014984
27.468584060668945 14.539434432983398 0.29928523302078247
27.484539031982422 14.33298110961914 0.3045702576637268
27.500768661499023 14.127785682678223 0.3096473217010498
27.587377548217773 13.959293365478516 0.306059867143631
27.506549835205078 13.707335472106934 0.3224957585334778
27.60664939880371 13.5466890335083 0.316973477602005
27.746992111206055 13.405223846435547 0.3064959943294525
27.932424545288086 13.284320831298828 0.29051002860069275
28.274078369140625 13.234989166259766 0.25576362013816833
28.631513595581055 13.189030647277832 0.21910806000232697
44.90190124511719 8.188364028930664 -1.5410107374191284
19.285825729370117 0.7584264278411865 1.388030767440796
19.250118255615234 0.6388015747070312 1.390149712562561
12.89797306060791 -0.680776834487915 2.105541467666626
12.86956787109375 -0.7584741711616516 2.106677770614624
12.857542037963867 -0.8369448781013489 2.1058175563812256
12.86385726928711 -0.9166368246078491 2.1027183532714844
12.79908561706543 -1.3076130151748657 2.0978522300720215
12.737321853637695 -1.380320429801941 2.102583169937134
12.698826789855957 -1.4550307989120483 2.1044764518737793
12.62644100189209 -1.6039425134658813 2.1075730323791504
12.642743110656738 -1.684895396232605 2.102694272994995
12.633941650390625 -1.7626820802688599 2.1007931232452393
12.597151756286621 -1.8364180326461792 2.102238416671753
12.552083015441895 -1.9085770845413208 2.1046481132507324
20.20681381225586 -6.482236385345459 1.0054453611373901
20.170101165771484 -6.607285976409912 1.002267599105835
20.16838264465332 -6.744089126586914 0.9944111704826355
18.97199821472168 -6.473860740661621 1.1432931423187256
19.060943603515625 -6.635115146636963 1.123732566833496
19.016754150390625 -6.750903129577637 1.1215659379959106
