# .PCD v0.7 - Point Cloud Data file format
VERSION 0.7
FIELDS x y z
SIZE 4 4 4
TYPE F F F
COUNT 1 1 1
WIDTH 853
HEIGHT 1
VIEWPOINT 0 0 0 1 0 0 0
POINTS 853
DATA ascii
13.563501358032227 9.86660099029541 0.6526879072189331
13.591403007507324 9.760262489318848 0.6580012440681458
13.642606735229492 9.67103385925293 0.658055305480957
13.660964012145996 9.55896282196045 0.6651188731193542
13.697903633117676 9.460455894470215 0.6679724454879761
13.734964370727539 9.362409591674805 0.6706472039222717
14.02699089050293 9.436269760131836 0.6183250546455383
14.073563575744629 9.342989921569824 0.618852436542511
14.085761070251465 9.227372169494629 0.6265861392021179
14.128486633300781 9.132264137268066 0.6276350021362305
14.168917655944824 9.035918235778809 0.6290311217308044
13.98458480834961 8.798395156860352 0.6778255701065063
13.966828346252441 8.668340682983398 0.6910553574562073
14.020201683044434 8.583036422729492 0.6891225576400757
14.065470695495605 8.49282169342041 0.6887708902359009
14.103395462036133 8.39834213256836 0.6898269653320312
14.144087791442871 8.305709838867188 0.6901716589927673
14.185874938964844 8.213879585266113 0.6901583075523376
14.228780746459961 8.122822761535645 0.6897857785224915
14.270245552062988 8.031063079833984 0.6895848512649536
14.346402168273926 7.958674907684326 0.6821145415306091
14.711470603942871 8.043840408325195 0.6152405142784119
15.165595054626465 8.171976089477539 0.530363142490387
15.738665580749512 0.5465046167373657 0.6471198797225952
12.862009048461914 -0.6587718725204468 1.1672587394714355
12.859371185302734 -0.7377532720565796 1.1651990413665771
12.86408805847168 -0.8172263503074646 1.161630630493164
16.001596450805664 -1.609277367591858 0.5358531475067139
15.964661598205566 -1.7045706510543823 0.5388666391372681
15.98277759552002 -1.8057525157928467 0.5310850143432617
15.982698440551758 -1.9051326513290405 0.5267105102539062
16.00440788269043 -2.0073907375335693 0.5179685950279236
15.785026550292969 -2.0783519744873047 0.5561249256134033
15.842584609985352 -2.184906244277954 0.5401771068572998
15.881927490234375 -2.2897262573242188 0.5276349186897278
15.828349113464355 -2.3812460899353027 0.5331568121910095
15.943009376525879 -2.4986321926116943 0.50555819272995
15.798114776611328 -2.5753650665283203 0.5288010239601135
16.372997283935547 -2.772289991378784 0.41022059321403503
16.329164505004883 -2.868068218231201 0.4132150411605835
16.294429779052734 -2.965172290802002 0.4143083691596985
16.209922790527344 -3.0527000427246094 0.42515134811401367
16.26081085205078 -3.165742874145508 0.4090571105480194
16.092477798461914 -3.235624313354492 0.4363728165626526
16.094018936157227 -3.3388397693634033 0.42984551191329956
16.123689651489258 -3.4483542442321777 0.41756772994995117
16.26284408569336 -3.5826334953308105 0.3832343518733978
16.100399017333984 -3.6506292819976807 0.40909039974212646
16.131763458251953 -3.7620017528533936 0.39602139592170715
16.146894454956055 -5.593728065490723 0.2551380693912506
16.133115768432617 -5.700162887573242 0.24852260947227478
16.16016387939453 -5.821599006652832 0.2331610918045044
16.157779693603516 -5.933103084564209 0.22381380200386047
16.172086715698242 -6.051329135894775 0.21076568961143494
16.093891143798828 -6.135024547576904 0.2171757072210312
16.0765438079834 -6.241772174835205 0.21054844558238983
12.66988754272461 12.883416175842285 0.3681368827819824
12.699668884277344 12.756656646728516 0.37904369831085205
12.660629272460938 12.56277847290039 0.4072289764881134
12.68364143371582 12.432548522949219 0.41921576857566833
12.698468208312988 12.295661926269531 0.43298834562301636
12.861408233642578 12.30190372467041 0.40930724143981934
13.373873710632324 12.636407852172852 0.2985057532787323
12.822816848754883 11.967997550964355 0.4527290165424347
12.850737571716309 11.847782135009766 0.4622226655483246
12.900945663452148 11.748876571655273 0.465998113155365
12.953352928161621 11.652430534362793 0.4690535366535187
12.987412452697754 11.540095329284668 0.4763975441455841
13.03685188293457 11.442059516906738 0.4798031747341156
13.04692554473877 11.310335159301758 0.492516428232193
13.094736099243164 11.212193489074707 0.4959174692630768
13.114044189453125 11.090380668640137 0.5059471726417542
13.161797523498535 10.993350982666016 0.5089842677116394
13.194439888000488 10.884255409240723 0.5154266357421875
13.237680435180664 10.784491539001465 0.5191744565963745
13.290925025939941 10.69324016571045 0.5204039812088013
13.317364692687988 10.580930709838867 0.5277386903762817
13.34525203704834 10.470519065856934 0.5345341563224792
13.383952140808105 10.369199752807617 0.5386308431625366
13.410975456237793 10.259429931640625 0.5452452301979065
13.448932647705078 10.158612251281738 0.5491576790809631
13.490100860595703 10.060651779174805 0.552166223526001
13.525823593139648 9.95906925201416 0.5562534928321838
13.558422088623047 9.855688095092773 0.5608795881271362
13.599054336547852 9.758589744567871 0.5635183453559875
13.610918045043945 9.641460418701172 0.572475254535675
13.692787170410156 9.5741548538208 0.5655317306518555
13.652119636535645 9.421835899353027 0.5858789086341858
13.933597564697266 9.490772247314453 0.534233808517456
14.035228729248047 9.43477725982666 0.522712767124176
13.835127830505371 9.177790641784668 0.577828586101532
13.84469985961914 9.062602996826172 0.5862424969673157
13.890555381774902 8.971657752990723 0.5865001678466797
13.939962387084961 8.883131980895996 0.5858448147773743
14.210243225097656 8.933581352233887 0.5368919372558594
14.011180877685547 8.689200401306152 0.5901462435722351
14.0143404006958 8.572829246520996 0.5991079211235046
14.067118644714355 8.48723030090332 0.5971627831459045
14.121063232421875 8.40230941772461 0.5948461294174194
13.980298042297363 8.203067779541016 0.6342166066169739
14.210389137268066 8.221588134765625 0.5938330292701721
14.232836723327637 8.118691444396973 0.5978748798370361
14.275126457214355 8.027396202087402 0.5975388288497925
14.330589294433594 7.943514823913574 0.5942776799201965
14.706506729125977 8.034643173217773 0.5230761170387268
15.143777847290039 8.153618812561035 0.4391772150993347
15.228705406188965 8.079487800598145 0.4297674596309662
15.28541088104248 7.990042209625244 0.42619559168815613
15.743985176086426 0.5415641069412231 0.5577008724212646
12.845545768737793 -0.741296112537384 1.095526933670044
12.86001205444336 -0.8213093280792236 1.0899690389633179
15.933513641357422 -1.706469178199768 0.4547297954559326
15.985685348510742 -1.8113244771957397 0.4399736225605011
16.006973266601562 -1.9132813215255737 0.4312455356121063
15.958516120910645 -2.006890296936035 0.4363611340522766
15.733522415161133 -2.076772451400757 0.47682178020477295
15.716194152832031 -2.172687530517578 0.47553446888923645
15.9545316696167 -2.3054654598236084 0.4226436913013458
15.822336196899414 -2.385592460632324 0.4442126154899597
15.740143775939941 -2.472093105316162 0.45563575625419617
15.72717571258545 -2.569052219390869 0.4529758393764496
16.02006721496582 -3.022336721420288 0.37086451053619385
16.164413452148438 -3.1524128913879395 0.3353469669818878
16.133771896362305 -3.249358892440796 0.33537688851356506
16.11886978149414 -3.3494389057159424 0.33206692337989807
16.246192932128906 -3.4800407886505127 0.29942259192466736
16.109220504760742 -3.554276704788208 0.32091689109802246
16.11345672607422 -3.6590795516967773 0.31326863169670105
16.07309341430664 -3.7538199424743652 0.31468871235847473
16.23491096496582 -5.630125045776367 0.1395610272884369
16.20703887939453 -5.84443998336792 0.1258605271577835
16.212736129760742 -5.959267616271973 0.1145131066441536
16.130456924438477 -6.041749000549316 0.1221461296081543
16.117353439331055 -6.1499857902526855 0.11459566652774811
12.684062004089355 12.767863273620605 0.2630503475666046
12.710136413574219 12.638558387756348 0.2751295268535614
12.628524780273438 12.404727935791016 0.3152337968349457
12.653873443603516 12.278458595275879 0.3267767131328583
12.740594863891602 12.212191581726074 0.3220822811126709
13.036084175109863 12.343300819396973 0.2632792890071869
12.843389511108398 12.012725830078125 0.33057063817977905
12.896924018859863 11.915733337402344 0.3339759409427643
12.914909362792969 11.786736488342285 0.3462512791156769
12.962459564208984 11.685601234436035 0.35076022148132324
13.01366138458252 11.588245391845703 0.3541548550128937
13.039068222045898 11.468634605407715 0.363840252161026
13.070178985595703 11.354945182800293 0.37185966968536377
13.117542266845703 11.256023406982422 0.3756161630153656
13.1454439163208 11.14106273651123 0.38400378823280334
13.201066970825195 11.05014705657959 0.3853423297405243
13.227289199829102 10.935176849365234 0.39372768998146057
13.251840591430664 10.819677352905273 0.4022996425628662
13.270888328552246 10.700586318969727 0.4119877815246582
13.31357479095459 10.601253509521484 0.4157293736934662
13.335461616516113 10.486006736755371 0.4243033230304718
13.368080139160156 10.379927635192871 0.43008723855018616
13.408479690551758 10.280416488647461 0.4338220953941345
13.441112518310547 10.175461769104004 0.43922990560531616
13.480048179626465 10.075784683227539 0.4429592192173004
13.504037857055664 9.9655122756958 0.45004233717918396
13.536713600158691 9.862263679504395 0.4548870027065277
13.5853853225708 9.77103328704834 0.45580971240997314
13.642255783081055 9.685830116271973 0.4546719789505005
13.698594093322754 9.600295066833496 0.45352664589881897
13.779441833496094 9.531754493713379 0.446576863527298
14.132561683654785 9.648679733276367 0.376751571893692
13.76010513305664 9.271469116210938 0.4740045964717865
13.84330940246582 9.20485782623291 0.4660993814468384
13.885967254638672 9.111167907714844 0.4673617482185364
13.91645336151123 9.009824752807617 0.4712444841861725
13.928009033203125 8.896818161010742 0.47925275564193726
13.961974143981934 8.798667907714844 0.48200833797454834
14.372306823730469 8.934815406799316 0.39987117052078247
14.005261421203613 8.588257789611816 0.49258530139923096
14.056437492370605 8.50169849395752 0.491011381149292
14.104547500610352 8.413323402404785 0.48999452590942383
14.153796195983887 8.325671195983887 0.4885951280593872
14.195703506469727 8.233786582946777 0.48869532346725464
14.208881378173828 8.125612258911133 0.495009183883667
14.273455619812012 8.047001838684082 0.48982346057891846
14.304977416992188 7.949775695800781 0.49179568886756897
14.776827812194824 8.093995094299316 0.39711520075798035
14.870720863342285 8.027477264404297 0.3854272663593292
15.146411895751953 8.056947708129883 0.33403390645980835
15.740471839904785 0.559127926826477 0.455873042345047
12.86354923248291 -0.7273916006088257 1.0083411931991577
12.864375114440918 -0.8066354393959045 1.0054575204849243
16.017417907714844 -1.5979872941970825 0.3377927243709564
15.987405776977539 -1.6941235065460205 0.3397079408168793
15.933455467224121 -1.7873332500457764 0.3464520275592804
15.867293357849121 -1.8785651922225952 0.355621337890625
15.998906135559082 -1.9937711954116821 0.3237549066543579
15.765477180480957 -2.0629968643188477 0.36736100912094116
16.04225730895996 -2.1994309425354004 0.30504345893859863
15.790493965148926 -2.26371431350708 0.3523295223712921
15.763296127319336 -2.3586266040802 0.352874755859375
15.727784156799316 -2.4520859718322754 0.3550393283367157
15.64241886138916 -2.537202835083008 0.3675123155117035
15.635794639587402 -2.634713888168335 0.3634313941001892
16.09258270263672 -2.813373327255249 0.26206523180007935
15.977062225341797 -2.9957385063171387 0.27443045377731323
15.989675521850586 -3.099816083908081 0.2656364440917969
16.06209945678711 -3.2162773609161377 0.24406176805496216
16.079988479614258 -3.322648525238037 0.23382601141929626
16.06844139099121 -3.423240900039673 0.22967275977134705
16.053396224975586 -3.5231893062591553 0.22612835466861725
16.062557220458984 -3.628694772720337 0.2172994315624237
16.054811477661133 -3.730679512023926 0.21192169189453125
12.65922737121582 12.734012603759766 0.1571679562330246
12.666322708129883 12.58625316619873 0.17483188211917877
12.65877914428711 12.425820350646973 0.19611971080303192
12.665962219238281 12.281669616699219 0.21303719282150269
12.996736526489258 11.853226661682129 0.21506637334823608
13.029383659362793 11.737826347351074 0.22377429902553558
13.062573432922363 11.623773574829102 0.23209963738918304
13.087486267089844 11.503273963928223 0.24233639240264893
13.118827819824219 11.389339447021484 0.2506617605686188
13.150012969970703 11.276090621948242 0.25879570841789246
13.187047958374023 11.168594360351562 0.26520663499832153
13.192394256591797 11.035248756408691 0.2794688045978546
13.237466812133789 10.93601131439209 0.28338882327079773
13.266610145568848 10.824227333068848 0.2911394238471985
13.30482006072998 10.720498085021973 0.2963963747024536
13.332275390625 10.608763694763184 0.304145872592926
13.365808486938477 10.50255012512207 0.3101676106452942
13.404745101928711 10.401134490966797 0.314651221036911
13.445280075073242 10.301426887512207 0.31855541467666626
13.481968879699707 10.199241638183594 0.32322537899017334
13.516337394714355 10.095818519592285 0.3282777667045593
13.54915714263916 9.991772651672363 0.3335210382938385
13.583593368530273 9.889435768127441 0.33818483352661133
13.622066497802734 9.790484428405762 0.34169092774391174
13.659037590026855 9.690865516662598 0.3453861176967621
13.70655345916748 9.599038124084473 0.34637826681137085
13.742964744567871 9.499737739562988 0.3498740792274475
13.790897369384766 9.285534858703613 0.362266480922699
13.822663307189941 9.184497833251953 0.36633673310279846
13.85452938079834 9.083955764770508 0.37021180987358093
13.9005126953125 8.992959976196289 0.3706020712852478
13.935977935791016 8.895402908325195 0.37330976128578186
13.943375587463379 8.780496597290039 0.38240718841552734
14.053223609924316 8.730025291442871 0.3674755394458771
14.037503242492676 8.601648330688477 0.3816097676753998
14.081191062927246 8.510326385498047 0.3817839026451111
14.117546081542969 8.41477108001709 0.3835061192512512
14.159180641174316 8.3225679397583 0.3838649094104767
14.209548950195312 8.235578536987305 0.38208118081092834
14.235536575317383 8.134654998779297 0.38573434948921204
14.334287643432617 7.959923267364502 0.3819422125816345
14.514069557189941 7.943920612335205 0.350332647562027
15.729776382446289 0.5538777709007263 0.35785973072052
12.86174488067627 -0.731421172618866 0.9265941381454468
12.868388175964355 -0.8110233545303345 0.922439455986023
16.16016960144043 -1.6172469854354858 0.20477057993412018
16.016216278076172 -1.7021610736846924 0.23098644614219666
15.828089714050293 -1.7804534435272217 0.26655125617980957
15.74260139465332 -1.8687270879745483 0.28021153807640076
15.890583038330078 -1.9852428436279297 0.2439524531364441
15.814621925354004 -2.074389934539795 0.25534164905548096
16.04926109313965 -2.205422878265381 0.2001490741968155
15.936223983764648 -2.2896199226379395 0.21921399235725403
15.85468864440918 -2.377302646636963 0.23145067691802979
15.780416488647461 -2.4652822017669678 0.24204295873641968
15.96054744720459 -2.593858242034912 0.1977449208498001
16.032623291015625 -2.70666766166687 0.17649666965007782
16.058626174926758 -2.8125317096710205 0.16501346230506897
16.173425674438477 -2.9350578784942627 0.13414277136325836
16.030668258666992 -3.0109033584594727 0.15890587866306305
15.982645034790039 -3.1035659313201904 0.16304990649223328
15.986830711364746 -3.206331253051758 0.15572220087051392
15.986522674560547 -3.308474540710449 0.14922580122947693
15.973125457763672 -3.4080848693847656 0.1454431712627411
13.767012596130371 9.641538619995117 0.2312755584716797
13.80933666229248 9.545784950256348 0.23352575302124023
13.802600860595703 9.29358959197998 0.25988590717315674
13.828718185424805 9.188700675964355 0.26551660895347595
13.85079288482666 9.081690788269043 0.2719433307647705
13.885241508483887 8.983269691467285 0.27518418431282043
13.949566841125488 8.904277801513672 0.27105000615119934
14.06464958190918 8.618505477905273 0.2765471637248993
14.128562927246094 8.539188385009766 0.27198249101638794
14.171830177307129 8.447366714477539 0.2722020745277405
14.217883110046387 8.357318878173828 0.27161645889282227
14.25997257232666 8.265055656433105 0.2718251645565033
14.304019927978516 8.174047470092773 0.2714284360408783
16.19582176208496 0.7698010206222534 0.16595806181430817
15.730192184448242 0.5543929934501648 0.26315590739250183
12.86229419708252 -0.6520541906356812 0.8516718149185181
12.859646797180176 -0.7310332655906677 0.8495658040046692
12.855537414550781 -0.8099451065063477 0.8476710319519043
15.834175109863281 -1.977668285369873 0.15994872152805328
15.748637199401855 -2.0652148723602295 0.17384138703346252
15.82814884185791 -2.1745150089263916 0.15131308138370514
15.79665470123291 -2.2690439224243164 0.15306957066059113
15.838027954101562 -2.3742730617523193 0.13861645758152008
15.897038459777832 -2.4829602241516113 0.12009380012750626
15.771036148071289 -2.661985158920288 0.13664159178733826
13.753867149353027 9.253873825073242 0.17906872928142548
13.845808982849121 9.193184852600098 0.16835790872573853
13.877755165100098 9.09254264831543 0.1725478321313858
13.907342910766602 8.990789413452148 0.17714449763298035
13.947761535644531 8.896384239196777 0.17887595295906067
13.96849250793457 8.789827346801758 0.1853102445602417
14.074834823608398 8.266753196716309 0.2140064388513565
15.735279083251953 0.5494678020477295 0.17285045981407166
12.847040176391602 -0.7346375584602356 0.7792490124702454
12.872126579284668 -0.8153180480003357 0.7708443999290466
15.670873641967773 -1.8648450374603271 0.11080356687307358
15.677083969116211 -1.9632152318954468 0.1045999825000763
15.642033576965332 -2.0563971996307373 0.10756014287471771
12.851256370544434 -0.720032811164856 0.698662519454956
12.858868598937988 -0.7996177077293396 0.6940864324569702
12.840546607971191 -0.7257854342460632 0.6182112693786621
12.84518051147461 -0.8051255345344543 0.6142444610595703
12.835233688354492 -0.7229070663452148 0.5390363335609436
12.84471321105957 -0.8025132417678833 0.5338407754898071
12.837132453918457 -0.7251200079917908 0.46724680066108704
12.842693328857422 -0.8044953346252441 0.46293237805366516
12.835801124572754 -0.7147353887557983 0.38937896490097046
12.847208023071289 -0.7944536805152893 0.3835332691669464
12.827692985534668 -0.7160751223564148 0.30545327067375183
12.841951370239258 -0.7959221005439758 0.2987518012523651
12.806568145751953 -0.7123572826385498 0.2321573793888092
12.85554027557373 -0.7942092418670654 0.21610648930072784
12.820712089538574 -0.7175213098526001 0.15862859785556793
12.882089614868164 -0.8002455830574036 0.13890108466148376
12.664908409118652 12.744799613952637 1.2904778718948364
12.681499481201172 12.668506622314453 1.2947419881820679
12.786581993103027 12.773792266845703 0.37119781970977783
12.700799942016602 12.599720001220703 1.2981343269348145
12.79236888885498 12.690942764282227 0.37969523668289185
12.723310470581055 12.534436225891113 1.3009154796600342
12.701213836669922 12.513132095336914 0.4116763174533844
12.741973876953125 12.465676307678223 1.304307460784912
12.73400592803955 12.45841121673584 0.41335129737854004
12.754599571228027 12.395709037780762 1.3083555698394775
12.77618408203125 12.330456733703613 1.3111364841461182
12.802846908569336 12.270355224609375 1.3129979372024536
31.00786018371582 29.517972946166992 0.33650535345077515
12.827445983886719 12.208505630493164 1.3151650428771973
31.048843383789062 29.35136604309082 0.34060347080230713
12.842755317687988 12.138114929199219 1.318862795829773
31.039579391479492 29.12822723388672 0.35012826323509216
12.868873596191406 12.07400894165039 1.320984125137329
12.897235870361328 12.101526260375977 0.43020734190940857
32.35989761352539 30.154268264770508 2.3989977836608887
31.04595375061035 28.931358337402344 0.3575546145439148
12.8889799118042 12.00874137878418 1.32376229763031
12.931947708129883 12.049742698669434 0.43101567029953003
32.40431213378906 29.98514747619629 2.3987860679626465
31.10805892944336 28.787290573120117 0.3592589497566223
12.908783912658691 11.943479537963867 1.326540231704712
12.95018196105957 11.982809066772461 0.4356738328933716
32.47370529174805 29.83975601196289 2.397700786590576
31.219106674194336 28.688690185546875 0.3559686243534088
12.933773040771484 11.883261680603027 1.3283970355987549
12.96448040008545 11.912559509277344 0.4411886930465698
32.51514434814453 29.679702758789062 2.397475004196167
31.28620147705078 28.55982780456543 0.3566634953022003
12.950950622558594 11.820257186889648 1.3312195539474487
12.989127159118652 11.856244087219238 0.44375091791152954
32.55177307128906 29.50563621520996 2.3974506855010986
13.053552627563477 11.833988189697266 2.191769599914551
12.9754056930542 11.760004043579102 1.3330752849578857
13.010115623474121 11.79266357421875 0.44755223393440247
32.516990661621094 29.26813507080078 2.399812698364258
12.988534927368164 11.689766883850098 1.3367737531661987
13.030817985534668 11.729077339172363 0.45135316252708435
32.484676361083984 29.034570693969727 2.4020607471466064
13.066845893859863 11.681132316589355 2.196793556213379
13.012433052062988 11.629498481750488 1.3386282920837402
13.054909706115723 11.668774604797363 0.4542964696884155
32.47298049926758 28.810853958129883 2.4036386013031006
13.085210800170898 11.611669540405273 2.1982414722442627
13.038081169128418 11.566934585571289 1.3404362201690674
13.075227737426758 11.601262092590332 0.4584791660308838
32.51885223388672 28.649450302124023 2.403188943862915
13.110584259033203 11.552754402160645 2.1988072395324707
13.061445236206055 11.506612777709961 1.3422892093658447
13.096920013427734 11.539292335510254 0.4618496894836426
32.59033203125 28.5111141204834 2.4018523693084717
13.12820053100586 11.487236022949219 2.2001147270202637
13.075209617614746 11.438103675842285 1.3456802368164062
13.114633560180664 11.47407341003418 0.4660777449607849
32.59403991699219 28.324230194091797 2.402721405029297
13.15106201171875 11.430572509765625 2.2007250785827637
13.101665496826172 11.384940147399902 1.3466540575027466
13.13936710357666 11.419235229492188 0.4682057797908783
32.5836296081543 28.126203536987305 2.4040398597717285
13.160478591918945 11.362480163574219 2.202636957168579
13.118518829345703 11.323617935180664 1.3491668701171875
13.154561042785645 11.35631275177002 0.47247982025146484
32.613189697265625 27.95377540588379 2.404040575027466
13.188591957092285 11.306754112243652 2.2028274536132812
13.140835762023926 11.263249397277832 1.3510175943374634
13.175182342529297 11.294323921203613 0.4758482873439789
32.609580993652344 27.753948211669922 2.4051284790039062
13.206985473632812 11.242890357971191 2.2039482593536377
13.166670799255371 11.206077575683594 1.3522504568099976
13.199281692504883 11.235520362854004 0.47835734486579895
32.62406921386719 27.57061767578125 2.405582904815674
13.234610557556152 11.187081336975098 2.204136610031128
13.1865816116333 11.144057273864746 1.3544076681137085
13.217489242553711 11.171916961669922 0.4821546673774719
32.62236404418945 27.374677658081055 2.406554937362671
13.250554084777832 11.121603012084961 2.2054429054260254
13.200518608093262 11.077252388000488 1.357489824295044
13.237298965454102 11.109905242919922 0.48552176356315613
32.64272689819336 27.19827651977539 2.4067606925964355
13.271944046020508 11.060935020446777 2.2061893939971924
13.219870567321777 11.01524829864502 1.3596465587615967
13.260624885559082 11.051042556762695 0.4880286753177643
32.65925979614258 27.009998321533203 2.407113552093506
13.294989585876465 10.99793529510498 2.206888198852539
13.250411033630371 10.958836555480957 1.3602120876312256
13.279913902282715 10.985126495361328 0.49177786707878113
32.66824722290039 26.826082229614258 2.4076485633850098
13.31969928741455 10.940401077270508 2.207259178161621
13.269237518310547 10.896796226501465 1.3623671531677246
13.306519508361816 10.929352760314941 0.4934227466583252
32.67634963989258 26.642431259155273 2.408188581466675
13.3325777053833 10.87337589263916 2.208751916885376
13.289710998535156 10.836322784423828 1.364212989807129
13.325263977050781 10.867300033569336 0.4967873692512512
32.687461853027344 26.46219825744629 2.408604145050049
13.3606538772583 10.818944931030273 2.2087466716766357
13.309929847717285 10.77584171295166 1.366058349609375
13.343738555908203 10.80525016784668 0.5001521706581116
32.68601989746094 26.272817611694336 2.4094126224517822
13.378796577453613 10.75663948059082 2.209677219390869
13.335688591003418 10.720012664794922 1.3669745922088623
13.36769962310791 10.747830390930176 0.5022242665290833
32.683658599853516 26.083768844604492 2.4102275371551514
13.402511596679688 10.699004173278809 2.2100446224212646
13.355400085449219 10.659491539001465 1.3688182830810547
13.393349647521973 10.691910743713379 0.5038648247718811
32.70191955566406 25.912126541137695 2.4103310108184814
13.422080993652344 10.638237953186035 2.2107865810394287
13.378742218017578 10.602045059204102 1.370042085647583
13.411052703857422 10.629823684692383 0.5072274208068848
32.715457916259766 25.737590789794922 2.4105682373046875
13.445306777954102 10.580547332763672 2.2111523151397705
13.390151023864746 10.53536319732666 1.3731238842010498
13.440096855163574 10.57688045501709 0.5080036520957947
32.728694915771484 25.554487228393555 2.4108240604400635
13.46423053741455 10.515871047973633 2.212033271789551
13.420670509338379 10.48012924194336 1.3733692169189453
13.451351165771484 10.506354331970215 0.5130423903465271
32.74647903442383 25.385000228881836 2.410871982574463
13.4849853515625 10.456605911254883 2.21258544921875
13.433469772338867 10.414999961853027 1.37614107131958
13.479921340942383 10.453327178955078 0.5138163566589355
32.76348114013672 25.2156982421875 2.410922050476074
13.501537322998047 10.394283294677734 2.2135133743286133
13.457776069641113 10.358989715576172 1.3770517110824585
13.498529434204102 10.392716407775879 0.5167454481124878
32.751502990722656 25.034095764160156 2.4118833541870117
13.529884338378906 10.344927787780762 2.2131705284118652
13.47218132019043 10.299261093139648 1.3792502880096436
13.5053071975708 10.326982498168945 0.5218803286552429
32.7310791015625 24.838077545166016 2.4131312370300293
13.547928810119629 10.284089088439941 2.2139086723327637
13.49799633026123 10.244694709777832 1.3798487186431885
13.529268264770508 10.270869255065918 0.5235146284103394
32.76557159423828 24.684606552124023 2.4125328063964844
13.563726425170898 10.221752166748047 2.2148354053497314
13.513689041137695 10.182610511779785 1.3819990158081055
13.560869216918945 10.220643043518066 0.5234197378158569
32.78137969970703 24.517728805541992 2.4125328063964844
13.583244323730469 10.16241455078125 2.2153844833374023
13.539046287536621 10.127968788146973 1.3825949430465698
13.580452919006348 10.161468505859375 0.5259149670600891
32.736236572265625 24.306350708007812 2.414530038833618
13.604513168334961 10.104552268981934 2.2157440185546875
13.556220054626465 10.067359924316406 1.3844335079193115
13.613626480102539 10.112558364868164 0.5253844261169434
32.587406158447266 24.01996612548828 2.4199376106262207
13.629559516906738 10.049623489379883 2.215724468231201
13.577130317687988 10.009696960449219 1.3856494426727295
13.646625518798828 10.0635404586792 0.5248510837554932
32.44102096557617 23.737869262695312 2.4252378940582275
13.654387474060059 9.99464225769043 2.2157034873962402
13.601805686950684 9.954939842224121 1.3862425088882446
13.633748054504395 9.980963706970215 0.5342621803283691
32.438655853271484 23.562835693359375 2.425745725631714
13.66689682006836 9.930818557739258 2.2168173789978027
13.62225341796875 9.897216796875 1.3874566555023193
13.660304069519043 9.927550315856934 0.5350247621536255
32.48819351196289 23.417510986328125 2.4245340824127197
13.692977905273438 9.873391151428223 2.2167460918426514
13.648195266723633 9.839991569519043 1.3879985809326172
13.670387268066406 9.858719825744629 0.5396325588226318
32.51272201538086 23.263277053833008 2.4241087436676025
13.71711254119873 9.8182954788208 2.216722011566162
13.662116050720215 9.777876853942871 1.3901457786560059
13.67444896697998 9.789469718933105 0.5451551079750061
32.52842712402344 23.103374481201172 2.423954486846924
13.730870246887207 9.755936622619629 2.2176454067230225
13.679815292358398 9.718658447265625 1.3916696310043335
13.686223030090332 9.726015090942383 0.5489469766616821
32.551658630371094 22.95796012878418 2.423513412475586
13.756929397583008 9.7060546875 2.2172882556915283
13.699642181396484 9.664681434631348 1.3926177024841309
13.675930976867676 9.650792121887207 0.5571197271347046
32.592472076416016 22.808443069458008 2.422503709793091
13.77391529083252 9.642720222473145 2.2179720401763916
13.72056770324707 9.604471206665039 1.3937797546386719
13.723069190979004 9.609102249145508 0.5534987449645996
32.614315032958984 22.654647827148438 2.422084331512451
13.788958549499512 9.58180046081543 2.2187047004699707
13.74569034576416 9.550880432128906 1.3940529823303223
13.742141723632812 9.551332473754883 0.5555570721626282
32.55112075805664 22.44282341003418 2.4244513511657715
13.807847023010254 9.523719787597656 2.2190563678741455
13.764480590820312 9.49300479888916 1.3952617645263672
13.758950233459473 9.492144584655762 0.55804842710495
32.4932861328125 22.24444007873535 2.4266085624694824
13.83513355255127 9.475078582763672 2.2185041904449463
13.787535667419434 9.441723823547363 1.395581603050232
32.50035095214844 22.08316421508789 2.426614284515381
13.847397804260254 9.412734031677246 2.219426155090332
13.809981346130371 9.386589050292969 1.396162986755371
14.18115234375 9.64193058013916 0.47977155447006226
32.550193786621094 21.95145034790039 2.4251890182495117
13.871794700622559 9.358782768249512 2.219203472137451
13.832209587097168 9.331412315368652 1.3967441320419312
14.192034721374512 9.577249526977539 0.48353636264801025
32.605751037597656 21.823823928833008 2.423555850982666
13.893912315368652 9.303388595581055 2.219170093536377
13.852161407470703 9.27481460571289 1.3976364135742188
14.057392120361328 9.415345191955566 0.5181282162666321
32.54631805419922 21.620033264160156 2.4256961345672607
13.915811538696289 9.24795150756836 2.2191357612609863
13.869820594787598 9.216819763183594 1.398841142654419
13.92590045928955 9.257224082946777 0.5518733859062195
32.50880813598633 21.432050704956055 2.4270920753479004
13.931251525878906 9.188360214233398 2.2196741104125977
13.895526885986328 9.164274215698242 1.3987923860549927
13.927068710327148 9.188247680664062 0.5573980808258057
32.44062805175781 21.217042922973633 2.4294865131378174
13.95846176147461 9.133161544799805 2.219205379486084
13.914314270019531 9.103799819946289 1.3999457359313965
13.952167510986328 9.131776809692383 0.5580940246582031
32.44102478027344 21.05609130859375 2.4295921325683594
13.98387622833252 9.080327987670898 2.2187845706939697
13.933356285095215 9.047093391418457 1.4008350372314453
13.967206954956055 9.07231616973877 0.5605770349502563
32.4538459777832 20.911880493164062 2.4292640686035156
13.99704647064209 9.023120880126953 2.2193706035614014
13.950611114501953 8.992796897888184 1.4017729759216309
13.99699592590332 9.02597427368164 0.5596305727958679
32.522335052490234 20.79580307006836 2.42708683013916
14.017848014831543 8.967508316040039 2.2193310260772705
13.975476264953613 8.940057754516602 1.4017188549041748
14.011594772338867 8.966471672058105 0.5621121525764465
32.58829116821289 20.678171157836914 2.424973487854004
14.038432121276855 8.91186237335205 2.2192904949188232
13.998053550720215 8.88592529296875 1.4019774198532104
14.032183647155762 8.910935401916504 0.5632884502410889
32.61998748779297 20.539020538330078 2.42397141456604
14.058799743652344 8.856179237365723 2.2192487716674805
14.01832103729248 8.830421447753906 1.4025487899780273
14.137953758239746 8.90916633605957 0.5466134548187256
32.6171989440918 20.378719329833984 2.424086570739746
14.078953742980957 8.800464630126953 2.2192060947418213
14.032066345214844 8.770941734313965 1.4040614366531372
14.108199119567871 8.821942329406738 0.5582336187362671
32.5478515625 20.177873611450195 2.4263768196105957
14.109476089477539 8.751283645629883 2.218200206756592
14.060317993164062 8.720621109008789 1.4033732414245605
14.402259826660156 8.936178207397461 0.502332329750061
32.48310089111328 19.973400115966797 2.4284958839416504
14.13497257232666 8.695611953735352 2.217719078063965
14.077220916748047 8.659955978393555 1.4045205116271973
14.386444091796875 8.853687286376953 0.5112756490707397
32.50771713256836 19.832592010498047 2.4276504516601562
14.154492378234863 8.63974380493164 2.21767258644104
14.10507583618164 8.60949420928955 1.403828740119934
32.5411491394043 19.70530128479004 2.4264988899230957
14.168037414550781 8.583736419677734 2.2180614471435547
14.11854076385498 8.55369758605957 1.405074954032898
32.528228759765625 19.542722702026367 2.4268553256988525
14.19566822052002 8.53296184539795 2.217241048812866
14.150269508361816 8.505663871765137 1.403749942779541
14.172353744506836 8.522507667541504 0.5710554122924805
32.43299102783203 19.331851959228516 2.4299068450927734
14.220978736877441 8.480823516845703 2.216611623764038
14.1626615524292 8.446078300476074 1.4052590131759644
14.176416397094727 8.457879066467285 0.5752783417701721
32.39692306518555 19.157501220703125 2.430990219116211
14.239659309387207 8.424802780151367 2.2165606021881104
14.194023132324219 8.397873878479004 1.4039301872253418
14.188676834106445 8.398338317871094 0.5777564644813538
32.409610748291016 19.012718200683594 2.430447816848755
14.262422561645508 8.3712797164917 2.2161216735839844
14.210246086120605 8.340765953063965 1.4048069715499878
14.226165771484375 8.35377025604248 0.5749936699867249
32.426002502441406 18.87059783935547 2.429764986038208
14.280675888061523 8.315192222595215 2.216068983078003
14.234822273254395 8.288640022277832 1.4044203758239746
14.21884822845459 8.283025741577148 0.5814015865325928
32.50022506713867 18.7623233795166 2.427156925201416
14.313822746276855 8.267802238464355 2.21465802192688
14.25061321258545 8.231481552124023 1.4052953720092773
14.243183135986328 8.230904579162598 0.5812566876411438
32.60120391845703 18.661731719970703 2.4236373901367188
14.3352632522583 8.210349082946777 2.2143571376800537
14.280508995056152 8.179217338562012 1.404223084449768
14.264469146728516 8.173778533935547 0.5819339156150818
32.680198669433594 18.56342315673828 2.420844554901123
14.35364055633545 8.157857894897461 2.2141575813293457
14.28798770904541 8.120809555053711 1.40609610080719
14.304117202758789 8.133752822875977 0.5783388018608093
32.70985412597656 18.429637908935547 2.4196505546569824
14.377578735351562 8.10527515411377 2.2135169506073
14.318238258361816 8.072125434875488 1.4047553539276123
14.306463241577148 8.069292068481445 0.582563042640686
32.77606964111328 18.316598892211914 2.4172332286834717
14.429604530334473 8.06843376159668 2.2103469371795654
14.337501525878906 8.017276763916016 1.404994249343872
14.3514986038208 8.028940200805664 0.5780358910560608
32.77752685546875 18.175121307373047 2.416947841644287
14.394208908081055 7.9865498542785645 1.399585247039795
14.371370315551758 7.977746486663818 0.5783712863922119
32.88446044921875 18.08470916748047 2.413149356842041
14.431242942810059 7.94536018371582 0.5707709193229675
32.93851089477539 17.965057373046875 2.411078453063965
14.944812774658203 8.155834197998047 2.168694019317627
32.994319915771484 17.846435546875 2.4089314937591553
14.919286727905273 8.075019836425781 1.3321202993392944
33.025482177734375 17.714651107788086 2.407580852508545
33.05918884277344 17.577098846435547 2.406111478805542
33.10034942626953 17.45113754272461 2.404393434524536
33.081233978271484 17.293848037719727 2.4046525955200195
27.80257225036621 14.541715621948242 1.0363593101501465
33.09914016723633 17.156448364257812 2.403669595718384
27.786582946777344 14.410191535949707 1.0402363538742065
33.105377197265625 17.013427734375 2.403054714202881
27.843162536621094 14.316563606262207 1.0376499891281128
33.117706298828125 16.87397575378418 2.4022223949432373
27.823928833007812 14.184234619140625 1.0417284965515137
33.122772216796875 16.731264114379883 2.4016129970550537
33.12724304199219 16.588726043701172 2.4010071754455566
33.14518356323242 16.44612693786621 2.3999130725860596
33.14622497558594 16.302791595458984 2.3993868827819824
33.15116882324219 16.161836624145508 2.3987138271331787
33.15552520751953 16.02104949951172 2.398043632507324
33.15428924560547 15.885129928588867 2.397571325302124
32.68247604370117 15.66787338256836 0.6306379437446594
33.15977096557617 15.745757102966309 2.39683198928833
32.567909240722656 15.473531723022461 0.6430926322937012
33.173736572265625 15.610795021057129 2.3957948684692383
32.655311584472656 15.375714302062988 0.637779951095581
33.17356872558594 15.469593048095703 2.3952107429504395
32.95021057128906 15.374417304992676 0.6142598390579224
33.188697814941406 15.335912704467773 2.394101142883301
33.10523986816406 15.306405067443848 0.6029739379882812
33.19194030761719 15.197117805480957 2.39337158203125
33.14236831665039 15.183526039123535 0.6019719839096069
33.19496536254883 15.051663398742676 2.3926007747650146
33.19528579711914 15.060965538024902 0.5996578335762024
33.20161437988281 14.915254592895508 2.3917243480682373
33.2042350769043 14.925630569458008 0.6010316610336304
33.20542907714844 14.77796459197998 2.3909265995025635
33.198978424072266 14.784332275390625 0.6035995483398438
33.2064094543457 14.639824867248535 2.3902080059051514
33.15894317626953 14.628167152404785 0.6091529726982117
33.2205696105957 14.507856369018555 2.3890328407287598
33.19129943847656 14.504388809204102 0.6083483695983887
33.224830627441406 14.378788948059082 2.388209104537964
33.19326400756836 14.37447738647461 0.6100513935089111
33.226478576660156 14.242084503173828 2.387420654296875
33.17658233642578 14.23007869720459 0.6134307980537415
33.225284576416016 14.104567527770996 2.3867130279541016
33.20058822631836 14.103507041931152 0.6132258176803589
33.2304573059082 13.97014045715332 2.3857758045196533
33.208038330078125 13.97017765045166 0.614416778087616
33.22354507446289 13.831045150756836 2.385227680206299
33.22645950317383 13.841758728027344 0.6146112084388733
33.255348205566406 13.708354949951172 2.383366346359253
33.232879638671875 13.708630561828613 0.6158052086830139
33.268192291259766 13.578058242797852 2.382124423980713
33.26644515991211 13.586929321289062 0.614600658416748
33.266658782958984 13.435482025146484 2.381308078765869
33.274192810058594 13.448147773742676 0.6156759858131409
33.24596405029297 13.292412757873535 2.381161689758301
33.26980209350586 13.311594009399414 0.61767578125
33.203765869140625 13.141373634338379 2.3817238807678223
33.21621322631836 13.155967712402344 0.6238927245140076
33.167972564697266 13.000226020812988 2.3821029663085938
33.1527214050293 13.003931045532227 0.630842387676239
33.17344284057617 12.869040489196777 2.3810343742370605
33.146568298339844 12.868330001831055 0.6328595876693726
33.236724853515625 12.760360717773438 2.377999782562256
33.20500946044922 12.757948875427246 0.6292505860328674
33.36324691772461 12.685396194458008 0.61697918176651
33.523712158203125 12.61276626586914 0.6044867634773254
33.74529266357422 12.5519437789917 2.3580057621002197
33.74011993408203 12.560033798217773 0.5871350765228271
33.75596237182617 12.42202377319336 2.356667995452881
33.78352737426758 12.442222595214844 0.5846861600875854
33.759098052978516 12.289621353149414 2.355569839477539
33.78203582763672 12.30805778503418 0.5860719084739685
33.77324676513672 12.154842376708984 2.3540327548980713
33.78447341918945 12.169002532958984 0.5871347188949585
33.78005599975586 12.02434253692627 2.352778911590576
33.80068588256836 12.041840553283691 0.5869066715240479
33.779296875 11.89145565032959 2.3517658710479736
33.7952766418457 11.90726375579834 0.5885009765625
33.79926300048828 11.766112327575684 2.350033760070801
33.79875564575195 11.776148796081543 0.5892887115478516
33.79276657104492 11.631826400756836 2.3491854667663574
33.81821823120117 11.650835037231445 0.5886576175689697
33.80031204223633 11.509264945983887 2.347900152206421
33.799842834472656 11.519375801086426 0.5911943316459656
33.80228805541992 11.378490447998047 2.3467342853546143
33.797115325927734 11.387044906616211 0.5923930406570435
33.8132438659668 11.250996589660645 2.3452467918395996
33.815147399902344 11.261957168579102 0.5917646884918213
33.83321762084961 11.126686096191406 2.343435764312744
33.81614685058594 11.131429672241211 0.5925611853599548
33.82422637939453 10.993107795715332 2.342599391937256
33.82139205932617 11.002571105957031 0.5929524898529053
33.8385009765625 10.867364883422852 2.340951919555664
33.84038543701172 10.878388404846191 0.5921217799186707
33.84992980957031 10.740901947021484 2.339386463165283
33.8470458984375 10.750433921813965 0.5923112630844116
33.8555793762207 10.606342315673828 2.337944269180298
33.855072021484375 10.616658210754395 0.5923776626586914
33.85887908935547 10.477792739868164 2.336625576019287
33.86789321899414 10.49108600616455 0.591955840587616
33.87065505981445 10.345629692077637 2.334939479827881
33.86060333251953 10.353086471557617 0.5932524800300598
33.85862350463867 10.212940216064453 2.334117889404297
33.87245559692383 10.227668762207031 0.5928322076797485
33.83473205566406 10.083511352539062 2.3337535858154297
33.86537170410156 10.103219032287598 0.5939699411392212
33.874412536621094 9.966787338256836 2.3311221599578857
33.861961364746094 9.973724365234375 0.594782292842865
33.878387451171875 9.84606647491455 2.3297698497772217
33.85634994506836 9.8502836227417 0.5957207679748535
33.87882614135742 9.71813678741455 2.328460931777954
33.880714416503906 9.72933292388916 0.5940731763839722
33.87397766113281 9.588967323303223 2.3273203372955322
33.89266586303711 9.604936599731445 0.593452513217926
33.88307189941406 9.463977813720703 2.3256826400756836
33.889766693115234 9.47654914855957 0.5940659642219543
33.90616989135742 9.343024253845215 2.3235437870025635
33.90319061279297 9.352935791015625 0.5932403206825256
33.93364715576172 9.223334312438965 2.3212363719940186
33.908958435058594 9.227378845214844 0.5930323004722595
33.89229965209961 9.078897476196289 2.321235418319702
33.9110221862793 9.09468936920166 0.5931151509284973
33.934200286865234 8.96967887878418 2.3184640407562256
33.9118766784668 8.974578857421875 0.5932397246360779
33.933773040771484 8.843015670776367 2.317080020904541
33.90419006347656 8.846129417419434 0.5940691232681274
33.930450439453125 8.715842247009277 2.3157830238342285
33.90568161010742 8.720322608947754 0.5940736532211304
33.92268753051758 8.592366218566895 0.5927138924598694
33.92081832885742 8.466102600097656 0.5929278135299683
33.94025802612305 8.345308303833008 0.5912766456604004
33.940574645996094 8.209016799926758 2.309553623199463
33.93989181518555 8.21978759765625 0.5912854671478271
33.943206787109375 8.090659141540527 2.308048963546753
33.957054138183594 8.104918479919434 0.5897573828697205
33.95897674560547 7.969304084777832 2.305992841720581
33.96550369262695 7.9818196296691895 0.588936448097229
33.9986572265625 7.853562355041504 2.303079128265381
33.95895004272461 7.855391979217529 0.5893639326095581
33.955108642578125 7.718812465667725 2.303079605102539
33.973785400390625 7.7340826988220215 0.5879189372062683
33.97087478637695 7.591619491577148 2.3009002208709717
33.960330963134766 7.600305080413818 0.5888505578041077
33.97510528564453 7.468199729919434 2.2991883754730225
33.97182846069336 7.478544235229492 0.5876156687736511
33.9886474609375 7.34695291519165 2.2971317768096924
33.96828079223633 7.353632926940918 0.5876325964927673
33.99443435668945 7.22414493560791 2.2953341007232666
33.9788932800293 7.231945037841797 0.5863982439041138
33.99243927001953 7.099853038787842 2.2937967777252197
33.98175811767578 7.1087446212768555 0.58579021692276
34.00102233886719 6.984107494354248 2.2919516563415527
33.98540496826172 6.992042064666748 0.585098922252655
34.007938385009766 6.861953258514404 2.290069580078125
33.997169494628906 6.870943069458008 0.5836548805236816
33.999725341796875 6.736924171447754 2.2887096405029297
34.023155212402344 6.752754211425781 0.5809523463249207
34.00821304321289 6.615372180938721 2.286741018295288
34.00227355957031 6.6254167556762695 0.5822344422340393
34.00399398803711 6.491502285003662 2.285210371017456
34.01518249511719 6.504857540130615 0.5805801153182983
34.01652908325195 6.370960712432861 2.283066987991333
34.000728607177734 6.379234790802002 0.5812374949455261
34.01633834838867 6.248154640197754 2.281362295150757
34.01521301269531 6.259200572967529 0.5793732404708862
34.038902282714844 6.123471260070801 2.2787396907806396
34.0499382019043 6.136737823486328 0.575698971748352
34.03044128417969 5.99944543838501 2.277301073074341
34.016944885253906 6.008355140686035 0.5778358578681946
34.05107498168945 5.8806538581848145 2.2748022079467773
34.04240036010742 5.890467643737793 0.5749154090881348
34.04911804199219 5.758041858673096 2.2731001377105713
34.042877197265625 5.768315315246582 0.5741036534309387
34.05560302734375 5.643089294433594 2.2711682319641113
34.04930877685547 5.6533918380737305 0.5727843642234802
34.05526351928711 5.52101469039917 2.2693774700164795
34.048946380615234 5.531351089477539 0.5719735026359558
34.059425354003906 5.3997931480407715 2.2674098014831543
34.048133850097656 5.409379959106445 0.5711649060249329
34.06561279296875 5.278991222381592 2.2653536796569824
34.049339294433594 5.287862300872803 0.570144772529602
34.06890869140625 5.157837390899658 2.2633867263793945
34.052589416503906 5.166775703430176 0.5689124464988708
34.07017517089844 5.030416488647461 2.2613842487335205
34.056270599365234 5.039788246154785 0.5675566792488098
34.07753372192383 4.910066604614258 2.2592380046844482
34.073429107666016 4.920919895172119 0.5650507807731628
34.081993103027344 4.789380073547363 2.257181406021118
34.07537078857422 4.7999091148376465 0.563819169998169
34.08107376098633 4.668043613433838 2.255305290222168
34.0892219543457 4.680636882781982 0.5615246295928955
34.088836669921875 4.554040431976318 2.2531938552856445
34.08211898803711 4.564631462097168 0.5610567331314087
34.08460235595703 4.4324774742126465 2.2514097690582275
34.10255432128906 4.446320056915283 0.5581212639808655
34.10968017578125 4.314759731292725 2.2485361099243164
34.085514068603516 4.323221683502197 0.5583825707435608
34.11450958251953 4.194483280181885 2.2463877201080322
34.11747741699219 4.206388473510742 0.5543781518936157
34.11892318725586 4.074224472045898 2.2442398071289062
34.106990814208984 4.084352016448975 0.554000973701477
34.099220275878906 3.9567766189575195 0.5532857775688171
33.55649948120117 3.645326852798462 2.258876085281372
33.56643295288086 3.5279431343078613 2.2564938068389893
33.36524200439453 3.518160104751587 0.6126248240470886
33.59086990356445 3.4120473861694336 2.2535572052001953
33.29037094116211 3.392879009246826 0.6176731586456299
33.62427520751953 3.3028650283813477 2.2503721714019775
33.380550384521484 3.2903170585632324 0.608469545841217
33.67778015136719 3.1895089149475098 2.2463183403015137
33.317222595214844 3.1667520999908447 0.612453281879425
33.69855880737305 3.0728719234466553 2.243462324142456
33.27080154418945 3.0452558994293213 0.6149426102638245
33.72142028808594 2.9563467502593994 2.2405102252960205
33.03288650512695 2.907318592071533 0.6340137124061584
33.701560974121094 2.8361401557922363 2.239137649536133
32.64302444458008 2.7582950592041016 0.6662632822990417
33.701194763183594 2.717712879180908 2.2370221614837646
32.94518280029297 2.668079137802124 0.6384077072143555
33.710819244384766 2.594208240509033 2.2344086170196533
33.32203674316406 2.575739622116089 0.6039097905158997
33.709598541259766 2.475821018218994 2.2322933673858643
