# .PCD v0.7 - Point Cloud Data file format
VERSION 0.7
FIELDS x y z
SIZE 4 4 4
TYPE F F F
COUNT 1 1 1
WIDTH 848
HEIGHT 1
VIEWPOINT 0 0 0 1 0 0 0
POINTS 848
DATA ascii
13.621869087219238 9.765417098999023 1.5677253007888794
13.663432121276855 9.669075012207031 1.5687175989151
13.698630332946777 9.568611145019531 1.5705636739730835
13.738016128540039 9.471456527709961 1.571671724319458
13.78410816192627 9.379202842712402 1.571670651435852
13.8065185546875 9.271246910095215 1.5751056671142578
13.856252670288086 9.182008743286133 1.5743590593338013
13.888798713684082 9.081644058227539 1.5760682821273804
13.926472663879395 8.984992027282715 1.5769129991531372
13.954277992248535 8.882354736328125 1.5791106224060059
13.99311351776123 8.787103652954102 1.579579472541809
14.018653869628906 8.683869361877441 1.581897258758545
14.056156158447266 8.588411331176758 1.582359790802002
14.098115921020508 8.495893478393555 1.5820764303207397
14.142882347106934 8.4052095413208 1.5812925100326538
14.187922477722168 8.314797401428223 1.5803792476654053
14.222076416015625 8.218189239501953 1.5809487104415894
14.253854751586914 8.120491027832031 1.581763505935669
14.298813819885254 8.030485153198242 1.5805870294570923
14.390081405639648 7.966183662414551 1.5726875066757202
15.006305694580078 8.187637329101562 1.4896950721740723
15.246480941772461 8.197883605957031 1.460634469985962
19.25942039489746 0.7665804028511047 1.0360954999923706
19.24262809753418 0.6477400660514832 1.0363976955413818
19.262746810913086 0.5301696062088013 1.0316160917282104
12.920963287353516 -0.675517737865448 1.8645656108856201
12.871841430664062 -0.7521548271179199 1.8689805269241333
12.872693061828613 -0.8314713835716248 1.8664803504943848
27.888845443725586 -5.816353797912598 -0.3574894666671753
27.817272186279297 -5.979803562164307 -0.3561718463897705
27.65581512451172 -6.301208972930908 -0.35127168893814087
19.885074615478516 -5.967419624328613 0.6873869299888611
19.4918270111084 -5.980088710784912 0.7376444339752197
19.233341217041016 -6.030221462249756 0.7680051326751709
19.05702018737793 -6.103682994842529 0.7861672639846802
19.049903869628906 -6.230605125427246 0.7789792418479919
18.87667465209961 -6.302495002746582 0.7966362833976746
18.831668853759766 -6.416236400604248 0.7949731349945068
18.83834457397461 -6.5478644371032715 0.7853955626487732
18.84317398071289 -6.6794867515563965 0.775951623916626
18.838716506958008 -6.8083882331848145 0.7677751183509827
18.838956832885742 -6.939540863037109 0.7587421536445618
18.837364196777344 -7.070606708526611 0.7498447895050049
18.834869384765625 -7.2019147872924805 0.7409405708312988
18.828702926635742 -7.332383632659912 0.7324568033218384
18.864887237548828 -7.480195045471191 0.7172797918319702
18.859575271606445 -7.612427711486816 0.7083520889282227
18.866161346435547 -7.750143051147461 0.6974233388900757
18.864459991455078 -7.885173797607422 0.6876267790794373
18.867271423339844 -8.02280044555664 0.6769661903381348
18.8881778717041 -8.169010162353516 0.6632965207099915
18.87265968322754 -8.300238609313965 0.6551917791366577
18.901412963867188 -8.451786041259766 0.6399257183074951
18.934417724609375 -8.606456756591797 0.6237838268280029
18.91681671142578 -8.73902416229248 0.6155120134353638
18.920692443847656 -8.882214546203613 0.6036487817764282
18.91905403137207 -9.023652076721191 0.5924944281578064
18.90926170349121 -9.16195297241211 0.5824818015098572
18.952640533447266 -9.327129364013672 0.5636867880821228
19.005321502685547 -9.498490333557129 0.5431438088417053
16.530170440673828 -8.388792037963867 0.9351784586906433
16.469255447387695 -8.485483169555664 0.9344003796577454
16.715547561645508 -8.742712020874023 0.8829629421234131
16.628969192504883 -8.959287643432617 0.8747153878211975
16.62977409362793 -9.091958999633789 0.8630717396736145
16.367399215698242 -9.079548835754395 0.8953003287315369
16.28775978088379 -9.166659355163574 0.8970090746879578
16.27039337158203 -9.288945198059082 0.8881417512893677
16.192203521728516 -9.376659393310547 0.8894323110580444
16.32171630859375 -9.586020469665527 0.8552857041358948
16.1984920501709 -9.647972106933594 0.8639881014823914
19.909595489501953 -13.049434661865234 0.1168278306722641
19.626005172729492 -13.036648750305176 0.15012243390083313
19.458227157592773 -13.098217010498047 0.16298319399356842
19.28798484802246 -13.156550407409668 0.17631684243679047
19.200773239135742 -13.270659446716309 0.1747266799211502
19.20201301574707 -13.446609497070312 0.15700486302375793
19.20423126220703 -13.62479019165039 0.13882958889007568
19.176061630249023 -13.782723426818848 0.12593252956867218
12.822759628295898 12.876383781433105 1.331138014793396
12.711763381958008 12.609553337097168 1.363416075706482
12.695061683654785 12.439698219299316 1.3784769773483276
12.749462127685547 12.34090518951416 1.3806959390640259
12.677660942077637 12.121931076049805 1.40497887134552
12.735633850097656 12.028964042663574 1.406193494796753
12.915517807006836 12.0501127243042 1.386059284210205
12.980884552001953 11.963279724121094 1.3858563899993896
13.006795883178711 11.840702056884766 1.3923476934432983
13.0818510055542 11.763360977172852 1.3902347087860107
13.104568481445312 11.496687889099121 1.4073954820632935
13.058374404907227 11.315407752990723 1.4254320859909058
13.091843605041504 11.204792022705078 1.4297800064086914
13.14262866973877 11.10955810546875 1.4310787916183472
13.18664836883545 11.00903606414795 1.43338942527771
13.229164123535156 10.907760620117188 1.4358232021331787
13.26478385925293 10.801365852355957 1.4392722845077515
13.282594680786133 10.681268692016602 1.4455225467681885
13.321958541870117 10.57924747467041 1.4480781555175781
13.358229637145996 10.475308418273926 1.4510141611099243
13.403923988342285 10.379215240478516 1.4522876739501953
13.445792198181152 10.280546188354492 1.4540683031082153
13.473498344421387 10.171591758728027 1.4580190181732178
13.508328437805176 10.068612098693848 1.4606901407241821
13.548794746398926 9.970288276672363 1.4623345136642456
13.58535385131836 9.869515419006348 1.46448814868927
13.61877155303955 9.76693344116211 1.467024326324463
13.649015426635742 9.662591934204102 1.4699434041976929
13.693937301635742 9.56904125213623 1.4704205989837646
13.726798057556152 9.46741771697998 1.472692847251892
13.770404815673828 9.373563766479492 1.4731616973876953
13.807615280151367 9.275657653808594 1.474527359008789
13.835880279541016 9.172165870666504 1.4771790504455566
13.879161834716797 9.078990936279297 1.4773786067962646
13.907659530639648 8.976486206054688 1.4797680377960205
13.960515022277832 8.889954566955566 1.4782805442810059
13.980088233947754 8.782533645629883 1.4818284511566162
14.016568183898926 8.686179161071777 1.4826596975326538
14.065085411071777 8.59746265411377 1.4815447330474854
14.105398178100586 8.503868103027344 1.4815901517868042
14.137421607971191 8.405540466308594 1.482798457145691
14.176469802856445 8.311652183532715 1.4828356504440308
14.213180541992188 8.216607093811035 1.4831286668777466
14.242369651794434 8.1174955368042 1.4844584465026855
14.29075813293457 8.029504776000977 1.4827922582626343
14.365490913391113 7.956117630004883 1.4770807027816772
15.244640350341797 8.200674057006836 1.356392741203308
19.26529884338379 0.7709866762161255 0.9188559651374817
19.222803115844727 0.6512330174446106 0.9229105710983276
19.250831604003906 0.5340092182159424 0.9169138669967651
12.857366561889648 -0.7487848997116089 1.7932000160217285
12.857236862182617 -0.8279466032981873 1.7908084392547607
19.75937271118164 -5.92503547668457 0.5813924074172974
19.470684051513672 -5.969005584716797 0.617752194404602
19.223752975463867 -6.022671222686768 0.6477291584014893
19.077716827392578 -6.1057939529418945 0.6620573997497559
18.858997344970703 -6.163698196411133 0.6877318620681763
18.816699981689453 -6.27799654006958 0.6858128309249878
18.82520866394043 -6.40954065322876 0.675804078578949
18.81131362915039 -6.533964157104492 0.6691744923591614
18.805925369262695 -6.661761283874512 0.6610683798789978
18.804323196411133 -6.7914204597473145 0.6522195935249329
18.8055477142334 -6.922678470611572 0.6427736282348633
18.8095703125 -7.05559778213501 0.6327298283576965
18.814512252807617 -7.189534664154053 0.6223817467689514
18.8129825592041 -7.321648120880127 0.6129143834114075
18.81053924560547 -7.454013824462891 0.6034400463104248
18.832855224609375 -7.59698486328125 0.589807391166687
18.841310501098633 -7.73525333404541 0.5782390236854553
18.83599853515625 -7.868577480316162 0.5687410235404968
18.842496871948242 -8.007543563842773 0.5571553111076355
18.832565307617188 -8.140216827392578 0.5480894446372986
18.874217987060547 -8.296147346496582 0.5303826928138733
18.88035011291504 -8.437567710876465 0.5183197259902954
18.86474609375 -8.56997013092041 0.5096771121025085
18.893110275268555 -8.723221778869629 0.493567556142807
18.909557342529297 -8.87210750579834 0.47923487424850464
19.132844924926758 -9.120645523071289 0.43005508184432983
19.17223358154297 -9.284353256225586 0.411329984664917
18.95214080810547 -9.321914672851562 0.43616071343421936
16.630691528320312 -8.307482719421387 0.8171142339706421
16.548194885253906 -8.393671989440918 0.8201307654380798
16.46086883544922 -8.47690200805664 0.8239119648933411
16.21894073486328 -8.478775978088379 0.8541465997695923
16.71122932434082 -8.867209434509277 0.7581566572189331
16.220046997070312 -8.734724044799805 0.8312861919403076
15.979275703430176 -8.732126235961914 0.8614757657051086
16.123044967651367 -8.939728736877441 0.8248168230056763
16.14853286743164 -9.08399772644043 0.8084700107574463
16.246692657470703 -9.271047592163086 0.7791285514831543
16.175457000732422 -9.362592697143555 0.7793545722961426
16.113941192626953 -9.45961856842041 0.7777774930000305
16.101957321166992 -9.586076736450195 0.7672837972640991
16.025554656982422 -9.674433708190918 0.7681373953819275
12.631696701049805 12.67109489440918 1.2618274688720703
12.658190727233887 12.543144226074219 1.2697486877441406
12.6998872756958 12.431294441223145 1.2746437788009644
12.747102737426758 12.325607299804688 1.278351068496704
12.736879348754883 12.165712356567383 1.2924692630767822
12.768434524536133 12.04722785949707 1.2986832857131958
12.833823204040527 11.961257934570312 1.2985612154006958
12.89645004272461 11.872923851013184 1.2988272905349731
12.903481483459473 11.734245300292969 1.3089996576309204
12.932159423828125 11.61646556854248 1.315077543258667
12.973965644836426 11.511274337768555 1.318641185760498
13.029133796691895 11.418421745300293 1.3196851015090942
13.042436599731445 11.289640426635742 1.3280136585235596
13.089306831359863 11.190756797790527 1.330244779586792
13.140755653381348 11.096199989318848 1.3315422534942627
13.189254760742188 10.999526977539062 1.33323335647583
13.215645790100098 10.885028839111328 1.3386412858963013
13.25804328918457 10.784379959106445 1.3411234617233276
13.291207313537598 10.676793098449707 1.345066785812378
13.329763412475586 10.57413101196289 1.3479433059692383
13.367562294006348 10.471397399902344 1.3508172035217285
13.403036117553711 10.36738395690918 1.3539555072784424
13.439312934875488 10.264531135559082 1.3568247556686401
13.474836349487305 10.161623001098633 1.359692096710205
13.513577461242676 10.061622619628906 1.3618886470794678
13.54521369934082 9.956831932067871 1.3651529550552368
13.5792818069458 9.854360580444336 1.3678802251815796
13.618244171142578 9.755884170532227 1.369667410850525
13.650036811828613 9.652721405029297 1.3725244998931885
13.692455291748047 9.557477951049805 1.3735013008117676
13.733402252197266 9.461512565612793 1.374607801437378
13.771230697631836 9.363730430603027 1.3761138916015625
13.804265022277832 9.263078689575195 1.3782892227172852
13.842365264892578 9.166202545166016 1.3795201778411865
13.873162269592285 9.06486988067627 1.381825566291809
13.92072582244873 8.97477912902832 1.3812978267669678
13.956003189086914 8.876998901367188 1.3826532363891602
13.985570907592773 8.775962829589844 1.3848158121109009
14.030430793762207 8.684805870056152 1.3844093084335327
14.059479713439941 8.584131240844727 1.3864316940307617
14.099702835083008 8.490584373474121 1.3865573406219482
14.140162467956543 8.397370338439941 1.386543869972229
14.180863380432129 8.304478645324707 1.3863894939422607
14.209803581237793 8.204960823059082 1.3879941701889038
14.244945526123047 8.109320640563965 1.388511061668396
14.2932710647583 8.021315574645996 1.3868502378463745
14.431207656860352 7.982905864715576 1.3710392713546753
14.755331993103027 8.044608116149902 1.3260729312896729
15.272716522216797 8.205803871154785 1.2510632276535034
19.24570655822754 0.7608623504638672 0.8083059191703796
19.218994140625 0.6417819261550903 0.8103058338165283
19.2390193939209 0.5243546366691589 0.8053306937217712
12.873784065246582 -0.7562599182128906 1.7148696184158325
12.854839324951172 -0.8343095183372498 1.7152477502822876
19.589704513549805 -5.8845295906066895 0.48653265833854675
19.424335479736328 -5.9651198387146 0.5046388506889343
19.127647399902344 -6.0027852058410645 0.5439646244049072
18.946069717407227 -6.073838233947754 0.564757227897644
18.823524475097656 -6.162259578704834 0.5759761929512024
18.786848068237305 -6.27821683883667 0.5731677412986755
18.754135131835938 -6.395553112030029 0.5695987343788147
18.8550968170166 -6.5594706535339355 0.5439989566802979
18.81875991821289 -6.676639080047607 0.5407233834266663
18.78541374206543 -6.794956207275391 0.5368378758430481
18.799537658691406 -6.930886268615723 0.5249791741371155
18.79511833190918 -7.060647010803223 0.5160266757011414
18.792579650878906 -7.191675186157227 0.5066075921058655
18.808473587036133 -7.330472469329834 0.4939536154270172
18.79397201538086 -7.4580769538879395 0.4862118065357208
18.810678482055664 -7.598731994628906 0.4730775058269501
18.838239669799805 -7.74475622177124 0.45792776346206665
18.830074310302734 -7.876920223236084 0.4486245810985565
18.8300838470459 -8.013144493103027 0.43777239322662354
18.839099884033203 -8.153983116149902 0.4252133071422577
18.81182098388672 -8.279717445373535 0.41867324709892273
16.481348037719727 -7.375426292419434 0.8071465492248535
16.438127517700195 -7.477595329284668 0.804475724697113
16.34853744506836 -7.558376312255859 0.8097124695777893
16.317594528198242 -7.666059970855713 0.8047300577163696
16.421464920043945 -7.83831787109375 0.7761579751968384
18.987041473388672 -9.20617961883545 0.31714242696762085
16.652124404907227 -8.201034545898438 0.714089035987854
16.521608352661133 -8.263249397277832 0.7258544564247131
16.394485473632812 -8.325963020324707 0.7370247840881348
16.42877197265625 -8.470706939697266 0.7195542454719543
16.499526977539062 -8.63587760925293 0.6953615546226501
16.34641456604004 -8.684089660644531 0.7109312415122986
16.089872360229492 -8.674981117248535 0.7451165318489075
16.00391960144043 -8.755959510803223 0.7487329840660095
16.22675132751465 -9.007798194885254 0.6963779330253601
16.287857055664062 -9.173048973083496 0.6729076504707336
16.02849769592285 -9.157166481018066 0.7076753377914429
15.986172676086426 -9.263712882995605 0.7028498649597168
16.121959686279297 -9.475154876708984 0.6650882363319397
16.08266258239746 -9.585479736328125 0.6593025922775269
16.088260650634766 -9.723259925842285 0.6450361013412476
12.616869926452637 12.673981666564941 1.1551352739334106
12.652579307556152 12.555204391479492 1.1616946458816528
12.676698684692383 12.426064491271973 1.170316219329834
12.72248363494873 12.319148063659668 1.1745368242263794
12.768153190612793 12.212821960449219 1.1786165237426758
12.784200668334961 12.079190254211426 1.1882045269012451
12.82660961151123 11.971500396728516 1.1925572156906128
12.863812446594238 11.859715461730957 1.1977356672286987
12.900860786437988 11.748590469360352 1.202774167060852
12.937031745910645 11.637456893920898 1.2078114748001099
12.974549293518066 11.528294563293457 1.2124329805374146
13.023127555847168 11.429561614990234 1.2148395776748657
13.04104995727539 11.304717063903809 1.222778558731079
13.08276081085205 11.201336860656738 1.2261499166488647
13.124451637268066 11.098508834838867 1.2293795347213745
13.164615631103516 10.994956016540527 1.2327450513839722
13.19865608215332 10.88691520690918 1.2370795011520386
13.235709190368652 10.781996726989746 1.2407182455062866
13.271202087402344 10.676410675048828 1.2444939613342285
13.305124282836914 10.57017993927002 1.248407006263733
13.342140197753906 10.466987609863281 1.2516230344772339
13.381525039672852 10.366165161132812 1.254279375076294
13.41702938079834 10.26284408569336 1.2574907541275024
13.448612213134766 10.157090187072754 1.2612577676773071
13.492104530334473 10.060805320739746 1.262790560722351
13.526949882507324 9.958497047424316 1.2657160758972168
13.56104850769043 9.8561372756958 1.2686394453048706
13.598424911499023 9.756620407104492 1.2708615064620972
13.632669448852539 9.655296325683594 1.273500680923462
13.671051979064941 9.557323455810547 1.2752974033355713
13.707932472229004 9.458678245544434 1.277230978012085
13.748209953308105 9.362725257873535 1.2784605026245117
13.779610633850098 9.261110305786133 1.2810897827148438
13.817708015441895 9.164385795593262 1.282452940940857
13.842713356018066 9.059408187866211 1.285921573638916
13.886082649230957 8.966821670532227 1.2861541509628296
13.924661636352539 8.871380805969238 1.287085771560669
13.965108871459961 8.777383804321289 1.2875909805297852
14.004085540771484 8.682701110839844 1.2882330417633057
14.03904914855957 8.585803031921387 1.2894351482391357
14.078437805175781 8.49186897277832 1.2897872924804688
14.118904113769531 8.398784637451172 1.289852261543274
14.157052040100098 8.304521560668945 1.2901955842971802
14.199716567993164 8.213077545166016 1.2896854877471924
14.23835277557373 8.119460105895996 1.2897371053695679
14.279826164245605 8.027615547180176 1.2892168760299683
14.390844345092773 7.974427700042725 1.2772011756896973
14.738042831420898 8.049224853515625 1.2265472412109375
15.245317459106445 8.205432891845703 1.1499520540237427
19.247854232788086 0.7751262784004211 0.6914117932319641
15.721989631652832 0.5366532206535339 1.2290912866592407
19.27590560913086 0.5395523905754089 0.6832224130630493
12.870719909667969 -0.745759904384613 1.637453317642212
12.862689018249512 -0.8244950771331787 1.636228084564209
19.585247039794922 -5.867692947387695 0.36401063203811646
19.168926239013672 -5.871440887451172 0.42497068643569946
19.045440673828125 -5.961756706237793 0.43698251247406006
18.866086959838867 -6.033036708831787 0.4583642780780792
18.803913116455078 -6.140660762786865 0.45997780561447144
18.76922607421875 -6.257120132446289 0.4568431079387665
16.50922393798828 -5.616515159606934 0.831497848033905
18.779767990112305 -6.517948627471924 0.4366043210029602
16.658926010131836 -5.896672248840332 0.7894296646118164
16.535709381103516 -5.967562198638916 0.8020082116127014
18.797164916992188 -6.914502143859863 0.4047561287879944
18.790952682495117 -7.043517112731934 0.39587679505348206
18.805997848510742 -7.181170463562012 0.38316503167152405
18.843975067138672 -7.328578472137451 0.3662930130958557
18.82302474975586 -7.453824996948242 0.35946595668792725
18.84793472290039 -7.597917079925537 0.3444857895374298
18.849863052368164 -7.733603000640869 0.3333301246166229
18.85720443725586 -7.872262001037598 0.32104671001434326
18.85264778137207 -8.006673812866211 0.3106761872768402
18.859834671020508 -8.146807670593262 0.29805445671081543
18.864198684692383 -8.286538124084473 0.2857443690299988
18.865751266479492 -8.425825119018555 0.2737461030483246
16.262737274169922 -7.383346080780029 0.7272731065750122
16.29024887084961 -7.516857147216797 0.7119081020355225
16.222007751464844 -7.6065673828125 0.7135882377624512
16.240598678588867 -7.7373270988464355 0.6994954347610474
16.17201805114746 -7.826895713806152 0.7010251879692078
16.695463180541992 -8.207202911376953 0.5946593880653381
16.590551376342773 -8.282549858093262 0.6022650003433228
16.470382690429688 -8.349337577819824 0.6126371026039124
16.431625366210938 -8.4569673538208 0.6079997420310974
16.564470291137695 -8.654465675354004 0.5714964270591736
16.373802185058594 -8.683303833007812 0.5946857333183289
16.099998474121094 -8.665233612060547 0.6334695816040039
16.322410583496094 -8.914702415466309 0.5795872807502747
16.19797706604004 -8.976372718811035 0.5903688669204712
16.342618942260742 -9.188223838806152 0.5503590106964111
16.574392318725586 -9.453024864196777 0.49340492486953735
16.033994674682617 -9.275818824768066 0.5828677415847778
16.064048767089844 -9.425411224365234 0.5639473795890808
16.04453468322754 -9.546963691711426 0.554290235042572
15.99963092803955 -9.653848648071289 0.5493542551994324
12.611832618713379 12.67335319519043 1.0412315130233765
12.648972511291504 12.556029319763184 1.0478712320327759
12.681619644165039 12.435261726379395 1.05522882938385
12.718949317932129 12.320073127746582 1.0614358186721802
12.761067390441895 12.210367202758789 1.0664905309677124
12.805915832519531 12.104005813598633 1.0708227157592773
12.83981704711914 11.98809814453125 1.077169418334961
12.872780799865723 11.87222957611084 1.0835158824920654
12.908465385437012 11.75973892211914 1.08914053440094
12.93884563446045 11.64328384399414 1.095630168914795
12.987515449523926 11.54399299621582 1.0983644723892212
13.025787353515625 11.436052322387695 1.1029735803604126
13.06173324584961 11.326777458190918 1.1078699827194214
13.089314460754395 11.211057662963867 1.114212155342102
13.120503425598145 11.099257469177246 1.1196863651275635
13.157649993896484 10.993205070495605 1.1238559484481812
13.194755554199219 10.887743949890137 1.1278786659240723
13.23336410522461 10.784114837646484 1.131463885307312
13.271971702575684 10.681041717529297 1.134901762008667
13.301294326782227 10.571127891540527 1.1399351358413696
13.335997581481934 10.466140747070312 1.1438052654266357
13.371479034423828 10.362337112426758 1.1473824977874756
13.408548355102539 10.260294914245605 1.1505216360092163
13.447237968444824 10.159975051879883 1.1532210111618042
13.48123836517334 10.056608200073242 1.156646490097046
13.512886047363281 9.952032089233398 1.1603617668151855
13.54695987701416 9.849771499633789 1.1634920835494995
13.585112571716309 9.750927925109863 1.1657439470291138
13.622563362121582 9.651985168457031 1.1679928302764893
13.660122871398926 9.55351448059082 1.1700924634933472
13.692105293273926 9.45157527923584 1.1730672121047974
13.733161926269531 9.356284141540527 1.1742830276489258
13.772746086120605 9.260290145874023 1.1756407022476196
13.809196472167969 9.162522315979004 1.177435040473938
13.844965934753418 9.064652442932129 1.1792261600494385
13.878396987915039 8.965615272521973 1.181308388710022
13.916971206665039 8.87022876739502 1.1823593378067017
13.959087371826172 8.777337074279785 1.1826704740524292
13.99554443359375 8.681132316589355 1.183860421180725
14.029659271240234 8.58377742767334 1.1853419542312622
14.067342758178711 8.488883018493652 1.1860830783843994
14.10608959197998 8.394858360290527 1.1865252256393433
14.146772384643555 8.3021821975708 1.1865204572677612
14.192841529846191 8.212785720825195 1.1854768991470337
14.23061466217041 8.11872386932373 1.1857577562332153
14.279836654663086 8.031293869018555 1.1839629411697388
14.379552841186523 7.971856117248535 1.1734246015548706
14.727276802062988 8.04712200164795 1.1204867362976074
15.262774467468262 8.218755722045898 1.0357314348220825
19.236778259277344 0.7790050506591797 0.569345235824585
15.742049217224121 0.5407262444496155 1.124785304069519
19.270750045776367 0.5437411665916443 0.5600830316543579
12.873919486999512 -0.7433086037635803 1.5540812015533447
12.859000205993652 -0.8216232657432556 1.553990364074707
16.476011276245117 -3.109196424484253 0.8821967840194702
16.478548049926758 -3.214531898498535 0.8762938976287842
16.558765411376953 -3.3357994556427 0.8572424054145813
16.470006942749023 -3.423239231109619 0.866425096988678
16.46860122680664 -3.5285277366638184 0.8608368635177612
16.465560913085938 -3.6337170600891113 0.855408251285553
16.534969329833984 -3.755610466003418 0.8376045227050781
19.912137985229492 -5.827793598175049 0.1847423017024994
19.57978057861328 -5.861268520355225 0.23348821699619293
19.300607681274414 -5.90705680847168 0.27311578392982483
19.114831924438477 -5.978796482086182 0.29653283953666687
18.862201690673828 -6.027169227600098 0.33167654275894165
18.788814544677734 -6.1311116218566895 0.3354276418685913
16.212600708007812 -5.40087890625 0.7798822522163391
16.398244857788086 -5.574808120727539 0.7389671802520752
16.30279541015625 -5.654268264770508 0.7475141286849976
16.129817962646484 -5.705474853515625 0.7697902917861938
16.41886329650879 -5.921390533447266 0.7097868919372559
18.801551818847656 -6.911391258239746 0.2751767635345459
18.823015213012695 -7.050785064697266 0.26108258962631226
18.819515228271484 -7.181563854217529 0.25128358602523804
18.834415435791016 -7.320068359375 0.2379969209432602
18.84832000732422 -7.4590277671813965 0.2246994823217392
18.844758987426758 -7.591801643371582 0.2143794596195221
18.840272903442383 -7.7248148918151855 0.20405352115631104
18.84760284423828 -7.863375663757324 0.19139325618743896
18.8593807220459 -8.004631042480469 0.17772527039051056
18.859268188476562 -8.141637802124023 0.16604451835155487
18.859079360961914 -8.279342651367188 0.154189795255661
16.369253158569336 -7.30658483505249 0.6032766103744507
18.89345932006836 -8.572773933410645 0.12344751507043839
16.282968521118164 -7.509289741516113 0.5978968739509583
16.196033477783203 -7.590184688568115 0.6032363176345825
16.336599349975586 -7.778800010681152 0.5657758712768555
16.168363571166992 -7.820891380310059 0.5861798524856567
16.78443145751953 -8.634032249450684 0.4216116964817047
16.52800750732422 -8.63094711303711 0.4583231210708618
16.469114303588867 -8.729378700256348 0.45710915327072144
16.236879348754883 -8.734487533569336 0.4893741309642792
16.213733673095703 -8.850905418395996 0.48113012313842773
16.205289840698242 -8.97596549987793 0.4698519706726074
16.116003036499023 -9.056349754333496 0.47424256801605225
16.120532989501953 -9.189674377441406 0.4600960910320282
16.070274353027344 -9.292313575744629 0.45657286047935486
15.954744338989258 -9.356789588928223 0.46588990092277527
15.963560104370117 -9.4942626953125 0.4503853917121887
15.945117950439453 -9.616415977478027 0.4401128888130188
12.559755325317383 12.771985054016113 0.9261652827262878
12.606830596923828 12.663886070251465 0.9312071204185486
12.641824722290039 12.544544219970703 0.9386409521102905
12.680068016052246 12.429404258728027 0.9451756477355957
12.718799591064453 12.31563949584961 0.9514097571372986
12.748042106628418 12.1936674118042 0.9594417810440063
12.789923667907715 12.084698677062988 0.9646238088607788
12.835286140441895 11.979724884033203 0.968902587890625
12.864582061767578 11.860570907592773 0.9763328433036804
12.884132385253906 11.7335205078125 0.9855679273605347
12.943033218383789 11.643043518066406 0.9865331649780273
12.97692584991455 11.53061294555664 0.9924582242965698
13.00026798248291 11.4097261428833 1.0003403425216675
13.042787551879883 11.306468963623047 1.0041557550430298
13.07702350616455 11.196690559387207 1.0094757080078125
13.118708610534668 11.093936920166016 1.013135313987732
13.158109664916992 10.989824295043945 1.0170937776565552
13.193678855895996 10.883130073547363 1.0216543674468994
13.218474388122559 10.768293380737305 1.0281779766082764
13.253912925720215 10.662856101989746 1.0324339866638184
13.296297073364258 10.563538551330566 1.035175085067749
13.328631401062012 10.456777572631836 1.0397294759750366
13.367972373962402 10.356070518493652 1.042767882347107
13.405011177062988 10.254072189331055 1.0461065769195557
13.44209098815918 10.152603149414062 1.0492912530899048
13.476057052612305 10.049290657043457 1.0529288053512573
13.515628814697266 9.950631141662598 1.0553492307662964
13.544106483459473 9.844307899475098 1.0597426891326904
13.581427574157715 9.74492359161377 1.0623102188110352
13.616426467895508 9.644305229187012 1.0651792287826538
13.656373977661133 9.547590255737305 1.0669797658920288
13.69727611541748 9.45186710357666 1.068471908569336
13.730982780456543 9.351551055908203 1.0711802244186401
13.767257690429688 9.253378868103027 1.0732758045196533
13.802022933959961 9.154566764831543 1.0755212306976318
13.834441184997559 9.05459213256836 1.0780699253082275
13.873624801635742 8.959388732910156 1.0792397260665894
13.917162895202637 8.867230415344238 1.0794875621795654
13.95423698425293 8.771190643310547 1.080802321434021
13.986457824707031 8.67242431640625 1.0828801393508911
14.023052215576172 8.576685905456543 1.0840353965759277
14.062383651733398 8.482863426208496 1.0845731496810913
14.101940155029297 8.389385223388672 1.0849531888961792
14.14002799987793 8.29524040222168 1.0854823589324951
14.18690013885498 8.20638370513916 1.0843160152435303
14.221199035644531 8.110408782958984 1.08529794216156
14.253131866455078 8.013351440429688 1.0865843296051025
14.431323051452637 7.997635841369629 1.0616686344146729
14.70956039428711 8.034505844116211 1.0189776420593262
15.261067390441895 8.214851379394531 0.9279150366783142
19.251325607299805 0.7771329283714294 0.44626593589782715
15.742286682128906 0.5385740399360657 1.0260319709777832
19.260560989379883 0.540995717048645 0.44092610478401184
12.85694694519043 -0.7442395091056824 1.4760518074035645
12.851861953735352 -0.8230783939361572 1.4743688106536865
16.196455001831055 -2.7509260177612305 0.8412079811096191
16.254837036132812 -2.966541290283203 0.820652961730957
16.245656967163086 -3.0680060386657715 0.816828727722168
16.2890567779541 -3.1798553466796875 0.8037545084953308
16.11040496826172 -3.247762441635132 0.829207181930542
16.23457908630371 -3.3766043186187744 0.8018156290054321
16.137054443359375 -3.459789514541626 0.8129879832267761
16.247026443481445 -3.5878021717071533 0.7877458930015564
16.17436408996582 -3.676023006439209 0.7943772077560425
16.080120086669922 -3.758556842803955 0.8047407269477844
16.097604751586914 -3.86700177192688 0.795344352722168
19.000198364257812 -5.945647239685059 0.1913197636604309
18.860618591308594 -6.0293660163879395 0.2073889970779419
18.7760009765625 -6.129638195037842 0.21341755986213684
16.204362869262695 -5.400601863861084 0.6738724112510681
16.225584030151367 -5.518595218658447 0.6616309285163879
16.285985946655273 -5.650938987731934 0.642021656036377
16.431751251220703 -5.814793109893799 0.6064692139625549
16.461181640625 -5.939194679260254 0.5921170711517334
16.0079402923584 -5.887048244476318 0.6670767068862915
15.959152221679688 -5.98061990737915 0.6671736836433411
18.81271743774414 -7.1818013191223145 0.1257476955652237
16.042659759521484 -6.237666606903076 0.6331979036331177
18.823957443237305 -7.45225191116333 0.10164901614189148
16.36524772644043 -7.187288761138916 0.5019274353981018
16.302459716796875 -7.279489040374756 0.5031930804252625
16.300142288208008 -7.398871421813965 0.49271100759506226
16.356000900268555 -7.545727729797363 0.4708022475242615
16.21000862121582 -7.599495887756348 0.4878307282924652
16.13333511352539 -7.684792518615723 0.49137598276138306
16.588350296020508 -8.407615661621094 0.3541828691959381
16.505390167236328 -8.49342155456543 0.35803985595703125
16.301549911499023 -8.515617370605469 0.38592103123664856
16.46870231628418 -8.732125282287598 0.3396817445755005
16.40052604675293 -8.825495719909668 0.3402542471885681
16.171937942504883 -8.83106517791748 0.3730883300304413
16.186805725097656 -8.968729019165039 0.35678043961524963
16.27783966064453 -9.1503267288208 0.3247496783733368
16.152545928955078 -9.210968971252441 0.3365308940410614
16.153268814086914 -9.343374252319336 0.32246726751327515
16.227706909179688 -9.519974708557129 0.2930024266242981
16.106801986694336 -9.582572937011719 0.30358946323394775
12.560328483581543 12.76776123046875 0.830581784248352
12.61365795135498 12.66598892211914 0.83445805311203
12.63184928894043 12.529948234558105 0.8459187746047974
12.6806001663208 12.425275802612305 0.8504100441932678
12.70725154876709 12.2998628616333 0.8595488667488098
12.754979133605957 12.195755958557129 0.863879919052124
12.790420532226562 12.080671310424805 0.8706910610198975
12.831432342529297 11.971673965454102 0.8761035799980164
12.872318267822266 11.863297462463379 0.8813586235046387
12.90432357788086 11.747553825378418 0.8883218169212341
12.93246078491211 11.629219055175781 0.8959071040153503
12.967019081115723 11.51754093170166 0.9019365906715393
13.003667831420898 11.408483505249023 0.9073421955108643
13.046934127807617 11.305876731872559 0.9111877083778381
13.072922706604004 11.189035415649414 0.9184610843658447
13.113813400268555 11.085691452026367 0.9224579334259033
13.161510467529297 10.988598823547363 0.9248914122581482
13.185652732849121 10.872481346130371 0.9320067763328552
13.221122741699219 10.766460418701172 0.9366224408149719
13.26579475402832 10.668460845947266 0.9392030239105225
13.298935890197754 10.561715126037598 0.9439707398414612
13.342147827148438 10.463499069213867 0.9465447664260864
13.36826229095459 10.352445602416992 0.9524058103561401
13.399008750915527 10.245665550231934 0.957169771194458
13.447078704833984 10.152585983276367 0.9583240151405334
13.462841033935547 10.035687446594238 0.9657531380653381
13.506311416625977 9.94005298614502 0.967529296875
13.544323921203613 9.840777397155762 0.9702448844909668
13.579218864440918 9.739681243896484 0.9734289646148682
13.625476837158203 9.647087097167969 0.9742501378059387
13.690105438232422 9.443346977233887 0.9809200763702393
13.73519229888916 9.350872039794922 0.9815713763237
13.769826889038086 9.25158977508545 0.9841115474700928
13.801294326782227 9.150592803955078 0.9871228933334351
13.840304374694824 9.054965019226074 0.9885522723197937
13.872023582458496 8.954916000366211 0.9912429451942444
13.911368370056152 8.86012077331543 0.9923492670059204
13.947563171386719 8.763604164123535 0.9939265251159668
13.983098030090332 8.666973114013672 0.9955007433891296
14.023028373718262 8.573326110839844 0.9961203932762146
14.06740951538086 8.482573509216309 0.9957839846611023
14.112054824829102 8.392102241516113 0.995283305644989
14.169744491577148 8.309391021728516 0.9922351837158203
14.2399263381958 8.117850303649902 0.9942248463630676
14.283955574035645 8.027462005615234 0.9933839440345764
14.431896209716797 7.994734764099121 0.973263144493103
14.696064949035645 8.023897171020508 0.9317510724067688
15.196693420410156 8.17690658569336 0.8469513058662415
15.992745399475098 8.479474067687988 0.7083983421325684
19.238393783569336 0.7737893462181091 0.34475842118263245
15.746194839477539 0.5362529158592224 0.9405747056007385
19.273178100585938 0.5385311841964722 0.3350248634815216
12.853194236755371 -0.7461744546890259 1.4073116779327393
12.853006362915039 -0.8253048062324524 1.4047760963439941
16.266794204711914 -1.546122670173645 0.7944496273994446
16.31247901916504 -1.7526782751083374 0.7785168290138245
16.30105209350586 -1.8526904582977295 0.776375412940979
16.27336311340332 -1.9507566690444946 0.7769832611083984
16.329139709472656 -2.059143543243408 0.7628100514411926
16.25040054321289 -2.1506011486053467 0.7721918225288391
16.323375701904297 -2.262249231338501 0.7547305822372437
16.303945541381836 -2.3616127967834473 0.7534450888633728
16.201122283935547 -2.4483253955841064 0.7668206095695496
16.23213768005371 -2.5549869537353516 0.7564045190811157
16.330888748168945 -2.7763264179229736 0.7286266088485718
16.336456298828125 -2.880533456802368 0.7223237156867981
16.198928833007812 -2.958918333053589 0.7414600849151611
16.197521209716797 -3.0615010261535645 0.7362058758735657
16.225425720214844 -3.170030117034912 0.7255756855010986
16.208194732666016 -3.2700653076171875 0.7229145169258118
16.14117431640625 -3.359781503677368 0.7291072607040405
16.229660034179688 -3.482250213623047 0.7071713805198669
16.085491180419922 -3.5547492504119873 0.7271062135696411
16.223371505737305 -3.6897854804992676 0.6959263682365417
16.10512351989746 -3.7670228481292725 0.7110180258750916
16.192291259765625 -5.399372100830078 0.5837904810905457
16.52192497253418 -5.622207164764404 0.5129517912864685
16.328632354736328 -5.668568134307861 0.5407137870788574
16.178091049194336 -5.72788143157959 0.5604093074798584
16.400569915771484 -5.920203685760498 0.5090154409408569
16.33213233947754 -6.009124279022217 0.5128353238105774
16.134191513061523 -6.049070835113525 0.5414102673530579
16.071556091308594 -6.138427257537842 0.5440343022346497
16.26986312866211 -6.328906059265137 0.49623042345046997
16.507415771484375 -7.252784729003906 0.3770992159843445
16.29866600036621 -7.280857086181641 0.40727701783180237
16.3670711517334 -7.43233585357666 0.38248029351234436
16.293947219848633 -7.520205020904541 0.3856339752674103
16.364688873291016 -7.675130367279053 0.35991373658180237
16.0734806060791 -7.659398555755615 0.4066098928451538
16.48891258239746 -8.616782188415527 0.24776245653629303
16.448345184326172 -8.724656105041504 0.24285674095153809
16.26673126220703 -8.756831169128418 0.26701226830482483
16.241628646850586 -8.872458457946777 0.2587207853794098
16.265621185302734 -9.015765190124512 0.24001017212867737
16.020065307617188 -9.008808135986328 0.277538001537323
16.122148513793945 -9.197042465209961 0.24210961163043976
16.125442504882812 -9.330714225769043 0.22715939581394196
16.14466667175293 -9.474729537963867 0.2085980921983719
16.0722713470459 -9.565513610839844 0.20930255949497223
12.521537780761719 12.746185302734375 0.7287847995758057
12.587286949157715 12.657259941101074 0.7299792766571045
12.68252944946289 12.59791374206543 0.7242546081542969
12.680998802185059 12.443171501159668 0.7405466437339783
12.689393997192383 12.29991340637207 0.7542731165885925
12.738574028015137 12.197291374206543 0.7585068941116333
12.791277885437012 12.098596572875977 0.7617703676223755
12.82450008392334 11.982193946838379 0.769218921661377
12.879263877868652 11.886588096618652 0.771668553352356
12.888848304748535 11.750202178955078 0.7839548587799072
12.949319839477539 11.661032676696777 0.7847840785980225
12.981162071228027 11.546638488769531 0.7917442917823792
13.015798568725586 11.435548782348633 0.7978965640068054
13.053290367126465 11.3277006149292 0.803239107131958
13.089951515197754 11.219820976257324 0.8085798621177673
13.122770309448242 11.109368324279785 0.8145665526390076
13.167598724365234 11.009692192077637 0.8177988529205322
13.191917419433594 10.893548011779785 0.8252412676811218
13.23519229888916 10.793731689453125 0.8284685015678406
13.268518447875977 10.68636703491211 0.8336396217346191
13.301029205322266 10.578996658325195 0.8388092517852783
13.343587875366211 10.4801607131958 0.841703474521637
13.363603591918945 10.364270210266113 0.8491460084915161
13.402289390563965 10.263522148132324 0.8525237441062927
13.444178581237793 10.165665626525879 0.8550849556922913
13.491697311401367 10.072399139404297 0.8563399314880371
13.513164520263672 9.960200309753418 0.8628039360046387
13.547327995300293 9.857983589172363 0.8664973378181458
13.595170974731445 9.766080856323242 0.8672523498535156
13.618254661560059 9.656842231750488 0.8728993535041809
13.655866622924805 9.558433532714844 0.8754433393478394
13.697657585144043 9.463289260864258 0.87700355052948
13.736351013183594 9.366324424743652 0.8790502548217773
13.774371147155762 9.269237518310547 0.8810936212539673
13.805143356323242 9.167670249938965 0.8844437003135681
13.836015701293945 9.066614151000977 0.8876283168792725
13.866996765136719 8.966056823730469 0.8906472325325012
13.905584335327148 8.870763778686523 0.8920236825942993
13.949369430541992 8.779011726379395 0.8922473192214966
13.987524032592773 8.683932304382324 0.8934510946273804
14.023355484008789 8.587682723999023 0.8949800133705139
14.059378623962402 8.491828918457031 0.8963412642478943
14.101531982421875 8.39989185333252 0.8963819742202759
14.144790649414062 8.308755874633789 0.896088719367981
14.187460899353027 8.217401504516602 0.8957898616790771
14.22269058227539 8.121923446655273 0.8968051075935364
14.290802955627441 8.045187950134277 0.8913808465003967
14.39990234375 7.990889549255371 0.8780181407928467
14.700098991394043 8.040138244628906 0.8281143307685852
15.283573150634766 8.238072395324707 0.7244001626968384
15.990177154541016 8.492977142333984 0.5977101922035217
19.24164581298828 0.788114607334137 0.22675149142742157
15.756150245666504 0.548656702041626 0.8427516222000122
19.272611618041992 0.5527207255363464 0.21755196154117584
12.895275115966797 -0.5796406269073486 1.3263365030288696
12.891181945800781 -0.65871661901474 1.3246498107910156
12.870877265930176 -0.7368654012680054 1.32578444480896
12.85501480102539 -0.81510329246521 1.3260408639907837
16.208559036254883 -1.628544807434082 0.7015939354896545
16.10589599609375 -1.7181061506271362 0.716140627861023
16.144554138183594 -1.8224822282791138 0.7049733996391296
16.05451774597168 -1.9121497869491577 0.7170642018318176
15.995241165161133 -2.0047006607055664 0.723487377166748
16.017391204833984 -2.1073832511901855 0.7149813175201416
16.018407821655273 -2.2075932025909424 0.7102050185203552
15.938933372497559 -2.296389579772949 0.7200344204902649
16.02634048461914 -2.4094622135162354 0.6992184519767761
16.008935928344727 -2.50740122795105 0.697465717792511
15.830696105957031 -2.579111099243164 0.7251734137535095
16.298290252685547 -2.758082151412964 0.6339364051818848
16.32331657409668 -2.8654730319976807 0.6239222884178162
16.264389038085938 -2.958134174346924 0.6292853355407715
16.210742950439453 -3.0512750148773193 0.6335864663124084
16.349708557128906 -3.1814587116241455 0.6020638346672058
16.07872200012207 -3.231268882751465 0.64652419090271
16.139127731323242 -3.3465986251831055 0.6293302178382874
16.495014190673828 -3.5261383056640625 0.5568140149116516
16.099924087524414 -3.545147180557251 0.624351441860199
16.167665481567383 -3.6642611026763916 0.6053219437599182
16.136829376220703 -3.7615609169006348 0.6046240329742432
16.077667236328125 -3.851975679397583 0.6091523170471191
16.104236602783203 -5.466651439666748 0.488751083612442
16.09415054321289 -5.5736799240112305 0.4818744957447052
16.206663131713867 -5.7243499755859375 0.4507639408111572
16.254087448120117 -5.853620529174805 0.4321982264518738
16.344831466674805 -5.9999542236328125 0.404856413602829
16.08353042602539 -6.016369819641113 0.4470402002334595
16.05234146118164 -6.117345809936523 0.4436172842979431
16.04801368713379 -6.228839874267578 0.4347124397754669
16.3635311126709 -7.295316219329834 0.28594154119491577
16.363698959350586 -7.416227340698242 0.274372398853302
16.35138702392578 -7.532070636749268 0.26518842577934265
16.333816528320312 -7.645961284637451 0.25692158937454224
16.48011589050293 -8.726078987121582 0.12351864576339722
16.368694305419922 -8.796279907226562 0.13352501392364502
16.29930877685547 -8.888500213623047 0.1344730705022812
16.20705223083496 -8.967833518981934 0.14025196433067322
16.09558868408203 -9.03579044342041 0.15012972056865692
16.15979766845703 -9.202896118164062 0.12178272008895874
12.648258209228516 12.875402450561523 0.5732073783874512
12.740514755249023 12.811575889587402 0.5683078765869141
12.695371627807617 12.610918998718262 0.5962139964103699
12.719328880310059 12.481040000915527 0.6072186231613159
12.894365310668945 12.49886703491211 0.5821875929832458
12.778153419494629 12.235467910766602 0.6258813142776489
12.7952880859375 12.102680206298828 0.6377308368682861
12.827128410339355 11.98494815826416 0.645891010761261
12.883362770080566 11.890682220458984 0.6481720209121704
12.92654037475586 11.784884452819824 0.6533041000366211
12.95792007446289 11.669107437133789 0.6609557271003723
12.983213424682617 11.548803329467773 0.6697849631309509
13.020111083984375 11.439685821533203 0.6757538318634033
13.063606262207031 11.337010383605957 0.6800373792648315
13.098100662231445 11.227174758911133 0.6861708164215088
13.153559684753418 11.135809898376465 0.6874141097068787
13.16150951385498 11.004984855651855 0.6991102695465088
13.208634376525879 10.907744407653809 0.7018654942512512
13.245133399963379 10.802240371704102 0.7068120837211609
13.275464057922363 10.69236946105957 0.7129395604133606
13.317289352416992 10.592347145080566 0.7163616418838501
13.352190017700195 10.487343788146973 0.7211334109306335
13.380853652954102 10.378080368041992 0.7270886301994324
13.41494083404541 10.273652076721191 0.7316886186599731
13.451397895812988 10.171573638916016 0.735609233379364
13.491057395935059 10.072379112243652 0.7386794090270996
13.524456024169922 9.968986511230469 0.7429343461990356
13.555500984191895 9.864402770996094 0.7475268840789795
13.588977813720703 9.762110710144043 0.7514390349388123
13.626532554626465 9.66319751739502 0.75432950258255
13.662580490112305 9.563624382019043 0.7573869228363037
13.703596115112305 9.467893600463867 0.759250819683075
13.743138313293457 9.3714599609375 0.7612807750701904
13.760759353637695 9.260591506958008 0.7677369117736816
13.801345825195312 9.165667533874512 0.7692509889602661
13.825627326965332 9.060332298278809 0.7740022540092468
13.868167877197266 8.96734619140625 0.7748274803161621
13.905936241149902 8.871528625488281 0.7765018939971924
13.943052291870117 8.775582313537598 0.7781730890274048
13.99458122253418 8.688867568969727 0.7767627239227295
14.023727416992188 8.588470458984375 0.7797937989234924
14.057229042053223 8.491096496582031 0.7817960977554321
14.10022258758545 8.39968490600586 0.7817398309707642
14.136677742004395 8.30456829071045 0.7828781008720398
14.178462982177734 8.212776184082031 0.7828122973442078
14.212812423706055 8.116872787475586 0.7841143608093262
14.321203231811523 8.062904357910156 0.7704719305038452
14.382086753845215 7.981616973876953 0.7662591934204102
14.951553344726562 8.178337097167969 0.6607561707496643
15.125924110412598 8.153800964355469 0.6340910196304321
15.97909927368164 8.487882614135742 0.4730932116508484
15.745661735534668 0.5491324663162231 0.7339794039726257
12.833041191101074 -0.6552004814147949 1.2448118925094604
12.858901023864746 -0.735632061958313 1.237458348274231
12.852856636047363 -0.8144190311431885 1.235958218574524
16.065231323242188 -1.613244891166687 0.6140630841255188
16.105466842651367 -1.7171586751937866 0.6023831367492676
16.001453399658203 -1.805433988571167 0.6177679896354675
15.969194412231445 -1.9010963439941406 0.619537353515625
15.879800796508789 -1.989349603652954 0.6320117712020874
15.823063850402832 -2.0809359550476074 0.638231098651886
15.906001091003418 -2.191213846206665 0.6178641319274902
15.856851577758789 -2.2836804389953613 0.6224266290664673
15.972383499145508 -2.400453805923462 0.5955544114112854
15.789000511169434 -2.4720723628997803 0.625474214553833
16.374589920043945 -2.8735313415527344 0.4975666105747223
16.241201400756836 -2.952986478805542 0.5174957513809204
16.202102661132812 -3.0487213134765625 0.5192548632621765
16.25117301940918 -3.161349296569824 0.503921627998352
16.153043746948242 -3.2452824115753174 0.5168423652648926
16.130504608154297 -3.3438870906829834 0.5150821805000305
16.108325958251953 -3.4425454139709473 0.5131383538246155
16.296634674072266 -3.5875234603881836 0.4701954424381256
16.173307418823242 -3.6646080017089844 0.4876241087913513
16.17977523803711 -3.770639419555664 0.4797007441520691
16.09670066833496 -3.8556103706359863 0.4891400635242462
16.261545181274414 -5.51909065246582 0.33714285492897034
16.1341609954834 -5.586585521697998 0.35385486483573914
16.227874755859375 -5.7308783531188965 0.32545310258865356
16.246496200561523 -5.849919319152832 0.31214141845703125
16.25965690612793 -5.967714309692383 0.2997642159461975
16.28944969177246 -6.092428207397461 0.283782422542572
16.127466201782227 -6.145017623901367 0.30717575550079346
16.182405471801758 -6.280040264129639 0.28569644689559937
16.430627822875977 -7.324223041534424 0.14551258087158203
16.406396865844727 -7.434574127197266 0.13873903453350067
