# .PCD v0.7 - Point Cloud Data file format
VERSION 0.7
FIELDS x y z
SIZE 4 4 4
TYPE F F F
COUNT 1 1 1
WIDTH 854
HEIGHT 1
VIEWPOINT 0 0 0 1 0 0 0
POINTS 854
DATA ascii
34.43269729614258 -15.980329513549805 1.8460479974746704
34.44401168823242 -16.24321937561035 1.8356821537017822
34.44888687133789 -16.504690170288086 1.8255345821380615
34.43927001953125 -16.760713577270508 1.8160332441329956
34.42512130737305 -17.015911102294922 1.8066612482070923
34.384132385253906 -17.259017944335938 1.798611044883728
34.29072570800781 -17.476409912109375 1.7932771444320679
34.163116455078125 -17.67632484436035 1.7897231578826904
34.360652923583984 -18.046710968017578 1.7684791088104248
34.41212844848633 -18.344064712524414 1.7549587488174438
34.26093292236328 -18.53436851501465 1.7524032592773438
34.30482864379883 -18.831172943115234 1.7390412092208862
34.34025955200195 -19.12580680847168 1.7259899377822876
34.4463996887207 -19.46285629272461 1.7088305950164795
34.378971099853516 -19.704082489013672 1.701217770576477
34.4661750793457 -20.036069869995117 1.684768795967102
34.48949432373047 -20.333850860595703 1.6717522144317627
34.51216125488281 -20.63369369506836 1.6586129665374756
34.52219772338867 -20.92836570739746 1.6460374593734741
34.46438217163086 -21.183666229248047 1.6372349262237549
34.48271560668945 -21.48763656616211 1.6238844394683838
34.47581100463867 -21.77822494506836 1.611844778060913
34.510372161865234 -22.097543716430664 1.5972068309783936
34.42835998535156 -22.34415626525879 1.589302897453308
34.53570556640625 -22.71628189086914 1.5699855089187622
34.49433517456055 -22.99361801147461 1.5593615770339966
34.70161819458008 -23.440690994262695 1.5335544347763062
34.728328704833984 -23.770442962646484 1.5184094905853271
34.750648498535156 -24.100263595581055 1.50333571434021
34.74161148071289 -24.411157608032227 1.4899983406066895
34.82688903808594 -24.791763305664062 1.4706289768218994
34.797813415527344 -25.094301223754883 1.4581491947174072
34.81067657470703 -25.4298152923584 1.442863941192627
34.83598327636719 -25.7777156829834 1.4265847206115723
34.83913803100586 -26.112503051757812 1.4114989042282104
34.86892318725586 -26.470640182495117 1.3944982290267944
34.871063232421875 -26.811248779296875 1.3790513277053833
34.88451385498047 -27.163925170898438 1.3626549243927002
34.91297912597656 -27.531991958618164 1.345048427581787
34.903106689453125 -27.873380661010742 1.3297264575958252
34.75834274291992 -28.108930587768555 1.3231539726257324
34.73099136352539 -28.441190719604492 1.3086313009262085
34.9091911315918 -28.946916580200195 1.2800463438034058
34.866031646728516 -29.2741641998291 1.2660812139511108
34.87189865112305 -29.645952224731445 1.2485624551773071
34.92975997924805 -30.066469192504883 1.2272088527679443
34.940093994140625 -30.45075035095215 1.2088409662246704
34.896846771240234 -30.79201316833496 1.1939489841461182
34.93263244628906 -31.207075119018555 1.1732715368270874
35.0046272277832 -31.65989875793457 1.149717926979065
34.9913444519043 -32.04058837890625 1.1319056749343872
34.99520492553711 -32.44131851196289 1.1125909090042114
35.01584243774414 -32.8624267578125 1.091765284538269
34.991355895996094 -33.245792388916016 1.0739208459854126
32.44437026977539 30.548370361328125 2.310124158859253
32.33676528930664 30.075117111206055 2.3180902004241943
32.48588943481445 29.84440803527832 2.3155033588409424
32.5297737121582 29.51896095275879 2.3170928955078125
32.45254898071289 29.088022232055664 2.323467493057251
32.42291259765625 28.704870223999023 2.3278019428253174
32.57640838623047 28.486360549926758 2.3246662616729736
32.57563781738281 28.13507080078125 2.327636957168579
32.60677719116211 27.81470489501953 2.329226493835449
32.59011459350586 27.457021713256836 2.332628011703491
32.62408447265625 27.145349502563477 2.333908796310425
32.62765884399414 26.811450958251953 2.3363053798675537
32.65243148803711 26.49806022644043 2.3377645015716553
32.66289520263672 26.17599868774414 2.3396990299224854
32.68161392211914 25.863494873046875 2.3412134647369385
32.691436767578125 25.54682731628418 2.3429906368255615
32.70414733886719 25.235288619995117 2.3445634841918945
32.70075988769531 24.914260864257812 2.346681594848633
32.74498748779297 24.632081985473633 2.346841812133789
32.64095687866211 24.241836547851562 2.3527352809906006
32.21257400512695 23.618572235107422 2.37123966217041
32.44899368286133 23.487340927124023 2.3636057376861572
32.50285339355469 23.223934173583984 2.363046646118164
32.52775192260742 22.941736221313477 2.363541841506958
32.483154296875 22.613283157348633 2.366668939590454
32.46706008911133 22.30775260925293 2.368603467941284
32.499732971191406 22.038053512573242 2.368561029434204
32.53862762451172 21.774354934692383 2.3682026863098145
32.38953399658203 21.388181686401367 2.3750734329223633
32.44963073730469 21.143264770507812 2.3737409114837646
32.46422576904297 20.87030601501465 2.3741025924682617
32.57460403442383 20.660064697265625 2.3706798553466797
32.55738067626953 20.370264053344727 2.372134208679199
32.4349250793457 20.017934799194336 2.377589702606201
32.305110931396484 19.665279388427734 2.3832547664642334
32.37785339355469 19.43844985961914 2.3810126781463623
32.325191497802734 19.138141632080078 2.3835527896881104
32.37364196777344 18.89968490600586 2.3821158409118652
32.51306915283203 18.714704513549805 2.377098798751831
32.66360855102539 18.535629272460938 2.3715896606445312
32.69019317626953 18.286609649658203 2.37080454826355
32.76833724975586 18.067399978637695 2.36796236038208
32.85819625854492 17.855077743530273 2.3646044731140137
32.987213134765625 17.664033889770508 2.3596713542938232
33.01966094970703 17.421709060668945 2.358402967453003
33.03707504272461 17.1727352142334 2.357651472091675
33.06068801879883 16.92830467224121 2.356597900390625
33.063812255859375 16.67477798461914 2.3562726974487305
33.08744430541992 16.432968139648438 2.3550944328308105
33.07884216308594 16.17656707763672 2.355100154876709
33.10435104370117 15.938231468200684 2.353726625442505
33.11554718017578 15.69420337677002 2.352846384048462
33.11050796508789 15.44387435913086 2.352534055709839
33.13361358642578 15.207958221435547 2.3510727882385254
33.145973205566406 14.96822738647461 2.3499691486358643
33.14659118652344 14.724453926086426 2.3492608070373535
33.161956787109375 14.488438606262207 2.3479232788085938
33.17658996582031 14.253183364868164 2.346555709838867
33.18498992919922 14.016350746154785 2.345372438430786
33.20927047729492 13.787232398986816 2.343515634536743
33.20793151855469 13.548527717590332 2.3425965309143066
33.23181915283203 13.321142196655273 2.340640068054199
33.112831115722656 13.038315773010254 2.344188690185547
33.15847396850586 12.82197380065918 2.3412749767303467
33.56707000732422 12.743907928466797 2.324147939682007
33.69314193725586 12.555909156799316 2.317965269088745
33.7168083190918 12.329771995544434 2.315718650817871
33.74931716918945 12.107527732849121 2.3130695819854736
33.74925994873047 11.87440299987793 2.3116376399993896
33.75706481933594 11.644994735717773 2.309843063354492
33.76237869262695 11.415616035461426 2.308091402053833
33.78038024902344 11.191324234008789 2.3057861328125
33.7759895324707 10.960453987121582 2.3043057918548584
33.79575729370117 10.738231658935547 2.301821708679199
33.80643844604492 10.513803482055664 2.2996397018432617
33.80799102783203 10.287321090698242 2.2977635860443115
33.81474304199219 10.063209533691406 2.295628786087036
33.8248176574707 9.840797424316406 2.2933080196380615
33.839202880859375 9.620281219482422 2.290762424468994
33.84926986694336 9.399155616760254 2.2883331775665283
33.854042053222656 9.17722225189209 2.2860608100891113
33.870887756347656 8.959159851074219 2.2832536697387695
33.880531311035156 8.739738464355469 2.280679941177368
33.908138275146484 8.525409698486328 2.2773334980010986
33.89848327636719 8.30227279663086 2.2754242420196533
33.88542556762695 8.079113006591797 2.273599147796631
33.91373825073242 7.866359233856201 2.2700610160827637
33.907569885253906 7.646088123321533 2.267855644226074
33.928287506103516 7.432389259338379 2.2645132541656494
33.948631286621094 7.218931198120117 2.2611310482025146
33.96274948120117 7.00449275970459 2.257946014404297
33.9647331237793 6.787997722625732 2.255197525024414
33.97024154663086 6.572690486907959 2.2522542476654053
33.966529846191406 6.356100082397461 2.2496325969696045
33.982093811035156 6.143535137176514 2.2461721897125244
33.9992790222168 5.931532382965088 2.242591142654419
34.02006912231445 5.720378398895264 2.2388057708740234
34.01686477661133 5.505518913269043 2.2359507083892822
34.018226623535156 5.291834831237793 2.2328546047210693
34.015281677246094 5.077898025512695 2.229884147644043
34.02781295776367 4.866600036621094 2.2262206077575684
34.047935485839844 4.656558036804199 2.2221882343292236
34.06577682495117 4.4463210105896 2.2181923389434814
34.071407318115234 4.234684467315674 2.2146482467651367
34.08168029785156 4.023847579956055 2.2108564376831055
33.553466796875 3.7529399394989014 2.2295360565185547
33.52699279785156 3.5419023036956787 2.227228879928589
33.58668899536133 3.340033531188965 2.2212514877319336
33.63820266723633 3.1369144916534424 2.2155537605285645
33.66061019897461 2.9308605194091797 2.2110204696655273
33.66582107543945 2.7233591079711914 2.2071573734283447
33.67573928833008 2.5163495540618896 2.2030398845672607
33.678401947021484 2.3089098930358887 2.1991748809814453
33.68277359008789 2.1017184257507324 2.195181131362915
33.654945373535156 1.8928184509277344 2.1925103664398193
12.101655006408691 0.6053869724273682 3.113757371902466
33.679264068603516 1.4799717664718628 2.1835830211639404
12.67211627960205 0.47821956872940063 3.086261510848999
19.313199996948242 0.6108782887458801 2.7972803115844727
33.72920608520508 0.8607159852981567 2.1691696643829346
33.74365234375 0.653994083404541 2.1643412113189697
33.75183868408203 0.4470599889755249 2.1597256660461426
33.7597541809082 0.24005605280399323 2.1550629138946533
33.76739501953125 0.032971758395433426 2.150353193283081
12.877303123474121 -0.06718558818101883 3.066028118133545
12.716745376586914 -0.14437654614448547 3.071408748626709
33.798675537109375 -0.5890429019927979 2.1354947090148926
33.80222702026367 -0.7965452671051025 2.1307260990142822
11.52642822265625 -0.34319403767585754 3.119276285171509
12.492456436157227 -0.448569118976593 3.0744552612304688
11.77275276184082 -0.4951266646385193 3.1049773693084717
12.738329887390137 -0.613935649394989 3.0598249435424805
13.376654624938965 -0.7269123792648315 3.029148817062378
12.85434341430664 -0.777692437171936 3.050844669342041
12.835305213928223 -0.8555992841720581 3.0497958660125732
33.87932586669922 -2.465195417404175 2.088158130645752
13.082625389099121 -1.0334270000457764 3.034586191177368
13.137679100036621 -1.1189080476760864 3.0300381183624268
12.312755584716797 -1.1248522996902466 3.0659871101379395
12.380121231079102 -1.207625389099121 3.060925006866455
12.722163200378418 -1.3197928667068481 3.043076992034912
12.758438110351562 -1.4027155637741089 3.0393271446228027
13.390524864196777 -1.5553455352783203 3.00770902633667
13.41535758972168 -1.6416990756988525 3.004323720932007
13.765594482421875 -1.7703063488006592 2.9855942726135254
13.927639961242676 -1.8780579566955566 2.975605010986328
11.84259033203125 -1.6711249351501465 3.072016954421997
13.818401336669922 -2.036264419555664 2.975985050201416
34.00905990600586 -5.223078727722168 2.0097053050994873
34.00181579589844 -5.435694694519043 2.003999710083008
34.004085540771484 -5.650219917297363 1.997768759727478
33.99909210205078 -5.863959789276123 1.9918164014816284
34.00651168823242 -6.080313682556152 1.9851911067962646
34.040061950683594 -6.302069187164307 1.9772202968597412
34.044700622558594 -6.519207000732422 1.9705754518508911
34.00091552734375 -6.7273359298706055 1.9662282466888428
33.886375427246094 -6.920986175537109 1.965305209159851
33.84795379638672 -7.12974739074707 1.9605900049209595
33.8453369140625 -7.346348285675049 1.9540375471115112
33.837440490722656 -7.562314987182617 1.9476715326309204
33.792144775390625 -7.770181655883789 1.9431020021438599
33.84957504272461 -8.002363204956055 1.933313012123108
33.82389450073242 -8.215741157531738 1.9276118278503418
34.03527069091797 -8.488556861877441 1.9098381996154785
34.050071716308594 -8.714505195617676 1.9018895626068115
34.079795837402344 -8.945263862609863 1.8930891752243042
34.09543228149414 -9.173343658447266 1.8849152326583862
34.089324951171875 -9.396379470825195 1.877768874168396
34.07695770263672 -9.618330001831055 1.8708635568618774
34.10920333862305 -9.853787422180176 1.8615598678588867
34.089073181152344 -10.075000762939453 1.8548859357833862
34.10957717895508 -10.309051513671875 1.8460034132003784
34.121803283691406 -10.541668891906738 1.8374576568603516
34.144840240478516 -10.77873420715332 1.8282428979873657
34.13962936401367 -11.007896423339844 1.8204251527786255
34.13668441772461 -11.238651275634766 1.812395691871643
34.14828109741211 -11.475192070007324 1.8034942150115967
34.15542221069336 -11.71132755279541 1.794730305671692
34.1656608581543 -11.949630737304688 1.7856996059417725
34.11687469482422 -12.168035507202148 1.7797714471817017
34.11737823486328 -12.4047212600708 1.77107834815979
34.30448532104492 -12.711612701416016 1.7520501613616943
34.31250762939453 -12.95460033416748 1.7426906824111938
34.31138610839844 -13.195297241210938 1.7337290048599243
34.32904815673828 -13.444479942321777 1.7236170768737793
34.31989288330078 -13.684391021728516 1.7148878574371338
34.35535430908203 -13.94347095489502 1.7035492658615112
34.340919494628906 -14.18367862701416 1.6948975324630737
34.34048080444336 -14.430810928344727 1.6853477954864502
34.36308670043945 -14.689069747924805 1.6743712425231934
29.643461227416992 -12.887489318847656 1.934946894645691
29.557233810424805 -13.066254615783691 1.9313491582870483
34.41410827636719 -15.466253280639648 1.6416406631469727
34.40643310546875 -15.717305183410645 1.6319079399108887
34.42414474487305 -15.981456756591797 1.6205734014511108
34.43448257446289 -16.24386215209961 1.6095383167266846
34.43568801879883 -16.503541946411133 1.598910927772522
34.469112396240234 -16.780458450317383 1.5862410068511963
34.4503059387207 -17.033618927001953 1.5765385627746582
34.41986083984375 -17.28225326538086 1.567415714263916
34.33339309692383 -17.503488540649414 1.5615592002868652
34.281864166259766 -17.743133544921875 1.5535024404525757
34.233985900878906 -17.985591888427734 1.5451204776763916
34.218780517578125 -18.24645233154297 1.5346273183822632
34.38081741333008 -18.604745864868164 1.5130729675292969
34.10821533203125 -18.728782653808594 1.5182148218154907
34.48875427246094 -19.214147567749023 1.4826730489730835
34.43689727783203 -19.463167190551758 1.4738306999206543
34.52360916137695 -19.792722702026367 1.4561331272125244
34.4979362487793 -20.060331344604492 1.4453470706939697
34.52102279663086 -20.358291625976562 1.4313124418258667
34.52717590332031 -20.648578643798828 1.418187141418457
34.54983901977539 -20.951091766357422 1.403828501701355
34.52499771118164 -21.226945877075195 1.3923712968826294
34.519256591796875 -21.5164852142334 1.3795174360275269
34.48086166381836 -21.787555694580078 1.3686413764953613
34.52956008911133 -22.116039276123047 1.3518667221069336
34.5252685546875 -22.413320541381836 1.3383978605270386
34.553653717041016 -22.73443031311035 1.322567343711853
34.52040481567383 -23.01740264892578 1.3106762170791626
34.62644577026367 -23.39640235900879 1.289196252822876
34.716766357421875 -23.769105911254883 1.2685067653656006
34.747196197509766 -24.104524612426758 1.2516517639160156
34.73233413696289 -24.411359786987305 1.2376947402954102
34.80934524536133 -24.786088943481445 1.2171721458435059
34.80046081542969 -25.103105545043945 1.2023732662200928
34.8043098449707 -25.432132720947266 1.1864781379699707
34.816650390625 -25.770465850830078 1.1697627305984497
34.816558837890625 -26.10271644592285 1.1537033319473267
34.84310531616211 -26.45827293395996 1.1355104446411133
34.86580276489258 -26.814525604248047 1.1173427104949951
34.86337661743164 -27.154870986938477 1.1007471084594727
34.89961624145508 -27.528961181640625 1.0810871124267578
34.89902877807617 -27.87771987915039 1.0638623237609863
34.790672302246094 -28.14274787902832 1.0543797016143799
34.764556884765625 -28.47644805908203 1.0386165380477905
34.93467330932617 -28.975948333740234 1.0078777074813843
34.918766021728516 -29.326440811157227 0.9907761216163635
34.90822219848633 -29.684938430786133 0.973015308380127
34.94225311279297 -30.085439682006836 0.9515713453292847
34.9079475402832 -30.431058883666992 0.9350920915603638
34.8939094543457 -30.79786491394043 0.9167879819869995
34.95335388183594 -31.234149932861328 0.8924468159675598
34.98653030395508 -31.652225494384766 0.8698150515556335
34.96656036376953 -32.026702880859375 0.8510679602622986
34.99526596069336 -32.450313568115234 0.8281316757202148
34.995338439941406 -32.85224533081055 0.8071551322937012
34.993221282958984 -33.25677490234375 0.7860305309295654
32.38786697387695 30.851804733276367 2.051090717315674
32.41401672363281 30.499828338623047 2.0550026893615723
32.337528228759766 30.0561580657959 2.06376051902771
32.48723602294922 29.826141357421875 2.0614089965820312
32.535404205322266 29.50478172302246 2.063861608505249
32.45282745361328 29.06926918029785 2.072479009628296
32.424522399902344 28.687538146972656 2.0783369541168213
32.575618743896484 28.467056274414062 2.075477123260498
32.5867919921875 28.126304626464844 2.079200506210327
32.59577941894531 27.787137985229492 2.082904100418091
32.590370178222656 27.43927001953125 2.087167978286743
32.63725280761719 27.138519287109375 2.088833808898926
32.625301361083984 26.791933059692383 2.093167543411255
32.647586822509766 26.47673225402832 2.0957682132720947
32.660221099853516 26.15665054321289 2.098710298538208
32.6740837097168 25.84050750732422 2.101483106613159
32.710506439208984 25.544870376586914 2.10309100151062
32.698631286621094 25.214365005493164 2.1068496704101562
32.71177673339844 24.906156539916992 2.1093318462371826
32.73675537109375 24.609548568725586 2.111158847808838
32.68791198730469 24.26056480407715 2.1163108348846436
32.519954681396484 23.828054428100586 2.1268680095672607
32.4410514831543 23.465885162353516 2.1331779956817627
32.501251220703125 23.20720863342285 2.13295316696167
32.54725646972656 22.940044403076172 2.133293867111206
32.54608917236328 22.641803741455078 2.135714292526245
32.53507995605469 22.3393497467041 2.138491630554199
32.56791687011719 22.06928062438965 2.139160633087158
32.67425537109375 21.850200653076172 2.136373281478882
32.434688568115234 21.4033260345459 2.149334192276001
32.46721267700195 21.140165328979492 2.1497421264648438
32.495216369628906 20.87579345703125 2.150270938873291
32.56508255004883 20.639690399169922 2.1488068103790283
32.5172119140625 20.3309383392334 2.1526248455047607
32.49824905395508 20.042959213256836 2.155036211013794
32.563209533691406 19.808439254760742 2.153548002243042
32.63422775268555 19.578500747680664 2.151707172393799
32.57121276855469 19.27007484436035 2.1558680534362793
32.428836822509766 18.918344497680664 2.1635396480560303
32.673152923583984 18.793306350708008 2.1536080837249756
32.672035217285156 18.526973724365234 2.1547203063964844
32.73080825805664 18.295978546142578 2.1530444622039795
32.81599044799805 18.080392837524414 2.150099754333496
32.94804763793945 17.890676498413086 2.1449639797210693
32.99179458618164 17.653345108032227 2.1437454223632812
33.01089096069336 17.40403175354004 2.1435651779174805
33.04502487182617 17.16390037536621 2.142630100250244
33.05166244506836 16.910808563232422 2.1428616046905518
33.06446838378906 16.66232681274414 2.1427407264709473
33.07368850708008 16.413436889648438 2.1427087783813477
33.08378982543945 16.1663761138916 2.142563819885254
33.089412689208984 15.918511390686035 2.1425492763519287
33.09956359863281 15.67418098449707 2.1422581672668457
33.10887145996094 15.430746078491211 2.141934394836426
33.14641189575195 15.20153522491455 2.140268325805664
33.14778137207031 14.956826210021973 2.140162706375122
33.15196228027344 14.714699745178223 2.139860153198242
33.15717315673828 14.474283218383789 2.139441967010498
33.18272018432617 14.243818283081055 2.1380395889282227
33.185516357421875 14.00464916229248 2.137594699859619
33.195865631103516 13.769807815551758 2.1367409229278564
33.202728271484375 13.534612655639648 2.1359786987304688
33.23207473754883 13.309513092041016 2.134134531021118
33.08976745605469 13.017616271972656 2.139970302581787
33.1278076171875 12.79854965209961 2.137603998184204
33.57916259765625 12.73685359954834 2.1165008544921875
33.69017791748047 12.543187141418457 2.1106932163238525
33.73439025878906 12.32463264465332 2.1078362464904785
33.71794128417969 12.08476734161377 2.107656717300415
33.74129104614258 11.860146522521973 2.1056113243103027
33.75843048095703 11.634068489074707 2.103781223297119
33.76366424560547 11.404706001281738 2.1024272441864014
33.787269592285156 11.182311058044434 2.100174903869629
33.77900314331055 10.950194358825684 2.099304437637329
33.78916931152344 10.724947929382324 2.0975341796875
33.806427001953125 10.502655982971191 2.0953779220581055
33.82223129272461 10.280555725097656 2.0932230949401855
33.818389892578125 10.05324649810791 2.09190034866333
33.81591033935547 9.827207565307617 2.0904533863067627
33.834999084472656 9.60812759399414 2.0879600048065186
33.844974517822266 9.387045860290527 2.0858194828033447
33.84675979614258 9.164374351501465 2.083991050720215
33.85964584350586 8.945350646972656 2.081592321395874
33.87595748901367 8.727761268615723 2.0789740085601807
33.8763427734375 8.506656646728516 2.0770246982574463
33.89372634887695 8.290385246276855 2.0742321014404297
33.909732818603516 8.074219703674316 2.071439504623413
33.897117614746094 7.851855278015137 2.069904327392578
33.907413482666016 7.635437965393066 2.0672528743743896
33.91828155517578 7.419615268707275 2.064512252807617
33.94635009765625 7.207888603210449 2.060912609100342
33.956459045410156 6.992669582366943 2.058081865310669
33.97010803222656 6.778574466705322 2.055025100708008
33.97357940673828 6.562868595123291 2.0523793697357178
33.97077941894531 6.346456527709961 2.049964189529419
33.97446060180664 6.131744384765625 2.047186851501465
33.98958206176758 5.919454097747803 2.043813467025757
34.008304595947266 5.708035469055176 2.040208339691162
34.00993728637695 5.494058132171631 2.0373423099517822
34.01515579223633 5.281041622161865 2.0342462062835693
34.0091667175293 5.066694259643555 2.031616449356079
34.02061462402344 4.855299949645996 2.0281052589416504
34.03866958618164 4.645036697387695 2.0242178440093994
34.05641555786133 4.434861660003662 2.0202815532684326
34.06492614746094 4.223659515380859 2.0167181491851807
34.08205795288086 4.0136871337890625 2.012683868408203
33.53899002075195 3.7412827014923096 2.03527569770813
33.522361755371094 3.5313968658447266 2.032778024673462
33.58095932006836 3.3294484615325928 2.0266242027282715
33.62840270996094 3.1259868144989014 2.020933151245117
33.64872741699219 2.919820785522461 2.0164740085601807
33.6578369140625 2.712719440460205 2.0124895572662354
33.66566848754883 2.5056138038635254 2.0085039138793945
33.66126251220703 2.297765016555786 2.0050461292266846
11.949923515319824 0.7407840490341187 3.053931474685669
33.63564682006836 1.8817896842956543 1.9987660646438599
12.143522262573242 0.6033779382705688 3.041785478591919
12.31456184387207 0.5362042784690857 3.0320205688476562
12.198771476745605 0.45619362592697144 3.036231279373169
12.925040245056152 0.40410009026527405 2.999131917953491
33.730403900146484 0.8508151173591614 1.9742157459259033
33.73377990722656 0.6438747644424438 1.9698708057403564
12.381771087646484 0.1590600460767746 3.0211844444274902
33.754695892333984 0.23009338974952698 1.960283637046814
33.7552604675293 0.023034855723381042 1.9558818340301514
33.75654983520508 -0.18403394520282745 1.951378583908081
12.811081886291504 -0.14971019327640533 2.993269920349121
12.742937088012695 -0.22711017727851868 2.9949491024017334
33.801719665527344 -0.8064709305763245 1.9353996515274048
33.796913146972656 -1.0138280391693115 1.9309332370758057
11.767230033874512 -0.4265934228897095 3.038907527923584
12.287184715270996 -0.5208429098129272 3.010883331298828
12.950043678283691 -0.628434956073761 2.9754252433776855
12.701544761657715 -0.6945396661758423 2.986178398132324
12.853473663330078 -0.7819350361824036 2.9765188694000244
12.863301277160645 -0.861763596534729 2.9740700721740723
11.809858322143555 -0.8641619086265564 3.026244878768921
13.146286010742188 -1.0428345203399658 2.955507516860962
12.643023490905762 -1.0810787677764893 2.979462146759033
12.279044151306152 -1.1259337663650513 2.9963247776031494
33.91658401489258 -3.3162972927093506 1.8684231042861938
12.750870704650879 -1.3270641565322876 2.9676976203918457
13.14840030670166 -1.44996178150177 2.9447638988494873
13.344507217407227 -1.554474949836731 2.932250738143921
13.370316505432129 -1.6406751871109009 2.928617000579834
33.94735336303711 -4.374060153961182 1.8382775783538818
12.349472045898438 -1.6696107387542725 2.9781301021575928
13.744982719421387 -1.943982481956482 2.9016644954681396
33.97699737548828 -5.015188694000244 1.8186707496643066
33.9858283996582 -5.229735851287842 1.8120312690734863
33.98344039916992 -5.443002223968506 1.8059132099151611
33.98956298828125 -5.65807580947876 1.7992589473724365
33.98743438720703 -5.872241973876953 1.7929699420928955
34.001651763916016 -6.089763164520264 1.7857141494750977
34.01348876953125 -6.307498931884766 1.7785007953643799
34.03472137451172 -6.527678966522217 1.7706873416900635
34.01143264770508 -6.739819049835205 1.7652289867401123
33.89387893676758 -6.932916164398193 1.764892816543579
33.87489700317383 -7.145843029022217 1.7590659856796265
33.87702560424805 -7.363676071166992 1.7519906759262085
33.93718338012695 -7.595103740692139 1.7415951490402222
33.93739318847656 -7.814108371734619 1.7344415187835693
33.942020416259766 -8.034781455993652 1.7269527912139893
33.98013687133789 -8.264300346374512 1.7174851894378662
34.030277252197266 -8.497974395751953 1.7072315216064453
34.02949142456055 -8.719938278198242 1.6997592449188232
34.079402923583984 -8.955913543701172 1.6893037557601929
34.07563781738281 -9.178810119628906 1.6818081140518188
34.07426834106445 -9.403059959411621 1.6740825176239014
34.09736251831055 -9.634968757629395 1.6648503541946411
34.10258865356445 -9.862800598144531 1.6565479040145874
34.1043815612793 -10.090493202209473 1.6483455896377563
34.11421585083008 -10.321470260620117 1.6395742893218994
34.12726974487305 -10.554423332214355 1.630510687828064
34.12636184692383 -10.784014701843262 1.6221630573272705
34.13056945800781 -11.01613998413086 1.613410472869873
34.1256217956543 -11.246223449707031 1.6050982475280762
34.1456298828125 -11.485572814941406 1.5951939821243286
34.14226150512695 -11.718137741088867 1.5865755081176758
34.142974853515625 -11.953073501586914 1.5776069164276123
34.100711822509766 -12.17369270324707 1.5711281299591064
34.113319396972656 -12.414726257324219 1.5612297058105469
34.25810241699219 -12.706012725830078 1.5431488752365112
34.288516998291016 -12.957196235656738 1.531886100769043
34.2938346862793 -13.200265884399414 1.5220365524291992
34.303035736083984 -13.446077346801758 1.5118281841278076
34.31328201293945 -13.693607330322266 1.5014317035675049
34.324554443359375 -13.94289493560791 1.4908465147018433
34.32206344604492 -14.187880516052246 1.4809972047805786
34.33073043823242 -14.438776969909668 1.470323085784912
34.339447021484375 -14.6910982131958 1.459517240524292
29.61540985107422 -12.885945320129395 1.7496017217636108
29.531911849975586 -13.06574821472168 1.7458728551864624
34.396575927734375 -15.470752716064453 1.4243133068084717
34.39607238769531 -15.72502613067627 1.4135562181472778
34.399169921875 -15.982398986816406 1.402431607246399
34.41303634643555 -16.246366500854492 1.3904674053192139
34.42584991455078 -16.511537551879883 1.3784254789352417
34.462730407714844 -16.7901554107666 1.3646513223648071
34.43663024902344 -17.039743423461914 1.35487699508667
34.44355392456055 -17.3071231842041 1.342780351638794
34.36756134033203 -17.533946990966797 1.3360744714736938
34.322879791259766 -17.777477264404297 1.3271692991256714
34.354251861572266 -18.061996459960938 1.3130083084106445
34.36492156982422 -18.33769989013672 1.3000764846801758
34.41651153564453 -18.637500762939453 1.2841905355453491
30.80971336364746 -16.9299259185791 1.5191396474838257
30.79480743408203 -17.168651580810547 1.5087956190109253
34.557708740234375 -19.545249938964844 1.2362834215164185
34.52083969116211 -19.805034637451172 1.22576904296875
34.5200309753418 -20.087186813354492 1.2125840187072754
34.51448059082031 -20.368558883666992 1.1995618343353271
34.53246307373047 -20.665987014770508 1.1847012042999268
34.57880401611328 -20.983041763305664 1.1676251888275146
34.52818298339844 -21.243389129638672 1.1572837829589844
34.52901840209961 -21.537181854248047 1.143088936805725
34.54694366455078 -21.844051361083984 1.1274669170379639
34.55146789550781 -22.144947052001953 1.1126166582107544
34.592098236083984 -22.47172737121582 1.0949193239212036
34.56747817993164 -22.758678436279297 1.0818040370941162
34.51655578613281 -23.03010368347168 1.0704630613327026
34.63145446777344 -23.41524314880371 1.0465772151947021
34.70420837402344 -23.776142120361328 1.025546908378601
34.7254524230957 -24.10523223876953 1.0081313848495483
34.7398681640625 -24.432605743408203 0.9909981489181519
34.798709869384766 -24.794647216796875 0.9702309370040894
34.77671813964844 -25.102256774902344 0.9554067850112915
34.78608703613281 -25.435266494750977 0.9379433989524841
34.80149459838867 -25.775867462158203 0.9197654724121094
34.804439544677734 -26.110424041748047 0.9023126363754272
34.820472717285156 -26.458059310913086 0.8835784792900085
34.85409927368164 -26.822696685791016 0.8631810545921326
34.832603454589844 -27.14824676513672 0.8469069600105286
34.88988494873047 -27.53884506225586 0.8240517973899841
34.874290466308594 -27.87570571899414 0.8067799210548401
34.76898193359375 -28.143091201782227 0.7965748310089111
34.75664138793945 -28.4880428314209 0.7785746455192566
34.90647888183594 -28.970924377441406 0.7468981742858887
34.87671661376953 -29.30968475341797 0.7297195792198181
34.88590621948242 -29.684734344482422 0.7090185284614563
34.94245147705078 -30.104637145996094 0.6840111017227173
34.905643463134766 -30.448284149169922 0.6665675044059753
34.86518096923828 -30.791950225830078 0.6491690278053284
34.965389251708984 -31.26463508605957 0.6193768382072449
34.99894714355469 -31.683448791503906 0.5949239134788513
34.966861724853516 -32.04720687866211 0.5758351683616638
34.95941925048828 -32.43755340576172 0.5542773604393005
35.0023193359375 -32.87956619262695 0.5279162526130676
34.97673416137695 -33.262115478515625 0.5072641372680664
32.3466911315918 30.861968994140625 1.7711639404296875
32.37883758544922 30.515642166137695 1.7761454582214355
32.3333625793457 30.100650787353516 1.7854032516479492
32.45024490356445 29.8402099609375 1.7852258682250977
32.52226257324219 29.54050636291504 1.7874741554260254
32.47134017944336 29.13295555114746 1.7965391874313354
32.41291809082031 28.723834991455078 1.805847406387329
32.57700729370117 28.514602661132812 1.8024717569351196
32.57799530029297 28.164608001708984 1.808135747909546
32.597206115722656 27.833843231201172 1.8126301765441895
32.588382720947266 27.482648849487305 1.81854248046875
32.58877182006836 27.14284896850586 1.823793649673462
32.639469146728516 26.847871780395508 1.8261138200759888
32.66761016845703 26.53691864013672 1.8295538425445557
32.66511917114258 26.204126358032227 1.8345493078231812
32.654300689697266 25.868024826049805 1.8398642539978027
32.6901741027832 25.571826934814453 1.8424826860427856
32.703880310058594 25.260894775390625 1.8461905717849731
32.72612762451172 24.959239959716797 1.8493047952651978
32.71717834472656 24.636632919311523 1.8539930582046509
32.746402740478516 24.345476150512695 1.8564825057983398
32.62510299682617 23.946123123168945 1.867003321647644
32.55030059814453 23.585521697998047 1.8748613595962524
32.525943756103516 23.26510238647461 1.8798623085021973
32.66211700439453 23.06111717224121 1.8761025667190552
32.648651123046875 22.752948760986328 1.8802913427352905
32.66392517089844 22.467329025268555 1.8828221559524536
32.48433303833008 22.051645278930664 1.8956671953201294
32.57893753051758 21.82528305053711 1.8937240839004517
32.65782165527344 21.589221954345703 1.8925275802612305
32.72499465942383 21.346464157104492 1.8918602466583252
32.67869186401367 21.031789779663086 1.8971264362335205
32.528564453125 20.654233932495117 1.9077867269515991
32.48172378540039 20.346134185791016 1.9128491878509521
32.682193756103516 20.193763732910156 1.904720664024353
32.748085021972656 19.95807647705078 1.9036293029785156
32.56486129760742 19.5736141204834 1.9155877828598022
32.5311393737793 19.28282356262207 1.9195476770401
32.671024322509766 19.096019744873047 1.9142698049545288
32.80204391479492 18.903736114501953 1.9093796014785767
32.84074020385742 18.658742904663086 1.9092568159103394
32.813167572021484 18.377866744995117 1.9125192165374756
32.87347412109375 18.14776039123535 1.9110814332962036
32.98483657836914 17.946247100830078 1.906884789466858
33.023658752441406 17.705820083618164 1.9064011573791504
33.04045867919922 17.45485496520996 1.9069809913635254
33.04567337036133 17.199281692504883 1.9080778360366821
33.049007415771484 16.944299697875977 1.9091845750808716
33.06472396850586 16.69713020324707 1.9095574617385864
33.077762603759766 16.449960708618164 1.9099842309951782
33.102474212646484 16.209848403930664 1.9097176790237427
33.10209274291992 15.958775520324707 1.91067373752594
33.122440338134766 15.719022750854492 1.9104667901992798
33.12933349609375 15.474125862121582 1.910876989364624
33.14445495605469 15.234325408935547 1.910776138305664
33.16334533691406 14.997389793395996 1.9103976488113403
33.124908447265625 14.736030578613281 1.9129163026809692
33.12203598022461 14.492124557495117 1.913507103919983
33.160545349121094 14.267362594604492 1.9118679761886597
33.15890884399414 14.026329040527344 1.9122341871261597
33.1832389831543 13.797356605529785 1.9111740589141846
33.20045852661133 13.566346168518066 1.9104053974151611
33.2420539855957 13.346063613891602 1.9082934856414795
33.09449768066406 13.051759719848633 1.9159202575683594
33.12714767456055 12.830473899841309 1.914118766784668
33.56165313720703 12.762642860412598 1.8913837671279907
33.67745590209961 12.570853233337402 1.8851103782653809
33.72652053833008 12.35407543182373 1.8822245597839355
33.74504852294922 12.12669563293457 1.8808470964431763
33.74604797363281 11.893908500671387 1.8803051710128784
33.760562896728516 11.666786193847656 1.8789854049682617
33.76411056518555 11.436726570129395 1.878161907196045
33.77653121948242 11.21052360534668 1.8768017292022705
33.786502838134766 10.984288215637207 1.8754953145980835
33.796875 10.758959770202637 1.874094009399414
33.80194091796875 10.53272533416748 1.8728951215744019
33.81601333618164 10.310039520263672 1.8711543083190918
33.81714630126953 10.084150314331055 1.8700146675109863
33.8177375793457 9.858915328979492 1.8688318729400635
33.840858459472656 9.640891075134277 1.8664002418518066
33.85006332397461 9.419473648071289 1.8646228313446045
33.85301208496094 9.19699478149414 1.8631007671356201
33.85740661621094 8.975603103637695 1.8614321947097778
33.86132049560547 8.754751205444336 1.8597166538238525
33.883174896240234 8.539070129394531 1.8569906949996948
33.88134765625 8.317972183227539 1.8554339408874512
33.92179870605469 8.10766315460205 1.851587176322937
33.90743637084961 7.884729862213135 1.8505479097366333
33.912078857421875 7.666902542114258 1.8484395742416382
33.928009033203125 7.4520978927612305 1.8456676006317139
33.94551086425781 7.238010406494141 1.8427401781082153
33.95481491088867 7.022571563720703 1.8401741981506348
33.97450256347656 6.80964469909668 1.8369886875152588
33.97423553466797 6.593125343322754 1.834787368774414
33.97357177734375 6.377048492431641 1.8325389623641968
33.989219665527344 6.16443395614624 1.8293540477752686
33.994686126708984 5.950316905975342 1.8266396522521973
34.0096435546875 5.738190650939941 1.823350429534912
34.00946807861328 5.523862838745117 1.820796012878418
34.01288604736328 5.310521602630615 1.8179805278778076
34.02088928222656 5.098233699798584 1.814850926399231
34.032508850097656 4.886754989624023 1.8114562034606934
34.042816162109375 4.6753249168396 1.8080605268478394
34.054786682128906 4.464339256286621 1.804505705833435
34.06940460205078 4.253877639770508 1.800736427307129
34.091651916503906 4.044461250305176 1.7964844703674316
33.53110885620117 3.7695655822753906 1.8236138820648193
33.514644622802734 3.5597004890441895 1.8213611841201782
33.58927536010742 3.3594186305999756 1.8141103982925415
33.63288116455078 3.155555486679077 1.808458924293518
33.654354095458984 2.9494521617889404 1.8039324283599854
33.65964126586914 2.7419865131378174 1.8002146482467651
33.691524505615234 2.5366644859313965 1.794974446296692
13.082147598266602 0.9045507311820984 2.918191432952881
33.67081069946289 2.1200780868530273 1.7888929843902588
33.66898727416992 1.9127073287963867 1.7852823734283447
33.675865173339844 1.7059423923492432 1.7811237573623657
13.15989875793457 0.5859886407852173 2.908085584640503
12.408859252929688 0.47632384300231934 2.9480366706848145
12.408470153808594 0.400101900100708 2.946587085723877
12.91465950012207 0.33712247014045715 2.917009115219116
12.457196235656738 0.2487422376871109 2.94085693359375
33.73536682128906 0.46595630049705505 1.75363290309906
33.756324768066406 0.25915905833244324 1.7481755018234253
12.548269271850586 0.019610067829489708 2.9310104846954346
12.631933212280273 -0.057747986167669296 2.9246675968170166
12.720108032226562 -0.13618580996990204 2.9180216789245605
12.738910675048828 -0.2145458310842514 2.9152352809906006
33.80607604980469 -0.7774587869644165 1.722821593284607
33.80940628051758 -0.9850732684135437 1.7178958654403687
33.808467864990234 -1.1926538944244385 1.713136911392212
12.482069969177246 -0.5167630314826965 2.922666072845459
12.572317123413086 -0.597778856754303 2.915681838989258
13.153524398803711 -0.7063285708427429 2.880540132522583
12.834929466247559 -0.7682009935379028 2.8968350887298584
11.835691452026367 -0.781258225440979 2.9523653984069824
12.255779266357422 -0.8845449686050415 2.926281690597534
12.592414855957031 -0.9865397214889526 2.9048662185668945
12.412943840026855 -1.0491284132003784 2.9132585525512695
12.373374938964844 -1.1222730875015259 2.9135398864746094
12.713950157165527 -1.2318580150604248 2.891624927520752
33.91550827026367 -3.496884822845459 1.6488854885101318
13.32588005065918 -1.4564111232757568 2.851423978805542
13.32155704498291 -1.5386977195739746 2.8493826389312744
12.499174118041992 -1.5214459896087646 2.895601987838745
33.954139709472656 -4.345259189605713 1.6230556964874268
33.98298263549805 -4.56102180480957 1.615243673324585
33.9728889465332 -4.772026062011719 1.6096558570861816
33.9891357421875 -4.987137794494629 1.602413535118103
33.99020767211914 -5.2005157470703125 1.5959893465042114
33.995845794677734 -5.415038108825684 1.589202642440796
34.00505828857422 -5.630642414093018 1.5821123123168945
34.00699996948242 -5.845549583435059 1.5753703117370605
29.27376365661621 -5.216996192932129 1.8560446500778198
34.02348709106445 -6.279147148132324 1.5608495473861694
34.03799057006836 -6.498023986816406 1.5530673265457153
34.019744873046875 -6.711134433746338 1.547195553779602
33.95810317993164 -6.915700435638428 1.5439091920852661
33.91477584838867 -7.123868942260742 1.539426326751709
33.919921875 -7.342538833618164 1.5318642854690552
33.954833984375 -7.5684895515441895 1.5223559141159058
33.99603271484375 -7.796931743621826 1.512344241142273
34.01820755004883 -8.022040367126465 1.5034081935882568
34.06993865966797 -8.25523853302002 1.492508053779602
34.053253173828125 -8.472743034362793 1.485801100730896
34.08643341064453 -8.703442573547363 1.4758459329605103
34.092952728271484 -8.928295135498047 1.4674677848815918
34.12594985961914 -9.161062240600586 1.4572962522506714
34.1246452331543 -9.385568618774414 1.449200987815857
34.10457992553711 -9.605536460876465 1.4422086477279663
34.106109619140625 -9.832245826721191 1.4337271451950073
34.137725830078125 -10.068655967712402 1.4231903553009033
34.12567901611328 -10.29314136505127 1.4153681993484497
34.13027572631836 -10.523447036743164 1.406355857849121
34.143802642822266 -10.75749683380127 1.3966470956802368
34.16429138183594 -10.994860649108887 1.3863617181777954
34.15374755859375 -11.223222732543945 1.3780014514923096
34.1255989074707 -11.4464750289917 1.3706986904144287
34.1649284362793 -11.69339656829834 1.3588037490844727
34.162925720214844 -11.927414894104004 1.3495334386825562
34.164974212646484 -12.163859367370605 1.3398725986480713
34.143829345703125 -12.392946243286133 1.3316541910171509
34.251258850097656 -12.670361518859863 1.3146216869354248
34.29866027832031 -12.92773723602295 1.3014848232269287
34.31903076171875 -13.176513671875 1.2900409698486328
34.33577346801758 -13.425299644470215 1.2787060737609863
34.331275939941406 -13.667034149169922 1.2686961889266968
34.34545135498047 -13.917465209960938 1.2572660446166992
34.35137939453125 -14.165923118591309 1.246267318725586
34.36106872558594 -14.417292594909668 1.2348685264587402
34.352439880371094 -14.662264823913574 1.2246127128601074
34.3356819152832 -14.904890060424805 1.2147959470748901
29.53990936279297 -13.039050102233887 1.5430437326431274
34.42729187011719 -15.449599266052246 1.1858783960342407
34.424163818359375 -15.702725410461426 1.1746538877487183
34.42917251586914 -15.961012840270996 1.1627014875411987
34.45125961303711 -16.2288818359375 1.1493661403656006
34.44794845581055 -16.486421585083008 1.1377043724060059
34.46160888671875 -16.753694534301758 1.1246566772460938
34.4813346862793 -17.025732040405273 1.1110000610351562
34.46779251098633 -17.282983779907227 1.099617600440979
34.41236877441406 -17.520339965820312 1.0911787748336792
34.35355758666992 -17.756750106811523 1.0828698873519897
34.412418365478516 -18.05568504333496 1.065659999847412
34.424861907958984 -18.33255958557129 1.0517197847366333
34.428165435791016 -18.60647201538086 1.0382879972457886
34.41102981567383 -18.871034622192383 1.0262305736541748
30.794458389282227 -17.134353637695312 1.2881479263305664
34.582889556884766 -19.521303176879883 0.9858446717262268
34.576438903808594 -19.798507690429688 0.972387969493866
34.553218841552734 -20.06785011291504 0.9600490927696228
34.55463409423828 -20.353349685668945 0.945624589920044
34.5949592590332 -20.664182662963867 0.9279655814170837
34.569602966308594 -20.93802261352539 0.9152417778968811
34.55153274536133 -21.21807098388672 0.901766300201416
34.523704528808594 -21.493940353393555 0.8888819813728333
34.60093307495117 -21.8378963470459 0.8674193620681763
34.56093215942383 -22.1104793548584 0.8551035523414612
34.5992431640625 -22.435504913330078 0.8362814784049988
34.62234878540039 -22.75361442565918 0.8184449672698975
34.56894302368164 -23.023622512817383 0.8066253662109375
34.74258804321289 -23.44843864440918 0.7759576439857483
34.73936462402344 -23.757972717285156 0.7595279812812805
34.73610305786133 -24.070053100585938 0.7428723573684692
34.74174118041992 -24.39101219177246 0.7252392172813416
34.833351135253906 -24.775972366333008 0.7001186013221741
34.800933837890625 -25.07607078552246 0.685167670249939
34.803199768066406 -25.40375518798828 0.6670441031455994
34.8308219909668 -25.753170013427734 0.6464870572090149
34.82591247558594 -26.081750869750977 0.6284487247467041
34.848472595214844 -26.43414878845215 0.6077650189399719
34.85060501098633 -26.774429321289062 0.5885713696479797
34.867183685302734 -27.129207611083984 0.5678293704986572
34.90892028808594 -27.50741958618164 0.5445615649223328
34.87323760986328 -27.82805061340332 0.5278534889221191
34.795352935791016 -28.11729621887207 0.5146765112876892
34.77313232421875 -28.454017639160156 0.49627044796943665
34.89939498901367 -28.916906356811523 0.4641016125679016
34.886775970458984 -29.269563674926758 0.4441680312156677
34.90077590942383 -29.648334503173828 0.4214812219142914
34.94168472290039 -30.054397583007812 0.3959609270095825
34.91496658325195 -30.406387329101562 0.37636590003967285
34.86652755737305 -30.74268341064453 0.35850661993026733
34.96558380126953 -31.213716506958008 0.3264155387878418
34.76487731933594 -31.420244216918945 0.32239165902137756
34.982425689697266 -32.009307861328125 0.27815917134284973
34.883033752441406 -32.314117431640625 0.2638791799545288
35.07005310058594 -32.88980484008789 0.22149407863616943
34.94603729248047 -33.17915725708008 0.2089412361383438
32.377906799316406 30.893566131591797 1.4876573085784912
32.3579216003418 30.497756958007812 1.4974396228790283
32.327735900878906 30.09723663330078 1.5076806545257568
32.452674865722656 29.844284057617188 1.507544755935669
32.51509475708008 29.53586196899414 1.5113554000854492
32.469390869140625 29.133073806762695 1.522034764289856
32.40279006958008 28.71672821044922 1.5338596105575562
32.562294006347656 28.50361442565918 1.5308701992034912
32.56928634643555 28.158973693847656 1.537584900856018
32.582401275634766 27.823101043701172 1.543731927871704
32.5933837890625 27.488780975341797 1.5498454570770264
32.60227584838867 27.15601348876953 1.555925965309143
32.63145446777344 26.84320640563965 1.560552716255188
32.65260696411133 26.526662826538086 1.5655337572097778
32.660980224609375 26.20274543762207 1.5711663961410522
32.64860916137695 25.865463256835938 1.5779484510421753
32.67817687988281 25.56439781188965 1.5819364786148071
32.70133590698242 25.260892868041992 1.5861811637878418
32.71724319458008 24.954431533813477 1.5907342433929443
32.69711685180664 24.62349510192871 1.597387671470642
32.75992965698242 24.357511520385742 1.5987358093261719
32.72571563720703 24.02194595336914 1.6059703826904297
32.542236328125 23.581647872924805 1.6222764253616333
32.57392883300781 23.30139923095703 1.6251215934753418
32.667869567871094 23.06716537475586 1.6240103244781494
32.62086868286133 22.735570907592773 1.6314400434494019
32.71092224121094 22.50165367126465 1.630330204963684
32.738189697265625 22.225969314575195 1.6329494714736938
32.714359283447266 21.918004989624023 1.6385622024536133
32.682159423828125 21.607315063476562 1.6445505619049072
32.721824645996094 21.346410751342773 1.6460394859313965
32.768768310546875 21.091779708862305 1.6469727754592896
32.756492614746094 20.80097198486328 1.6513779163360596
32.789283752441406 20.540802001953125 1.6529371738433838
32.76999282836914 20.250036239624023 1.6575241088867188
32.682716369628906 19.92026138305664 1.6660834550857544
32.619171142578125 19.608274459838867 1.6730821132659912
32.81161117553711 19.45110511779785 1.6645936965942383
32.856781005859375 19.206634521484375 1.664852261543274
32.854331970214844 18.935909271240234 1.6678556203842163
32.87845993041992 18.682218551635742 1.66916024684906
32.81706619262695 18.382095336914062 1.675462245941162
32.88175582885742 18.15438461303711 1.67413330078125
32.9799690246582 17.94566535949707 1.6707124710083008
33.00822067260742 17.699609756469727 1.6713593006134033
33.032928466796875 17.452951431274414 1.672115683555603
33.02928161621094 17.19282341003418 1.674453854560852
33.04057693481445 16.942054748535156 1.6758040189743042
33.0651969909668 16.69944953918457 1.676265835762024
33.06662368774414 16.446502685546875 1.6780015230178833
33.09130859375 16.20646858215332 1.6782640218734741
33.09900665283203 15.95937442779541 1.6794332265853882
33.120262145996094 15.720078468322754 1.679706335067749
33.113590240478516 15.468863487243652 1.6815314292907715
