# .PCD v0.7 - Point Cloud Data file format
VERSION 0.7
FIELDS x y z
SIZE 4 4 4
TYPE F F F
COUNT 1 1 1
WIDTH 854
HEIGHT 1
VIEWPOINT 0 0 0 1 0 0 0
POINTS 854
DATA ascii
14.076024055480957 9.344622611999512 0.6183249950408936
14.097289085388184 9.234925270080566 0.6241235136985779
14.138406753540039 9.138677597045898 0.625522792339325
14.169747352600098 9.036447525024414 0.6288550496101379
13.990416526794434 8.8020658493042 0.6765921115875244
13.988572120666504 8.681838035583496 0.6864708065986633
14.022720336914062 8.584578514099121 0.688593327999115
14.064628601074219 8.49231243133545 0.6889476776123047
14.103395462036133 8.39834213256836 0.6898269653320312
14.144935607910156 8.306208610534668 0.6899950504302979
14.175654411315918 8.207961082458496 0.6922805309295654
14.228780746459961 8.122822761535645 0.6897857785224915
14.277963638305664 8.035407066345215 0.687991201877594
14.35500717163086 7.963449954986572 0.6803429126739502
14.720105171203613 8.048563003540039 0.6134679913520813
15.15519905090332 8.166373252868652 0.5324918627738953
15.708724021911621 8.340991020202637 0.4276258051395416
15.726882934570312 0.5460944771766663 0.6493571400642395
12.858085632324219 -0.6585713624954224 1.1680117845535278
12.860350608825684 -0.7378094792366028 1.1650104522705078
12.860167503356934 -0.8169777393341064 1.1623845100402832
15.9781494140625 -1.6069211959838867 0.5403952598571777
16.01152801513672 -1.7095706462860107 0.529775857925415
15.995460510253906 -1.8071845769882202 0.5286214351654053
15.982698440551758 -1.9051326513290405 0.5267105102539062
15.974207878112793 -2.003605365753174 0.5238514542579651
15.786001205444336 -2.0784800052642822 0.5559350848197937
15.809515953063965 -2.1803483963012695 0.5466383099555969
15.911077499389648 -2.29392671585083 0.5219302773475647
15.835144996643066 -2.382267951965332 0.5318247079849243
15.93815803527832 -2.4978725910186768 0.5065101981163025
15.79908275604248 -2.5755228996276855 0.5286105871200562
16.41461753845215 -2.7793335914611816 0.40202152729034424
16.305051803588867 -2.96710467338562 0.4122081398963928
16.189664840698242 -3.04888653755188 0.42916354537010193
16.22998046875 -3.159743070602417 0.4151749908924103
16.066495895385742 -3.2304022312164307 0.44153833389282227
16.088253021240234 -3.33764386177063 0.4309944808483124
16.110252380371094 -3.445481538772583 0.42024990916252136
16.255176544189453 -3.5809450149536133 0.3847677707672119
16.096569061279297 -3.649761438369751 0.40985774993896484
16.107868194580078 -3.7564313411712646 0.4008199870586395
16.140405654907227 -5.591480731964111 0.256496787071228
16.159936904907227 -5.7096381187438965 0.24289104342460632
16.184160232543945 -5.8302412033081055 0.22810865938663483
16.185405731201172 -5.943244457244873 0.21798093616962433
16.197811126708984 -6.060952663421631 0.20531772077083588
16.079227447509766 -6.1294355392456055 0.22029049694538116
16.099401473999023 -6.250645160675049 0.20567861199378967
12.667126655578613 12.880609512329102 0.3688485622406006
12.698973655700684 12.755958557128906 0.3792218267917633
12.67809009552002 12.580107688903809 0.4027761220932007
12.708233833312988 12.456658363342285 0.4129788279533386
12.663125991821289 12.261435508728027 0.4419025480747223
13.179221153259277 12.60595417022705 0.3295750319957733
13.35241985321045 12.616133689880371 0.30385956168174744
12.804117202758789 11.950540542602539 0.45737117528915405
12.857247352600098 11.853785514831543 0.46061497926712036
12.890034675598145 11.738937377929688 0.4686789810657501
12.929946899414062 11.63137149810791 0.47477567195892334
12.977116584777832 11.53094482421875 0.47890251874923706
13.039070129394531 11.44400691986084 0.47926589846611023
13.0394926071167 11.303889274597168 0.4943073093891144
13.079044342041016 11.19875431060791 0.4996800720691681
13.10803508758545 11.085298538208008 0.5073815584182739
13.154248237609863 10.987043380737305 0.5107776522636414
13.192163467407227 10.882377624511719 0.515964686870575
13.23615550994873 10.783249855041504 0.5195336937904358
13.269466400146484 10.675971984863281 0.5254340767860413
13.3065824508667 10.572362899780273 0.5302550792694092
13.343704223632812 10.469305038452148 0.5348938703536987
13.372288703918457 10.360161781311035 0.5413299202919006
13.410194396972656 10.258831977844238 0.5454253554344177
13.447362899780273 10.157426834106445 0.5495180487632751
13.48458194732666 10.056535720825195 0.553428053855896
13.52186393737793 9.95615291595459 0.5571550130844116
13.567173957824707 9.862051010131836 0.5588946342468262
13.61583423614502 9.770634651184082 0.5597272515296936
13.610918045043945 9.641460418701172 0.572475254535675
13.692787170410156 9.5741548538208 0.5655317306518555
13.652119636535645 9.421835899353027 0.5858789086341858
13.925469398498535 9.485235214233398 0.536043107509613
14.025434494018555 9.428192138671875 0.5248851180076599
13.83103084564209 9.175071716308594 0.5787345170974731
13.856218338012695 9.070145606994629 0.5837053060531616
13.888903617858887 8.970590591430664 0.5868628621101379
13.930011749267578 8.876789093017578 0.5880220532417297
14.195259094238281 8.924159049987793 0.5401597619056702
14.020373344421387 8.694902420043945 0.5881479382514954
14.016857147216797 8.574368476867676 0.5985626578330994
14.063751220703125 8.485198020935059 0.5978901982307434
14.102473258972168 8.39124584197998 0.5988495349884033
13.978602409362793 8.202073097229004 0.6345805525779724
14.209537506103516 8.22109603881836 0.5940150022506714
14.240523338317871 8.123077392578125 0.596234142780304
14.274269104003906 8.026914596557617 0.5977211594581604
14.363265037536621 7.961631774902344 0.5873425006866455
14.69615364074707 8.028985977172852 0.525267481803894
15.12906265258789 8.1456937789917 0.44228336215019226
15.205257415771484 8.067045211791992 0.43470385670661926
15.267985343933105 7.980931758880615 0.42985445261001587
15.734176635742188 0.5412254333496094 0.5596186518669128
12.8572998046875 -0.7419724464416504 1.093202829360962
12.849242210388184 -0.8206232786178589 1.0921010971069336
15.913032531738281 -1.7042783498764038 0.4588187634944916
15.986659049987793 -1.8114347457885742 0.4397790729999542
15.984573364257812 -1.910606861114502 0.4357297122478485
15.938079833984375 -2.0043230056762695 0.4404580891132355
15.733522415161133 -2.076772451400757 0.47682178020477295
15.715222358703613 -2.172553300857544 0.47572991251945496
15.996267318725586 -2.311491012573242 0.4142383635044098
15.839790344238281 -2.3882217407226562 0.4406920373439789
15.750801086425781 -2.4737656116485596 0.45348286628723145
15.724273681640625 -2.568578004837036 0.4535633325576782
16.0325927734375 -3.024698257446289 0.36831167340278625
16.18077278137207 -3.155601739883423 0.3320068120956421
16.122236251831055 -3.247037410736084 0.3377366364002228
16.114070892333984 -3.3484420776367188 0.3330506384372711
16.303714752197266 -3.4923548698425293 0.2876102328300476
16.09581756591797 -3.551321029663086 0.3236749768257141
16.122060775756836 -3.661032199859619 0.31149423122406006
16.0349063873291 -3.744906425476074 0.32257917523384094
15.896811485290527 -3.8157317638397217 0.344144344329834
16.256206512451172 -5.637507438659668 0.13497541844844818
16.19413185119629 -5.83978796005249 0.1286551058292389
16.202617645263672 -5.955550670623779 0.11671026051044464
16.132291793823242 -6.042435646057129 0.12174636870622635
16.112775802612305 -6.148240089416504 0.11559588462114334
12.673670768737793 12.757405281066895 0.26581311225891113
12.713622093200684 12.642024040222168 0.2742080092430115
12.645353317260742 12.421257019042969 0.31080928444862366
12.656695365905762 12.281196594238281 0.32603919506073
12.730661392211914 12.20267105102539 0.3246658444404602
12.925463676452637 12.238566398620605 0.2918962240219116
12.853438377380371 12.022124290466309 0.32798460125923157
12.882486343383789 11.902395248413086 0.3376722037792206
12.925798416137695 11.796672821044922 0.34347769618034363
12.966838836669922 11.689549446105957 0.34965023398399353
13.009257316589355 11.584325790405273 0.35526540875434875
13.040544509887695 11.469932556152344 0.363470196723938
13.07982349395752 11.363323211669922 0.3694513440132141
13.12574577331543 11.2630615234375 0.37357714772224426
13.146943092346191 11.142333030700684 0.383633017539978
13.182981491088867 11.03501033782959 0.3897949457168579
13.225774765014648 10.93392562866211 0.3940988779067993
13.250319480895996 10.818435668945312 0.40267133712768555
13.270888328552246 10.700586318969727 0.4119877815246582
13.295894622802734 10.587177276611328 0.4200052320957184
13.325420379638672 10.478111267089844 0.4267212450504303
13.350231170654297 10.366068840026855 0.4343677759170532
13.3827486038208 10.260689735412598 0.4399665892124176
13.4324951171875 10.168939590454102 0.4412791430950165
13.477686882019043 10.074020385742188 0.44351842999458313
13.511153221130371 9.970762252807617 0.44836392998695374
13.547037124633789 9.869784355163574 0.4524613618850708
13.596549987792969 9.77906322479248 0.4531961977481842
13.643056869506836 9.68639850616455 0.45448508858680725
13.688940048217773 9.59352970123291 0.45576927065849304
13.798023223876953 9.544607162475586 0.4422760307788849
14.122825622558594 9.642032623291016 0.37899646162986755
13.773954391479492 9.280800819396973 0.47082245349884033
13.833492279052734 9.198330879211426 0.46834704279899597
13.877754211425781 9.105779647827148 0.46923568844795227
13.917277336120605 9.010359764099121 0.47105708718299866
13.904831886291504 8.882013320922852 0.48450562357902527
13.945354461669922 8.788195610046387 0.48576250672340393
14.361461639404297 8.928074836730957 0.4023125171661377
13.995213508605957 8.582097053527832 0.4948400855064392
14.037948608398438 8.490516662597656 0.4951477646827698
14.090209007263184 8.404770851135254 0.4931930899620056
14.132633209228516 8.313222885131836 0.4933009147644043
14.181260108947754 8.225411415100098 0.4918970465660095
14.207176208496094 8.124637603759766 0.4953860938549042
14.28115463256836 8.051342010498047 0.4881265461444855
14.300684928894043 7.947390556335449 0.4927389919757843
14.788885116577148 8.10059928894043 0.3944724500179291
14.729864120483398 7.951445579528809 0.4162144064903259
15.114334106445312 8.039885520935059 0.34102633595466614
15.734593391418457 0.5589192509651184 0.45706048607826233
12.877893447875977 -0.648979663848877 1.0080279111862183
12.865506172180176 -0.7275022864341736 1.007941484451294
12.851661682128906 -0.8058380484580994 1.0080571174621582
16.066158294677734 -1.6028510332107544 0.3277568221092224
15.995200157165527 -1.6949495077133179 0.33810099959373474
15.971421241760254 -1.7915928363800049 0.33861401677131653
15.827408790588379 -1.873842477798462 0.36386680603027344
15.972662925720215 -1.9904998540878296 0.32918787002563477
15.767419815063477 -2.06325101852417 0.36695823073387146
16.047109603881836 -2.200096368789673 0.3040361702442169
15.811824798583984 -2.266772508621216 0.3478938341140747
15.787511825561523 -2.362250566482544 0.347831130027771
15.734559059143066 -2.4531421661376953 0.3536263406276703
15.583446502685547 -2.5276362895965576 0.3798346221446991
15.622274398803711 -2.6324353218078613 0.36626097559928894
16.075220108032227 -2.8103373050689697 0.2657061517238617
15.978987693786621 -2.9960994720458984 0.2740253210067749
16.001211166381836 -3.102052688598633 0.26320475339889526
16.084182739257812 -3.2207000255584717 0.23939815163612366
16.073274612426758 -3.321261405944824 0.2352462261915207
16.060779571533203 -3.4216086864471436 0.23129694163799286
16.064870834350586 -3.5257081985473633 0.2236904799938202
16.071151733398438 -3.630636692047119 0.21546971797943115
16.023340225219727 -3.7233657836914062 0.21863362193107605
12.67676830291748 12.596632957458496 0.17197753489017487
12.629354476928711 12.396936416625977 0.20411516726016998
12.650457382202148 12.266634941101074 0.2172272801399231
13.038135528564453 11.745710372924805 0.22148248553276062
13.069906234741211 11.63029956817627 0.23018892109394073
13.080113410949707 11.496793746948242 0.24424795806407928
13.118827819824219 11.389339447021484 0.2506617605686188
13.150012969970703 11.276090621948242 0.25879570841789246
13.179557800292969 11.162251472473145 0.2671210467815399
13.190135955810547 11.033358573913574 0.280043363571167
13.232927322387695 10.93226146697998 0.28453871607780457
13.271173477172852 10.827949523925781 0.2899889647960663
13.306347846984863 10.721729278564453 0.2960126996040344
13.335347175598145 10.611207008361816 0.303378164768219
13.386643409729004 10.5189208984375 0.3049834668636322
13.404745101928711 10.401134490966797 0.314651221036911
13.453070640563965 10.307395935058594 0.3166331946849823
13.464751243591309 10.186217308044434 0.32745569944381714
13.509262084960938 10.090533256530762 0.3300093710422516
13.547578811645508 9.990608215332031 0.3339059054851532
13.58121395111084 9.887702941894531 0.33876293897628784
13.615692138671875 9.785902976989746 0.34323227405548096
13.655036926269531 9.68802547454834 0.34634989500045776
13.699320793151855 9.593972206115723 0.34811440110206604
13.751036643981934 9.505317687988281 0.34794408082962036
13.782757759094238 9.280055046081543 0.36419832706451416
13.822663307189941 9.184497833251953 0.36633673310279846
13.874221801757812 9.096867561340332 0.3655702471733093
13.892276763916016 8.987629890441895 0.37253716588020325
13.958306312561035 8.909655570983887 0.3680824637413025
13.953336715698242 8.78676986694336 0.3800826072692871
14.114056587219238 8.767816543579102 0.3533273935317993
14.045031547546387 8.60626220703125 0.37986451387405396
14.070277214050293 8.503729820251465 0.3843062222003937
14.115018844604492 8.413264274597168 0.38408857583999634
14.158333778381348 8.322070121765137 0.3840591609477997
14.201062202453613 8.230659484863281 0.38402441143989563
14.24660873413086 8.140981674194336 0.3832066059112549
14.329142570495605 7.957066059112549 0.3831099271774292
14.446959495544434 7.907187461853027 0.36552467942237854
15.746408462524414 0.5544639229774475 0.3543936610221863
12.880020141601562 -0.6532208323478699 0.9253981709480286
12.852952003479004 -0.7309213876724243 0.9284464716911316
12.857645034790039 -0.8103467226028442 0.9247047305107117
16.113441467285156 -1.6125717163085938 0.21469268202781677
16.016216278076172 -1.7021610736846924 0.23098644614219666
15.807673454284668 -1.7781574726104736 0.2708975374698639
15.73094367980957 -1.867343544960022 0.28269678354263306
15.868255615234375 -1.9824541807174683 0.24871854484081268
15.817530632019043 -2.0747716426849365 0.2547195553779602
16.021156311035156 -2.20156192779541 0.2061658501625061
15.95849323272705 -2.292819023132324 0.2144392877817154
15.840179443359375 -2.3751275539398193 0.2345665842294693
15.764952659606934 -2.46286678314209 0.2453688383102417
16.00689125061035 -2.6013882160186768 0.18776173889636993
16.05287742614746 -2.7100865840911865 0.17212620377540588
16.051881790161133 -2.8113505840301514 0.16647124290466309
16.16091537475586 -2.9327878952026367 0.13685168325901031
16.016246795654297 -3.008195400238037 0.16203336417675018
15.985525131225586 -3.1041252613067627 0.16242395341396332
16.002172470092773 -3.2094078063964844 0.15238261222839355
15.98843765258789 -3.308870792388916 0.14880821108818054
15.97217082977295 -3.4078807830810547 0.14565207064151764
12.655882835388184 12.271799087524414 0.1103837713599205
13.767012596130371 9.641538619995117 0.2312755584716797
13.810142517089844 9.546341896057129 0.23332737386226654
13.77089786529541 9.27224063873291 0.26764053106307983
13.817291259765625 9.181106567382812 0.26830199360847473
13.85571002960205 9.084915161132812 0.2707492709159851
13.902519226074219 8.994449615478516 0.27100199460983276
13.945436477661133 8.901642799377441 0.27204617857933044
14.065485000610352 8.619016647338867 0.2763475179672241
14.121854782104492 8.53513240814209 0.27357980608940125
14.172672271728516 8.447867393493652 0.27200213074684143
14.22295093536377 8.360298156738281 0.27041730284690857
14.259125709533691 8.264565467834473 0.27202510833740234
14.275947570800781 8.158003807067871 0.2780313193798065
16.19582176208496 0.7698010206222534 0.16595806181430817
15.747781753540039 0.5550143718719482 0.25938430428504944
12.840129852294922 -0.729925811290741 0.8537946343421936
12.848709106445312 -0.8095155954360962 0.8491519093513489
15.818659782409668 -1.9757320880889893 0.16335450112819672
15.772857666015625 -2.0683889389038086 0.16851688921451569
15.814599990844727 -2.172654628753662 0.15429624915122986
15.806326866149902 -2.270432472229004 0.15093708038330078
15.833197593688965 -2.373549222946167 0.13968321681022644
15.896074295043945 -2.482809543609619 0.12030699104070663
15.773924827575684 -2.662472724914551 0.1360005885362625
13.797722816467285 9.283388137817383 0.16804492473602295
13.856410026550293 9.200225830078125 0.16570277512073517
13.864655494689941 9.08395767211914 0.17581740021705627
13.888437271118164 8.978564262390137 0.18184687197208405
13.947761535644531 8.896384239196777 0.17887595295906067
13.989203453063965 8.802862167358398 0.1801939308643341
14.062177658081055 8.259315490722656 0.21708427369594574
15.749920845031738 0.5499810576438904 0.16962777078151703
12.836319923400879 -0.7340262532234192 0.7816329598426819
12.849719047546387 -0.8139024376869202 0.7758322954177856
15.683472633361816 -1.866342544555664 0.1079692468047142
15.613006591796875 -2.0525848865509033 0.11410802602767944
12.852229118347168 -0.7200873494148254 0.6984402537345886
12.85108470916748 -0.7991334199905396 0.6958672404289246
12.840546607971191 -0.7257854342460632 0.6182112693786621
12.844209671020508 -0.8050646781921387 0.6144729852676392
12.829410552978516 -0.7225796580314636 0.5404418706893921
12.841802597045898 -0.8023316860198975 0.5345439314842224
12.827438354492188 -0.724574089050293 0.4696398973464966
12.83687973022461 -0.8041321039199829 0.46436911821365356
12.829992294311523 -0.7144117951393127 0.39084842801094055
12.844305038452148 -0.7942741513252258 0.3842686116695404
12.821893692016602 -0.715751588344574 0.30695921182632446
12.841951370239258 -0.7959221005439758 0.2987518012523651
12.818148612976074 -0.7130002975463867 0.22907857596874237
12.885444641113281 -0.7960536479949951 0.20814910531044006
12.820712089538574 -0.7175213098526001 0.15862859785556793
12.8917236328125 -0.8008424043655396 0.136285200715065
13.600359916687012 13.781868934631348 0.14998571574687958
12.659659385681152 12.739519119262695 1.2913938760757446
12.675786972045898 12.66721248626709 1.2953966856002808
12.766940116882324 12.758612632751465 0.3755091428756714
12.704322814941406 12.603214263916016 1.2975233793258667
12.797615051269531 12.696146965026855 0.37841475009918213
12.719775199890137 12.530954360961914 1.301526665687561
12.720519065856934 12.532148361206055 0.4069799482822418
12.747295379638672 12.470881462097168 1.3033902645111084
12.72696304321289 12.451520919799805 0.4150597155094147
12.760313987731934 12.396942138671875 1.3076997995376587
12.78154182434082 12.335626602172852 1.3102184534072876
12.797472953796387 12.265204429626465 1.3139166831970215
31.04397964477539 29.55235481262207 0.3328208327293396
12.825651168823242 12.206796646118164 1.3154711723327637
31.06696128845215 29.36849021911621 0.3387598991394043
12.842755317687988 12.138114929199219 1.318862795829773
31.028667449951172 29.11798858642578 0.3512358069419861
12.868873596191406 12.07400894165039 1.320984125137329
12.900829315185547 12.104897499084473 0.42935168743133545
32.36538314819336 30.159381866455078 2.3988115787506104
31.113441467285156 28.994243621826172 0.3507238030433655
12.887163162231445 12.007049560546875 1.3240689039230347
12.928343772888184 12.046384811401367 0.4318711459636688
32.41714859008789 29.997026443481445 2.3983500003814697
31.11720848083496 28.795757293701172 0.35833510756492615
12.910606384277344 11.945165634155273 1.3262333869934082
12.951990127563477 11.984481811523438 0.4352457523345947
32.47954177856445 29.85556983947754 2.39743971824646
31.225130081176758 28.704259872436523 0.3549683392047882
12.931708335876465 11.885518074035645 1.3284423351287842
12.958786010742188 11.911489486694336 0.44209039211273193
32.513301849365234 29.67801856994629 2.397538423538208
31.31382179260254 28.585041046142578 0.3538883328437805
12.947284698486328 11.816911697387695 1.3318336009979248
12.983667373657227 11.851262092590332 0.4450361430644989
32.53510284423828 29.49052619934082 2.398014783859253
13.0092191696167 11.793804168701172 2.1962130069732666
12.97172737121582 11.756671905517578 1.3336896896362305
13.008289337158203 11.791009902954102 0.44798097014427185
32.49655532836914 29.249744415283203 2.400503635406494
12.988534927368164 11.689766883850098 1.3367737531661987
13.027155876159668 11.725781440734863 0.45221060514450073
32.4679069519043 29.01958465576172 2.402627944946289
13.010584831237793 11.627847671508789 1.3389358520507812
13.051237106323242 11.665492057800293 0.4551534950733185
32.475433349609375 28.823158264160156 2.4034996032714844
13.081323623657227 11.612297058105469 2.1984729766845703
13.039782524108887 11.572501182556152 1.3398667573928833
13.069530487060547 11.600271224975586 0.459382563829422
32.531986236572266 28.66101837158203 2.4027469158172607
13.108715057373047 11.551106452941895 2.1989927291870117
13.057722091674805 11.503334045410156 1.3429044485092163
13.09876823425293 11.54092025756836 0.4614206850528717
32.60538101196289 28.52427864074707 2.40134596824646
13.131953239440918 11.490519523620605 2.1997432708740234
13.082680702209473 11.444637298583984 1.3444489240646362
13.116486549377441 11.475693702697754 0.4656488299369812
32.60725021362305 28.335702896118164 2.4022774696350098
13.149178504943848 11.428936004638672 2.200911045074463
13.101665496826172 11.384940147399902 1.3466540575027466
13.141225814819336 11.42085075378418 0.46777692437171936
32.6101188659668 28.149066925048828 2.4031503200531006
13.171801567077637 11.372252464294434 2.2015204429626465
13.122275352478027 11.326860427856445 1.3485510349273682
13.15269660949707 11.354702949523926 0.47290927171707153
32.6188850402832 27.958656311035156 2.4038500785827637
13.186698913574219 11.305130958557129 2.2030136585235596
13.144603729248047 11.266478538513184 1.3504010438919067
13.17892074584961 11.297529220581055 0.4749895930290222
32.60197067260742 27.74747085571289 2.405383825302124
13.208883285522461 11.244504928588867 2.2037618160247803
13.168559074401855 11.207685470581055 1.3519419431686401
13.195531845092773 11.232327461242676 0.4792165160179138
32.625980377197266 27.57223129272461 2.405519723892212
13.232707977294922 11.18547248840332 2.2043230533599854
13.1865816116333 11.144057273864746 1.3544076681137085
13.219369888305664 11.173505783081055 0.48172464966773987
32.63670349121094 27.37701416015625 2.4061195850372314
13.258219718933105 11.12409782409668 2.20483660697937
13.206244468688965 11.078137397766113 1.3568264245986938
13.244887351989746 11.112343788146973 0.4841856360435486
32.64170455932617 27.187782287597656 2.4068386554718018
13.277700424194336 11.061810493469238 2.2057690620422363
13.225595474243164 11.016115188598633 1.3589824438095093
13.268218040466309 11.053458213806152 0.486691951751709
32.65541076660156 27.006813049316406 2.4072413444519043
13.29883098602295 11.001111030578613 2.206514358520508
13.244675636291504 10.954094886779785 1.3611384630203247
13.283709526062012 10.988266944885254 0.4909175634384155
32.66438674926758 26.822912216186523 2.407777786254883
13.315845489501953 10.937236785888672 2.2076332569122314
13.267317771911621 10.895221710205078 1.3626762628555298
13.314132690429688 10.935606002807617 0.49170154333114624
32.69185256958008 26.65506362915039 2.4076709747314453
13.340307235717773 10.879677772521973 2.208003282546997
13.291635513305664 10.837891578674316 1.3639036417007446
13.325263977050781 10.867300033569336 0.4967873692512512
32.68819046020508 26.453351974487305 2.408618211746216
13.360599517822266 10.815045356750488 2.2088868618011475
13.311800956726074 10.773519515991211 1.3660112619400024
13.35326862335205 10.809118270874023 0.498383104801178
32.70423889160156 26.2780704498291 2.4088430404663086
13.380668640136719 10.754303932189941 2.209630012512207
13.331748008728027 10.71302318572998 1.3678560256958008
13.373401641845703 10.748581886291504 0.5013157725334167
32.71164321899414 26.096765518188477 2.4093310832977295
13.404373168945312 10.69666576385498 2.2099974155426025
13.34561538696289 10.647879600524902 1.3706284761428833
13.40097713470459 10.694181442260742 0.5025251507759094
32.714271545410156 25.912628173828125 2.409954786300659
13.425885200500488 10.637443542480469 2.2105515003204346
13.37669563293457 10.596631050109863 1.3706142902374268
13.416755676269531 10.630541801452637 0.5063185095787048
32.715457916259766 25.737590789794922 2.4105682373046875
13.443346977233887 10.579004287719727 2.2113401889801025
13.388198852539062 10.53382682800293 1.3734335899353027
13.442030906677246 10.57840347290039 0.5075724124908447
32.71635437011719 25.554040908813477 2.4112014770507812
13.454543113708496 10.512081146240234 2.2128326892852783
13.407119750976562 10.473307609558105 1.3752762079238892
13.451470375061035 10.510217666625977 0.5126587748527527
32.72625732421875 25.378461837768555 2.411513090133667
13.479226112365723 10.455904006958008 2.2130093574523926
13.431660652160645 10.417343139648438 1.3761885166168213
13.476162910461426 10.454168319702148 0.514295220375061
32.74126052856445 25.207691192626953 2.4116299152374268
13.495779037475586 10.393596649169922 2.213937520980835
13.448113441467285 10.355284690856934 1.3783400058746338
13.485021591186523 10.386054992675781 0.5193824768066406
32.743560791015625 25.028026580810547 2.412147045135498
13.529884338378906 10.344927787780762 2.2131705284118652
13.478093147277832 10.303780555725098 1.3783191442489624
13.509218215942383 10.329974174499512 0.5210171341896057
32.75895309448242 24.85922622680664 2.4122061729431152
13.54991626739502 10.285595893859863 2.2137203216552734
13.492067337036133 10.240195274353027 1.3807801008224487
13.519460678100586 10.26342487335205 0.5256732106208801
32.76158142089844 24.68160057067871 2.412665605545044
13.57168960571289 10.227753639221191 2.214080810546875
13.511707305908203 10.181118965148926 1.3823096752166748
13.541202545166016 10.20582389831543 0.5277388095855713
32.77537536621094 24.51323890686035 2.412731647491455
13.585240364074707 10.163908004760742 2.215195655822754
13.539046287536621 10.127968788146973 1.3825949430465698
13.574538230895996 10.157044410705566 0.52721107006073
32.738460540771484 24.29914665222168 2.414480447769165
13.598264694213867 10.096234321594238 2.216451644897461
13.555976867675781 10.063515663146973 1.3846967220306396
13.585725784301758 10.088167190551758 0.5318188071250916
32.58757400512695 24.011314392089844 2.419955015182495
13.627294540405273 10.044286727905273 2.2160544395446777
13.574872970581055 10.00438404083252 1.3862239122390747
13.608726501464844 10.031940460205078 0.5334494709968567
32.43305587768555 23.723356246948242 2.425523042678833
13.640029907226562 9.980484962463379 2.2171690464019775
13.593525886535645 9.945245742797852 1.3877501487731934
13.627532005310059 9.972770690917969 0.5359434485435486
32.460899353027344 23.578990936279297 2.4250097274780273
13.668914794921875 9.932283401489258 2.216628074645996
13.616231918334961 9.892842292785645 1.3883906602859497
13.642374992370605 9.914522171020508 0.5389182567596436
32.482086181640625 23.42171859741211 2.4247162342071533
13.69126033782959 9.87578010559082 2.216794729232788
13.634413719177246 9.83366584777832 1.389916181564331
13.656695365905762 9.852461814880371 0.5422771573066711
32.51680374145508 23.274770736694336 2.4239556789398193
13.707297325134277 9.814885139465332 2.217529296875
13.658400535583496 9.778816223144531 1.3905059099197388
13.672752380371094 9.791855812072754 0.5452037453651428
32.579402923583984 23.148128509521484 2.4222517013549805
13.733235359191895 9.761219024658203 2.2173147201538086
13.682170867919922 9.723918914794922 1.3910948038101196
13.686545372009277 9.729830741882324 0.5485625267028809
32.56187057495117 22.965158462524414 2.42317533493042
13.752856254577637 9.703180313110352 2.217668294906616
13.70167064666748 9.666111946105957 1.3923057317733765
13.681966781616211 9.655050277709961 0.5558202862739563
32.57609176635742 22.796979904174805 2.4230453968048096
13.775959014892578 9.64415168762207 2.2177820205688477
13.72463321685791 9.607316970825195 1.393155574798584
13.70895004272461 9.59921932220459 0.5565318465232849
32.608001708984375 22.641830444335938 2.422307252883911
13.792672157287598 9.580815315246582 2.218465566635132
13.749385833740234 9.549897193908691 1.393691897392273
13.735706329345703 9.543314933776855 0.5572421550750732
32.60236358642578 22.469757080078125 2.422773599624634
13.811556816101074 9.522726058959961 2.2188172340393066
13.770215034484863 9.493419647216797 1.3945878744125366
13.776812553405762 9.50092601776123 0.5545305609703064
32.51366424560547 22.25006103515625 2.425947904586792
13.826498985290527 9.465625762939453 2.219407558441162
13.787127494812012 9.43791675567627 1.39584481716156
13.972579002380371 9.56787395477295 0.5184652805328369
32.49799346923828 22.073280334472656 2.426704168319702
13.855220794677734 9.414521217346191 2.2188048362731934
13.80955982208252 9.382786750793457 1.396426796913147
14.193005561828613 9.64637565612793 0.4775518476963043
32.57060241699219 21.956945419311523 2.4245262145996094
13.87342357635498 9.356362342834473 2.219154119491577
13.825603485107422 9.323452949523926 1.3979461193084717
14.191652297973633 9.573396682739258 0.4839199185371399
32.56836700439453 21.798805236816406 2.4247889518737793
13.891840934753418 9.302000045776367 2.2193610668182373
13.852161407470703 9.27481460571289 1.3976364135742188
14.061482429504395 9.418084144592285 0.5172601938247681
32.5296630859375 21.60896873474121 2.4262452125549316
13.913735389709473 9.24657154083252 2.219326972961426
13.867754936218262 9.215445518493652 1.3991544246673584
13.91974925994873 9.25313663482666 0.5531765222549438
32.44621658325195 21.390789031982422 2.429156541824341
13.9395751953125 9.193848609924316 2.2189090251922607
13.889314651489258 9.160178184509277 1.399732232093811
13.943509101867676 9.199091911315918 0.553922176361084
32.44529724121094 21.22817611694336 2.4293265342712402
13.954788208007812 9.134232521057129 2.2194466590881348
13.914807319641113 9.107585906982422 1.3996821641921997
13.962944030761719 9.142300605773926 0.5555359125137329
32.42897033691406 21.056306838989258 2.4299840927124023
13.97811508178711 9.080052375793457 2.219217538833618
13.929703712463379 9.048172950744629 1.401198148727417
13.97182846069336 9.078777313232422 0.5593226552009583
32.432838439941406 20.898344039916992 2.4299569129943848
13.99704647064209 9.023120880126953 2.2193706035614014
13.956864356994629 8.996828079223633 1.4008320569992065
13.982512474060059 9.016636848449707 0.5626749396324158
32.50969696044922 20.78772735595703 2.427502393722534
14.019947052001953 8.968851089477539 2.2191390991210938
13.973386764526367 8.938720703125 1.402032732963562
14.017815589904785 8.970452308654785 0.5608071088790894
32.5714111328125 20.667457580566406 2.425530195236206
14.042642593383789 8.914533615112305 2.2189064025878906
14.002241134643555 8.888583183288574 1.401349425315857
14.011399269104004 8.897738456726074 0.5676403641700745
32.60664749145508 20.52268409729004 2.424412965774536
14.062450408935547 8.85505485534668 2.2190065383911133
14.017755508422852 8.826655387878418 1.4028127193450928
14.006179809570312 8.822738647460938 0.5744264721870422
32.6341552734375 20.389314651489258 2.423527956008911
14.083178520202637 8.803105354309082 2.2188215255737305
14.044684410095215 8.778827667236328 1.4021759033203125
32.53722381591797 20.171289443969727 2.426727056503296
14.10100269317627 8.746027946472168 2.2189700603485107
14.05610179901123 8.718006134033203 1.40400230884552
14.39598560333252 8.932286262512207 0.503639280796051
32.4647216796875 19.969905853271484 2.429103136062622
14.120723724365234 8.690239906311035 2.2189254760742188
14.084168434143066 8.667611122131348 1.4033123254776
14.3891019821167 8.858777046203613 0.5104550719261169
32.49786376953125 19.83435821533203 2.427978038787842
14.155118942260742 8.643511772155762 2.2175302505493164
14.093000411987305 8.605494499206543 1.405452847480774
14.272640228271484 8.718706130981445 0.539943516254425
32.53900909423828 19.70400619506836 2.426569700241089
14.174432754516602 8.58760929107666 2.217482566833496
14.116418838500977 8.552414894104004 1.4053900241851807
14.125907897949219 8.561697006225586 0.5755560994148254
32.49823760986328 19.524703979492188 2.427844285964966
14.19566822052002 8.53296184539795 2.217241048812866
14.146017074584961 8.503108024597168 1.404380202293396
14.172353744506836 8.522507667541504 0.5710554122924805
32.43513870239258 19.333131790161133 2.4298360347747803
14.223118782043457 8.482098579406738 2.216418504714966
14.1626615524292 8.446078300476074 1.4052590131759644
14.12990665435791 8.430136680603027 0.584879457950592
32.395957946777344 19.149303436279297 2.431015968322754
14.238977432250977 8.421049118041992 2.216703176498413
14.18694019317627 8.390348434448242 1.4051406383514404
14.17318058013916 8.385836601257324 0.5811978578567505
32.453880310058594 19.031082153320312 2.428981065750122
14.272477149963379 8.373836517333984 2.215296745300293
14.213834762573242 8.339542388916016 1.4044405221939087
14.210626602172852 8.341320991516113 0.5784364938735962
32.46385192871094 18.88504409790039 2.428509473800659
14.286431312561035 8.315205574035645 2.215630292892456
14.234114646911621 8.28490924835205 1.4046852588653564
14.220281600952148 8.280545234680176 0.5813506245613098
32.50022506713867 18.7623233795166 2.427156925201416
14.309505462646484 8.26530933380127 2.215045928955078
14.24846363067627 8.230240821838379 1.405611276626587
14.25170612335205 8.23582935333252 0.5795091390609741
32.60445785522461 18.671142578125 2.423539876937866
14.344650268554688 8.21904468536377 2.2134385108947754
14.276937484741211 8.180475234985352 1.4045902490615845
14.278002738952637 8.184833526611328 0.5789250135421753
32.682373046875 18.564655303955078 2.4207725524902344
14.3579740524292 8.160320281982422 2.2137694358825684
14.2923002243042 8.123260498046875 1.4054635763168335
14.32979679107666 8.14835262298584 0.5730907917022705
32.73598098754883 18.444358825683594 2.4187886714935303
14.381918907165527 8.107721328735352 2.2131285667419434
14.318238258361816 8.072125434875488 1.4047553539276123
14.29574203491211 8.06324577331543 0.5847501754760742
32.76298522949219 18.309284210205078 2.4176652431488037
14.433956146240234 8.070866584777832 2.2099578380584717
14.352652549743652 8.025747299194336 1.4027791023254395
14.3514986038208 8.028940200805664 0.5780358910560608
32.79719543457031 18.186025619506836 2.4162979125976562
14.376860618591309 7.976926803588867 1.4021177291870117
14.3670654296875 7.975356578826904 0.5792469382286072
32.87665939331055 18.072952270507812 2.413393259048462
14.421835899353027 7.936910629272461 0.5729089379310608
32.957000732421875 17.967683792114258 2.4104535579681396
14.946228981018066 8.153227806091309 2.168640375137329
32.98644256591797 17.834735870361328 2.409176826477051
14.931594848632812 8.078316688537598 1.330481767654419
33.015357971191406 17.70180320739746 2.4078993797302246
33.056983947753906 17.575927734375 2.406184434890747
33.06939697265625 17.43482208251953 2.4054174423217773
27.758453369140625 14.642129898071289 1.0377675294876099
33.094520568847656 17.300792694091797 2.404212713241577
27.818031311035156 14.549799919128418 1.0349894762039185
33.11100769042969 17.1552734375 2.40325665473938
27.820064544677734 14.421401977539062 1.0373945236206055
33.09056091308594 16.998517990112305 2.4035251140594482
27.807966232299805 14.292341232299805 1.0408823490142822
33.10505676269531 16.860260009765625 2.4026196002960205
27.848604202270508 14.190693855285645 1.0396666526794434
33.104923248291016 16.722251892089844 2.4022045135498047
33.11159896850586 16.58089256286621 2.4015259742736816
33.12888717651367 16.44524574279785 2.4004781246185303
33.12993240356445 16.30195426940918 2.399951934814453
33.1416130065918 16.164335250854492 2.399057388305664
33.1459846496582 16.023571014404297 2.398387908935547
33.149784088134766 15.882974624633789 2.3977208137512207
32.61505889892578 15.635557174682617 0.636557400226593
33.15300750732422 15.74254322052002 2.3970577716827393
32.65119934082031 15.513097763061523 0.6357863545417786
33.16740798950195 15.600752830505371 2.3959763050079346
32.69406509399414 15.386998176574707 0.6345000863075256
33.17399215698242 15.462745666503906 2.3951661586761475
32.99805450439453 15.389732360839844 0.6101849675178528
33.17549133300781 15.32278823852539 2.394509792327881
33.10564041137695 15.29958438873291 0.6030526757240295
33.18512725830078 15.193997383117676 2.393599033355713
33.15143585205078 15.187679290771484 0.6011791229248047
33.18551254272461 15.054357528686523 2.392948865890503
33.183589935302734 15.062636375427246 0.6005711555480957
33.19673538208008 14.920023918151855 2.391920328140259
33.19255065917969 14.927335739135742 0.6019452214241028
33.19601058959961 14.780710220336914 2.391275405883789
33.18958282470703 14.787081718444824 0.6043152809143066
33.21528625488281 14.65065860748291 2.389946222305298
33.17008590698242 14.639988899230957 0.6080798506736755
33.20659255981445 14.508648872375488 2.389535427093506
33.20476150512695 14.517166137695312 0.6070756316184998
33.2225341796875 14.377796173095703 2.3882856369018555
33.19097137451172 14.37348461151123 0.6102506518363953
33.22418212890625 14.24109935760498 2.387498140335083
33.20864486694336 14.243828773498535 0.6106407046318054
33.23234558105469 14.100724220275879 2.3864388465881348
33.1846809387207 14.089923858642578 0.6147006750106812
33.24209976196289 13.968212127685547 2.3853466510772705
33.196678161621094 13.958589553833008 0.6154939532279968
33.23287582397461 13.828126907348633 2.384875774383545
33.21736145019531 13.831171989440918 0.615490198135376
33.24387741088867 13.696840286254883 2.383711099624634
33.216827392578125 13.695234298706055 0.6172845363616943
33.26356506347656 13.576169967651367 2.382279872894287
33.261837005615234 13.585046768188477 0.6150002479553223
33.26895523071289 13.443161010742188 2.381272315979004
33.26492691040039 13.451150894165039 0.6163970828056335
33.271488189697266 13.309348106384277 2.380345106124878
33.26749038696289 13.317399978637695 0.6177965402603149
33.20612716674805 13.149007797241211 2.381688356399536
33.206974029541016 13.15900993347168 0.6246142387390137
33.18425369262695 13.006607055664062 2.3815548419952393
33.1689567565918 13.01030158996582 0.6294365525245667
33.178096771240234 12.87084674835205 2.3808770179748535
33.15586853027344 12.871938705444336 0.6320556998252869
33.22972106933594 12.757671356201172 2.3782358169555664
33.19105911254883 12.752588272094727 0.6304565072059631
33.37942886352539 12.684884071350098 0.6156511902809143
33.516571044921875 12.603410720825195 0.6051715612411499
33.72639465332031 12.53821849822998 2.3585965633392334
33.75864791870117 12.560229301452637 0.5856013298034668
33.74892807006836 12.419435501098633 2.3569061756134033
33.73441696166992 12.424139976501465 0.5889241099357605
33.77788543701172 12.296459197998047 2.354933500289917
33.7890625 12.310615539550781 0.5854659676551819
33.768775939941406 12.159889221191406 2.3542346954345703
33.770633697509766 12.170672416687012 0.5882683396339417
33.822689056396484 12.046163558959961 2.3513834476470947
33.7774772644043 12.04020881652832 0.588850200176239
33.79843521118164 11.90481948852539 2.351168155670166
33.78851318359375 11.911502838134766 0.5890288949012756
33.80900573730469 11.776117324829102 2.349755048751831
33.80141830444336 11.783684730529785 0.5890055298805237
33.80728530883789 11.64341926574707 2.348745822906494
33.80677795410156 11.653488159179688 0.5895914435386658
33.82632827758789 11.518123626708984 2.347013473510742
33.81635284423828 11.525002479553223 0.5897728800773621
33.80663299560547 11.373387336730957 2.3465304374694824
33.8179817199707 11.3875093460083 0.5906452536582947
33.83416748046875 11.25140380859375 2.3444764614105225
33.82419204711914 11.258417129516602 0.5910319089889526
33.85889434814453 11.128582954406738 2.342501401901245
33.834651947021484 11.13097858428955 0.5910143852233887
33.84752655029297 10.994152069091797 2.3417446613311768
33.83515167236328 11.00052261352539 0.5918110013008118
33.84326171875 10.86889362335205 2.340789318084717
33.84749984741211 10.880675315856934 0.5915104746818542
33.85469055175781 10.742412567138672 2.339223623275757
33.83992004394531 10.74817180633545 0.5929231643676758
33.84657669067383 10.610006332397461 2.3383126258850098
33.843719482421875 10.61958122253418 0.5933176875114441
33.873756408691406 10.488872528076172 2.3361752033233643
33.85893630981445 10.494782447814941 0.5926921963691711
33.8664665222168 10.350810050964355 2.3351457118988037
33.85880661010742 10.358994483947754 0.5933750867843628
33.86640548706055 10.221734046936035 2.3339123725891113
33.863525390625 10.231416702270508 0.5935694575309753
33.8652229309082 10.086165428161621 2.3326401710510254
33.85995864868164 10.095174789428711 0.5944610834121704
33.88640213012695 9.970314025878906 2.3307085037231445
33.861961364746094 9.973724365234375 0.594782292842865
33.88010787963867 9.840154647827148 2.3296456336975098
33.848487854003906 9.841594696044922 0.5964186787605286
33.87162399291992 9.716071128845215 2.328709602355957
33.873531341552734 9.727270126342773 0.5946895480155945
33.890804290771484 9.593729019165039 2.326738119125366
33.87109375 9.598822593688965 0.5953027606010437
33.885475158691406 9.464649200439453 2.325598955154419
33.89216613769531 9.477219581604004 0.5938600301742554
33.89894485473633 9.341033935546875 2.3237948417663574
33.90079116821289 9.352272987365723 0.5934457182884216
33.88783264160156 9.210885047912598 2.3228261470794678
33.90655517578125 9.226725578308105 0.593238890171051
33.89470672607422 9.07954216003418 2.3211512565612793
33.9110221862793 9.09468936920166 0.5931151509284973
33.88744354248047 8.950998306274414 2.320020914077759
33.91584014892578 8.96929931640625 0.5929094552993774
33.89662170410156 8.827021598815918 2.3183040618896484
33.917781829833984 8.843356132507324 0.5929121971130371
33.91744613647461 8.706195831298828 2.3161654472351074
33.914432525634766 8.716266632080078 0.5933296084403992
33.92181396484375 8.587573051452637 2.3146562576293945
33.91636657714844 8.597061157226562 0.5932518839836121
33.93935012817383 8.4661226272583 2.312600612640381
33.91451644897461 8.47081184387207 0.59346604347229
33.94918441772461 8.342863082885742 2.3107991218566895
33.92429733276367 8.347658157348633 0.592644453048706
33.94643020629883 8.21670150756836 2.309422254562378
33.94089126586914 8.226295471191406 0.591201663017273
33.961631774902344 8.088788032531738 2.3073275089263916
33.94391632080078 8.095527648925781 0.5908799171447754
33.96036148071289 7.963379383087158 2.305868148803711
33.94990921020508 7.971909523010254 0.5902673006057739
33.96837615966797 7.840326309204102 2.3040690422058105
33.953025817871094 7.847785472869873 0.5898634195327759
33.96619415283203 7.715100288391113 2.302612781524658
33.95812225341797 7.724287509918213 0.5892522931098938
33.97198486328125 7.5980916023254395 2.300938129425049
33.968746185302734 7.6084089279174805 0.5881410241127014
33.97868347167969 7.475200653076172 2.2991397380828857
33.97783660888672 7.48607873916626 0.5871137380599976
33.97760009765625 7.350769996643066 2.2976019382476807
33.97674560546875 7.361667633056641 0.5869218707084656
33.99318313598633 7.230076313018799 2.2954583168029785
33.982513427734375 7.238912105560303 0.586104154586792
33.99120330810547 7.105783939361572 2.293922185897827
33.97321701049805 7.113142490386963 0.5865424871444702
34.004676818847656 6.9786763191223145 2.2917404174804688
33.98905563354492 6.986613750457764 0.5847648978233337
34.004234313964844 6.855031967163086 2.2901182174682617
34.003238677978516 6.865996360778809 0.5831112265586853
34.01804733276367 6.734386920928955 2.2879745960235596
34.00477600097656 6.7429423332214355 0.5825055241584778
34.00821304321289 6.615372180938721 2.286741018295288
34.012062072753906 6.627323150634766 0.5813949108123779
34.013816833496094 6.4933762550354 2.2848594188690186
34.01518249511719 6.504857540130615 0.5805801153182983
34.01787185668945 6.37735652923584 2.2831037044525146
33.99962615966797 6.385166645050049 0.5813615918159485
34.0212516784668 6.249056816101074 2.2811858654022217
34.01521301269531 6.259200572967529 0.5793732404708862
34.02799987792969 6.127639293670654 2.279217481613159
34.02436447143555 6.1382575035095215 0.5779297351837158
34.02693557739258 6.00494909286499 2.277514696121216
34.037994384765625 6.01819372177124 0.5760634541511536
34.03774642944336 5.884467601776123 2.2753701210021973
34.03156661987305 5.894707679748535 0.5758837461471558
34.03580093383789 5.761898517608643 2.2736687660217285
34.03451156616211 5.77300500869751 0.5748617649078369
34.046722412109375 5.635516166687012 2.2713980674743652
34.03799819946289 5.64541482925415 0.5737156867980957
34.05375671386719 5.514673709869385 2.2693419456481934
34.02775955200195 5.521819591522217 0.5737521052360535
34.05295181274414 5.3926777839660645 2.2675535678863525
34.034297943115234 5.401096820831299 0.5723087191581726
34.05912399291992 5.2719011306762695 2.2654974460601807
34.057640075683594 5.283066272735596 0.569383978843689
34.06397247314453 5.15709114074707 2.2635657787323
34.057518005371094 5.167523384094238 0.5684881806373596
34.06435775756836 5.035630226135254 2.2616891860961914
34.05786895751953 5.04609489440918 0.5674694776535034
34.07915496826172 4.916369915008545 2.259273052215576
34.07258224487305 4.9268646240234375 0.5651765465736389
34.08611297607422 4.796022891998291 2.2571260929107666
34.0794792175293 4.806549549102783 0.563519299030304
34.0852165222168 4.674668788909912 2.2552504539489746
34.0859489440918 4.686245441436768 0.5618627667427063
34.093788146972656 4.554702281951904 2.2530126571655273
34.08458709716797 4.564962387084961 0.5608440637588501
34.092803955078125 4.42749547958374 2.251011848449707
34.09837341308594 4.439727306365967 0.5584217309951782
34.11042785644531 4.308808326721191 2.24841046333313
34.09366989135742 4.318212985992432 0.5576176643371582
34.10283279418945 4.187008380889893 2.246718406677246
34.076171875 4.1952643394470215 0.5578812956809998
34.12706756591797 4.069158554077148 2.243840456008911
34.10026931762695 4.077514171600342 0.5545158982276917
34.11338806152344 3.9644508361816406 0.5521292090415955
33.565799713134766 3.6522629261016846 2.2586326599121094
33.54345703125 3.531446933746338 2.2574450969696045
33.36216735839844 3.5237200260162354 0.6129624843597412
33.57039260864258 3.415886163711548 2.2544186115264893
33.341827392578125 3.403996229171753 0.6132909059524536
33.629825592041016 3.297485589981079 2.2500641345977783
33.34145736694336 3.2805936336517334 0.611781656742096
33.67087173461914 3.1829280853271484 2.246471881866455
33.255767822265625 3.155061721801758 0.617703914642334
33.69660186767578 3.066765785217285 2.2434310913085938
33.26140213012695 3.0385453701019287 0.6156797409057617
33.694549560546875 2.9480690956115723 2.241408586502075
33.05819320678711 2.903733253479004 0.6317387223243713
33.70902633666992 2.8367679119110107 2.238858222961426
32.61820602416992 2.756199598312378 0.6684178709983826
33.71613311767578 2.718916893005371 2.2364630699157715
33.01221466064453 2.6735033988952637 0.6325851678848267
33.70787048339844 2.599897861480713 2.2346267700195312
33.24958801269531 2.5759787559509277 0.6102910041809082
33.71165466308594 2.4818859100341797 2.232323408126831
32.80856704711914 2.4267144203186035 0.6469319462776184
33.71503448486328 2.3638792037963867 2.230020046234131
