# .PCD v0.7 - Point Cloud Data file format
VERSION 0.7
FIELDS x y z
SIZE 4 4 4
TYPE F F F
COUNT 1 1 1
WIDTH 850
HEIGHT 1
VIEWPOINT 0 0 0 1 0 0 0
POINTS 850
DATA ascii
33.07152557373047 16.198598861694336 1.4602652788162231
33.098960876464844 15.961176872253418 1.4607378244400024
33.0877571105957 15.706477165222168 1.4636377096176147
33.092769622802734 15.460966110229492 1.465366005897522
33.12141418457031 15.2276611328125 1.465441346168518
33.154808044433594 14.997465133666992 1.465102195739746
33.13282012939453 14.743486404418945 1.468281865119934
33.108055114746094 14.489943504333496 1.4715358018875122
33.11902618408203 14.253437995910645 1.472353219985962
33.144893646240234 14.024344444274902 1.4720970392227173
33.176570892333984 13.79853630065918 1.4713633060455322
33.17900466918945 13.561535835266113 1.4724366664886475
33.204795837402344 13.335068702697754 1.4718897342681885
33.08235168457031 13.050914764404297 1.480891466140747
33.11962890625 12.831514358520508 1.4793988466262817
33.512779235839844 12.748080253601074 1.454673171043396
33.66487503051758 12.570209503173828 1.4455351829528809
33.716705322265625 12.354544639587402 1.442821979522705
33.734283447265625 12.126895904541016 1.4422399997711182
33.74751663208008 11.898500442504883 1.4418431520462036
33.75827407836914 11.670072555541992 1.4415123462677002
33.747650146484375 11.435230255126953 1.4424751996994019
33.75815200805664 11.20850658416748 1.4419726133346558
33.776641845703125 10.985170364379883 1.4408577680587769
33.7879524230957 10.760211944580078 1.4401154518127441
33.79873275756836 10.535821914672852 1.4393151998519897
33.80802917480469 10.311705589294434 1.4385193586349487
33.78429412841797 10.078453063964844 1.4397763013839722
33.80304718017578 9.858735084533691 1.4381835460662842
33.82709503173828 9.641079902648926 1.436155080795288
33.841087341308594 9.421090126037598 1.4346890449523926
33.84499740600586 9.198934555053711 1.433788776397705
33.85420608520508 8.978875160217285 1.4324536323547363
33.86391830444336 8.75954818725586 1.4309965372085571
33.88479995727539 8.543610572814941 1.4287232160568237
33.894615173339844 8.325364112854004 1.4270801544189453
33.90205764770508 8.107084274291992 1.4255030155181885
33.9149055480957 7.890609264373779 1.4234857559204102
33.903011322021484 7.668995380401611 1.4229921102523804
33.920867919921875 7.454678535461426 1.4204716682434082
33.9315185546875 7.239180088043213 1.4183332920074463
33.9495964050293 7.025650501251221 1.4156215190887451
33.95752716064453 6.810402870178223 1.4134845733642578
33.96409225463867 6.5953216552734375 1.4113496541976929
33.955570220947266 6.377835273742676 1.4101152420043945
33.9741325378418 6.165868282318115 1.4070210456848145
33.99333953857422 5.954257011413574 1.4037960767745972
34.008277893066406 5.742142200469971 1.4007623195648193
34.013031005859375 5.528625011444092 1.3983118534088135
34.014469146728516 5.314955711364746 1.395991325378418
34.013580322265625 5.101326942443848 1.3937392234802246
34.02616882324219 4.890037536621094 1.3905119895935059
34.0413932800293 4.679327964782715 1.3870234489440918
34.05037307739258 4.4679646492004395 1.383859395980835
34.05506896972656 4.256294250488281 1.3808921575546265
34.064395904541016 4.045438766479492 1.3775312900543213
33.63811111450195 3.785733222961426 1.402970552444458
33.5056266784668 3.5628621578216553 1.4088879823684692
33.56429672241211 3.3610527515411377 1.4020355939865112
33.61975860595703 3.1584692001342773 1.3953005075454712
33.641197204589844 2.9524500370025635 1.3907403945922852
33.6544075012207 2.7457165718078613 1.3866384029388428
33.66834259033203 2.5390806198120117 1.382401943206787
33.68001174926758 2.332306385040283 1.378228783607483
33.65256881713867 2.123094081878662 1.3765901327133179
33.64972686767578 1.9157800674438477 1.3732199668884277
33.65657043457031 1.7091362476348877 1.369112253189087
33.66114807128906 1.5024341344833374 1.3650705814361572
33.66545104980469 1.2957768440246582 1.3609588146209717
19.26890754699707 0.6227839589118958 2.330592393875122
13.017684936523438 0.3404187560081482 2.7517755031585693
33.738582611083984 0.6772123575210571 1.3440141677856445
12.407137870788574 0.1721239984035492 2.7900946140289307
33.74276351928711 0.26326286792755127 1.335286259651184
33.74943542480469 0.05629238113760948 1.3304777145385742
12.730133056640625 -0.057633135467767715 2.76320743560791
33.77592468261719 -0.35804101824760437 1.3196884393692017
33.77678298950195 -0.5652799606323242 1.3150050640106201
12.83031940460205 -0.2942359745502472 2.751086950302124
33.80161666870117 -0.9806076288223267 1.3037762641906738
33.81161117553711 -1.1885207891464233 1.2981884479522705
33.8193359375 -1.3965542316436768 1.2926641702651978
33.742069244384766 -1.600760817527771 1.2929415702819824
12.805742263793945 -0.6870533227920532 2.7433269023895264
12.883827209472656 -0.7705249786376953 2.735891819000244
12.872773170471191 -0.8491455912590027 2.734622001647949
12.816466331481934 -0.9244351983070374 2.736488103866577
12.514073371887207 -0.9798571467399597 2.7556028366088867
33.88216018676758 -2.8600733280181885 1.2507258653640747
12.811848640441895 -1.161460041999817 2.730400562286377
12.740825653076172 -1.233877420425415 2.733211040496826
12.762672424316406 -1.3150699138641357 2.7294304370880127
13.946187019348145 -1.5234251022338867 2.643099069595337
14.004830360412598 -1.6168287992477417 2.636399507522583
12.392370223999023 -1.5079141855239868 2.7489359378814697
12.66773509979248 -1.620320200920105 2.7269115447998047
12.63668155670166 -1.6952095031738281 2.726736307144165
12.621979713439941 -1.7721354961395264 2.7253592014312744
12.591019630432129 -1.846631407737732 2.725123167037964
12.630614280700684 -1.931665062904358 2.719756603240967
12.530742645263672 -1.9951536655426025 2.724454641342163
12.512250900268555 -2.0710020065307617 2.723234176635742
34.000125885009766 -5.839996814727783 1.1527341604232788
29.248897552490234 -5.209033489227295 1.4932451248168945
34.01845932006836 -6.273834705352783 1.1369372606277466
34.03779983520508 -6.493594646453857 1.1281242370605469
34.012657165527344 -6.7053422927856445 1.1224782466888428
33.943199157714844 -6.9082770347595215 1.1200155019760132
33.91156768798828 -7.118809223175049 1.1146645545959473
33.9302978515625 -7.340389728546143 1.1054648160934448
33.94563293457031 -7.562036037445068 1.096398115158081
33.9741096496582 -7.787490367889404 1.086225986480713
34.049625396728516 -8.025016784667969 1.0723880529403687
34.0692138671875 -8.250619888305664 1.0626174211502075
34.073768615722656 -8.47339916229248 1.0538592338562012
34.09231948852539 -8.700489044189453 1.0439180135726929
34.11033630371094 -8.92838191986084 1.0338884592056274
34.116233825683594 -9.153980255126953 1.0246564149856567
34.117759704589844 -9.379196166992188 1.0156347751617432
34.116844177246094 -9.604504585266113 1.006676435470581
34.12210464477539 -9.832365989685059 0.9971168041229248
34.12681198120117 -10.06093692779541 0.9874729514122009
34.11566925048828 -10.285618782043457 0.9789319634437561
34.15355682373047 -10.526108741760254 0.9664394855499268
34.13650894165039 -10.750679016113281 0.958101212978363
34.1246337890625 -10.977575302124023 0.9492344260215759
34.15957260131836 -11.220601081848145 0.9365443587303162
34.1578254699707 -11.452740669250488 0.9266082048416138
34.150733947753906 -11.683991432189941 0.9169601202011108
34.173160552978516 -11.926429748535156 0.9048226475715637
34.13939666748047 -12.150193214416504 0.8970356583595276
34.13229751586914 -12.384194374084473 0.8869826197624207
34.2105827331543 -12.650729179382324 0.8698928952217102
34.271942138671875 -12.913064002990723 0.8539811968803406
34.295989990234375 -13.16305160522461 0.8409205675125122
34.31917953491211 -13.414183616638184 0.827766478061676
34.32945251464844 -13.661672592163086 0.8155050873756409
34.338905334472656 -13.910167694091797 0.803152859210968
34.319854736328125 -14.148273468017578 0.7929964065551758
34.34514617919922 -14.405952453613281 0.7790113091468811
34.3447151184082 -14.654300689697266 0.7669954895973206
34.36722183227539 -14.91390323638916 0.7528959512710571
29.5075740814209 -13.02100658416748 1.1496049165725708
34.41835021972656 -15.440881729125977 0.7236378788948059
34.416954040527344 -15.694726943969727 0.7110182046890259
34.414634704589844 -15.949552536010742 0.6983067393302917
34.4231071472168 -16.210891723632812 0.6844992637634277
34.449440002441406 -16.482398986816406 0.6689719557762146
34.448631286621094 -16.742637634277344 0.6555918455123901
34.45753479003906 -17.009220123291016 0.6411872506141663
34.46089553833008 -17.27475929260254 0.6270761489868164
34.39387130737305 -17.50615882873535 0.6189432740211487
34.349212646484375 -17.749744415283203 0.6087071895599365
34.43264389038086 -18.061511993408203 0.5869833827018738
34.38328170776367 -18.30563735961914 0.5767979621887207
34.40414047241211 -18.58869171142578 0.5601844191551208
30.837846755981445 -16.907333374023438 0.8653618693351746
30.792434692382812 -17.129117965698242 0.8558654189109802
34.568153381347656 -19.50813102722168 0.4998183250427246
34.589317321777344 -19.801015853881836 0.48223283886909485
34.56248474121094 -20.0683650970459 0.4688069224357605
34.56459045410156 -20.354337692260742 0.45252320170402527
34.59101486206055 -20.656940460205078 0.4337659478187561
34.61842727661133 -20.962692260742188 0.4146645963191986
34.5941047668457 -21.239307403564453 0.4001427888870239
34.58038330078125 -21.524316787719727 0.38441434502601624
34.556026458740234 -21.80463409423828 0.3694663941860199
34.579063415527344 -22.117151260375977 0.34979885816574097
34.63051223754883 -22.450834274291992 0.3271503448486328
34.58751678466797 -22.725767135620117 0.31326454877853394
30.43544578552246 -20.26643180847168 0.6957977414131165
30.302736282348633 -20.447715759277344 0.6923945546150208
34.664085388183594 -23.701499938964844 0.2502674162387848
34.66999816894531 -24.019250869750977 0.23060578107833862
34.74837112426758 -24.390644073486328 0.2035108059644699
29.888687133789062 -21.254838943481445 0.6662904024124146
29.974905014038086 -21.594484329223633 0.6405060291290283
29.717493057250977 -21.687450408935547 0.6488834023475647
29.68209457397461 -21.94219207763672 0.6348814964294434
29.60638427734375 -22.168643951416016 0.6247600317001343
29.567129135131836 -22.423898696899414 0.6107425689697266
29.56220817565918 -22.707435607910156 0.5929739475250244
32.36643981933594 30.842239379882812 0.9729622006416321
32.40277862548828 30.500125885009766 0.9814090728759766
32.319915771484375 30.05065155029297 0.9993419647216797
32.44156265258789 29.795122146606445 1.000367283821106
32.491798400878906 29.476179122924805 1.0069994926452637
32.463523864746094 29.08979606628418 1.0197455883026123
32.41455078125 28.689653396606445 1.0338963270187378
32.55352783203125 28.45875358581543 1.0327680110931396
32.56926727294922 28.122190475463867 1.041306495666504
32.58438491821289 27.788450241088867 1.049678087234497
32.61114501953125 27.467805862426758 1.0569192171096802
32.60835266113281 27.125537872314453 1.0662872791290283
32.609535217285156 26.790042877197266 1.0751289129257202
32.6620979309082 26.49958038330078 1.0797449350357056
32.670265197753906 26.175779342651367 1.0876445770263672
32.67021560668945 25.84854507446289 1.0959858894348145
32.71065139770508 25.556093215942383 1.1009941101074219
32.697364807128906 25.2244930267334 1.1099742650985718
32.70269012451172 24.910348892211914 1.1173254251480103
32.7389030456543 24.622291564941406 1.122121810913086
32.73515319824219 24.306758880615234 1.1298068761825562
32.774654388427734 24.025840759277344 1.1340094804763794
32.54188919067383 23.549896240234375 1.1587578058242798
32.62289047241211 23.30516815185547 1.1594339609146118
32.66786193847656 23.03617286682129 1.1626975536346436
32.700111389160156 22.760089874267578 1.1667689085006714
32.7302131652832 22.484479904174805 1.1708464622497559
32.77964782714844 22.223920822143555 1.1733201742172241
32.730072021484375 21.898658752441406 1.1830629110336304
32.77935791015625 21.64194107055664 1.1852433681488037
32.78993225097656 21.361469268798828 1.1901679039001465
32.84616470336914 21.11244773864746 1.1915459632873535
32.78511047363281 20.79030418395996 1.2014899253845215
32.805110931396484 20.522113800048828 1.2052627801895142
18.43658447265625 11.375868797302246 2.271799087524414
18.416337966918945 11.20807933807373 2.2760791778564453
18.416122436523438 11.053808212280273 2.2787983417510986
18.38551139831543 10.88267707824707 2.2836687564849854
32.887428283691406 19.197078704833984 1.2233169078826904
32.95063781738281 18.964122772216797 1.2230957746505737
32.90720748901367 18.6715145111084 1.2305412292480469
32.831817626953125 18.363588333129883 1.2401692867279053
32.88236618041992 18.12812614440918 1.2404780387878418
32.987388610839844 17.923227310180664 1.2367082834243774
33.010189056396484 17.674381256103516 1.2387957572937012
33.02766036987305 17.4240665435791 1.2411458492279053
33.05923843383789 17.18248748779297 1.2423499822616577
33.049129486083984 16.92070960998535 1.2464443445205688
33.06467819213867 16.67363166809082 1.248560905456543
33.06772232055664 16.421672821044922 1.2514560222625732
33.08147430419922 16.176441192626953 1.2534598112106323
33.088069915771484 15.929061889648438 1.2558575868606567
33.09919357299805 15.685202598571777 1.2578110694885254
33.107669830322266 15.441383361816406 1.2598373889923096
33.14251708984375 15.210954666137695 1.2598575353622437
33.13395309448242 14.961786270141602 1.262872576713562
33.104434967041016 14.70478630065918 1.2672687768936157
33.12513732910156 14.471485137939453 1.267959475517273
33.11488342285156 14.225878715515137 1.2707481384277344
33.143314361572266 13.998024940490723 1.2706645727157593
33.18033981323242 13.774566650390625 1.2698615789413452
33.201087951660156 13.545147895812988 1.2701095342636108
33.19341278076172 13.305224418640137 1.2722728252410889
33.08192443847656 13.02568531036377 1.281706690788269
33.130191802978516 12.810641288757324 1.2796721458435059
33.51848220825195 12.72513198852539 1.2533873319625854
33.6760139465332 12.549262046813965 1.2434040307998657
33.73050308227539 12.334577560424805 1.2406352758407593
33.7423095703125 12.10486888885498 1.2407910823822021
33.74785614013672 11.873821258544922 1.2412850856781006
33.76033401489258 11.646089553833008 1.2411832809448242
33.75522232055664 11.413216590881348 1.242224931716919
33.757049560546875 11.183669090270996 1.2426707744598389
33.7782096862793 10.961302757263184 1.241645097732544
33.795066833496094 10.738189697265625 1.240822434425354
33.802833557128906 10.512910842895508 1.240541696548462
33.80433654785156 10.286486625671387 1.2406034469604492
33.7938232421875 10.057307243347168 1.2414166927337646
33.81817626953125 9.83923625946045 1.2396607398986816
33.821929931640625 9.6157865524292 1.2392648458480835
33.84440612792969 9.398266792297363 1.237442970275879
33.852970123291016 9.177434921264648 1.2365086078643799
33.85624313354492 8.955831527709961 1.2358499765396118
33.867733001708984 8.737025260925293 1.2345123291015625
33.8797492980957 8.518898963928223 1.2330397367477417
33.885520935058594 8.299765586853027 1.2319118976593018
33.90055847167969 8.083426475524902 1.2300313711166382
33.91032409667969 7.866312503814697 1.2284276485443115
33.90508270263672 7.646306991577148 1.2277921438217163
33.92473220825195 7.4324259757995605 1.2252942323684692
33.92742156982422 7.215269565582275 1.2239054441452026
33.94630813598633 7.001986503601074 1.2212696075439453
33.95212173461914 6.786395072937012 1.2194682359695435
33.95852279663086 6.5713725090026855 1.2175285816192627
33.952781677246094 6.354506969451904 1.2163594961166382
33.96823501586914 6.142040252685547 1.2135870456695557
33.98727798461914 5.930479526519775 1.2104634046554565
34.00696563720703 5.719244956970215 1.207197666168213
34.016483306884766 5.506555557250977 1.204561710357666
34.00791549682617 5.291354179382324 1.2031246423721313
34.00094223022461 5.076906204223633 1.2014802694320679
34.01731491088867 4.866273880004883 1.1980724334716797
34.038307189941406 4.656442165374756 1.194237470626831
34.04020309448242 4.444207668304443 1.1916773319244385
34.053646087646484 4.233724117279053 1.1881945133209229
34.064788818359375 4.0231242179870605 1.1847805976867676
33.54331970214844 3.7530651092529297 1.2196040153503418
33.50490188598633 3.5408449172973633 1.2196162939071655
33.56637191772461 3.339313268661499 1.2123360633850098
33.608760833740234 3.1354904174804688 1.2063324451446533
33.63599395751953 2.930058479309082 1.2013250589370728
33.653018951416016 2.7236835956573486 1.1969588994979858
33.66579818725586 2.5169849395751953 1.1928045749664307
33.66436767578125 2.3093421459198 1.1895878314971924
33.67361068725586 2.1025562286376953 1.1855024099349976
33.681575775146484 1.8957418203353882 1.1814152002334595
33.68328857421875 1.6886571645736694 1.1776894330978394
33.68373489379883 1.4816210269927979 1.1739622354507446
33.71180725097656 1.2757363319396973 1.1681214570999146
19.263681411743164 0.60980224609375 2.2225899696350098
33.70933151245117 0.8616980314254761 1.1604385375976562
33.72563171386719 0.6551458239555359 1.1551679372787476
33.72869873046875 0.44826436042785645 1.1507725715637207
33.729496002197266 0.2413608431816101 1.1464492082595825
33.75196075439453 0.03448732942342758 1.1404300928115845
33.74623107910156 -0.17251864075660706 1.1363959312438965
12.824935913085938 -0.1455155909061432 2.6828856468200684
12.777817726135254 -0.22338522970676422 2.6846179962158203
11.726278305053711 -0.27713268995285034 2.7610714435577393
12.818732261657715 -0.38144785165786743 2.677935838699341
33.81315612792969 -1.2104436159133911 1.1076622009277344
33.80177307128906 -1.417701244354248 1.1034657955169678
33.73335266113281 -1.6221880912780762 1.1034529209136963
12.718405723571777 -0.6911203265190125 2.6777443885803223
12.843207359313965 -0.7769275903701782 2.6663334369659424
12.862951278686523 -0.8573456406593323 2.6627743244171143
33.86906814575195 -2.4628584384918213 1.0716553926467896
12.515225410461426 -0.9885918498039246 2.684877634048462
13.090041160583496 -1.11474609375 2.6390738487243652
12.765067100524902 -1.166042685508728 2.6615569591522217
13.066198348999023 -1.27437424659729 2.6363232135772705
13.106608390808105 -1.359529972076416 2.6308906078338623
13.103842735290527 -1.440551519393921 2.628714084625244
33.91105270385742 -3.935368776321411 1.0266743898391724
33.916622161865234 -4.147049427032471 1.0198558568954468
33.920867919921875 -4.358949184417725 1.013029932975769
33.95244216918945 -4.574917793273926 1.003979206085205
33.940185546875 -4.78545618057251 0.9982120990753174
33.95423889160156 -5.000083923339844 0.9902915954589844
12.885152816772461 -1.979596734046936 2.627915382385254
13.018352508544922 -2.081873893737793 2.6148149967193604
13.11241626739502 -2.179490089416504 2.6046879291534424
33.99781036376953 -5.8622212409973145 0.9584417939186096
33.9971809387207 -6.077137470245361 0.951095700263977
33.99714279174805 -6.292630195617676 0.9435887336730957
34.01728820800781 -6.512476921081543 0.9343655705451965
12.588869094848633 -2.4915771484375 2.6318655014038086
33.92729568481445 -6.92789363861084 0.9259395599365234
33.91405487060547 -7.142234802246094 0.9190394878387451
33.89847946166992 -7.356464862823486 0.9122141599655151
33.930198669433594 -7.581640720367432 0.9014674425125122
33.96625518798828 -7.80882453918457 0.890234112739563
34.032814025878906 -8.044302940368652 0.876389741897583
34.068687438964844 -8.273836135864258 0.8648807406425476
34.06336212158203 -8.494226455688477 0.8565881252288818
34.083656311035156 -8.721782684326172 0.8460756540298462
34.09761428833008 -8.948644638061523 0.835945188999176
34.10910415649414 -9.175747871398926 0.825882077217102
34.10659408569336 -9.399887084960938 0.8168377876281738
34.11603546142578 -9.628132820129395 0.8066719770431519
34.11246871948242 -9.853530883789062 0.7974494099617004
34.1294059753418 -10.085745811462402 0.786384105682373
34.10469436645508 -10.306429862976074 0.7786592245101929
34.156654357910156 -10.551313400268555 0.7643710374832153
34.147003173828125 -10.77832317352295 0.7551063895225525
34.14722442626953 -11.009284019470215 0.7448706030845642
34.142112731933594 -11.23940658569336 0.7349461317062378
34.165687561035156 -11.48004150390625 0.7224349975585938
34.15553283691406 -11.710399627685547 0.7126492857933044
34.19182205200195 -11.957844734191895 0.6987349390983582
34.14466857910156 -12.177051544189453 0.6918371319770813
34.103607177734375 -12.398857116699219 0.6842922568321228
34.234947204589844 -12.68502140045166 0.6616551876068115
34.27079772949219 -12.938065528869629 0.6470968127250671
34.27133560180664 -13.179149627685547 0.6354461908340454
34.31196212768555 -13.437080383300781 0.6201151609420776
34.31922912597656 -13.68345832824707 0.6075364947319031
34.311824798583984 -13.925185203552246 0.5960869193077087
34.32209014892578 -14.175325393676758 0.5829070210456848
34.33700180053711 -14.428818702697754 0.5691366791725159
34.31892776489258 -14.66971206665039 0.5581409335136414
34.34579849243164 -14.93118953704834 0.5429412126541138
29.47671127319336 -13.0304594039917 0.9699723720550537
34.391944885253906 -15.455961227416992 0.5126441121101379
34.39670181274414 -15.712579727172852 0.4988691508769989
34.41044998168945 -15.974872589111328 0.48408475518226624
34.4123420715332 -16.233251571655273 0.47019389271736145
34.43752670288086 -16.50431251525879 0.4539632499217987
34.42482376098633 -16.758848190307617 0.4410349130630493
34.422794342041016 -17.020030975341797 0.4269293248653412
34.43577575683594 -17.29031753540039 0.41122379899024963
34.37214660644531 -17.523386001586914 0.4025101363658905
34.323768615722656 -17.765029907226562 0.392208993434906
34.42192077636719 -18.084592819213867 0.36784306168556213
34.35036087036133 -18.316953659057617 0.3593585789203644
34.402565002441406 -18.61693000793457 0.33887362480163574
30.82836151123047 -16.92848014831543 0.6670888662338257
30.79405975341797 -17.156532287597656 0.6561200022697449
34.5239143371582 -19.512989044189453 0.27925634384155273
34.54490280151367 -19.805654525756836 0.2607614994049072
34.51620864868164 -20.071762084960938 0.24689041078090668
34.52588653564453 -20.362051010131836 0.22903114557266235
34.56578826904297 -20.672649383544922 0.20792947709560394
34.443843841552734 -20.887887954711914 0.2026684731245041
34.41477584838867 -21.160341262817383 0.18798713386058807
34.4504508972168 -21.4748592376709 0.16657181084156036
34.509666442871094 -21.807106018066406 0.14248503744602203
34.47715377807617 -22.08392333984375 0.12740668654441833
34.51189422607422 -22.406192779541016 0.10522546619176865
34.36085510253906 -22.60923957824707 0.10183556377887726
30.44184684753418 -20.29974365234375 0.48772814869880676
30.252775192260742 -20.443132400512695 0.49020659923553467
29.83378791809082 -21.245586395263672 0.4639706611633301
30.170310974121094 -21.765640258789062 0.4099299907684326
29.757490158081055 -21.74690818786621 0.4357374608516693
29.685569763183594 -21.975250244140625 0.42493781447410583
29.623123168945312 -22.211896896362305 0.4129249155521393
29.577926635742188 -22.463062286376953 0.39882558584213257
29.56234359741211 -22.738805770874023 0.3812423646450043
33.90248489379883 -29.927797317504883 -0.3629927337169647
33.73258972167969 -30.148448944091797 -0.3694067895412445
33.64768600463867 -30.446338653564453 -0.38612645864486694
33.54863739013672 -30.733552932739258 -0.401437371969223
33.553955078125 -31.119590759277344 -0.4296634793281555
20.212995529174805 -18.979793548583984 1.168988585472107
20.048938751220703 -19.058807373046875 1.1719683408737183
32.36476516723633 30.911792755126953 0.6808463335037231
31.412445068359375 29.63628387451172 0.7804953455924988
15.539620399475098 14.482439041137695 2.22843861579895
31.6165771484375 29.104768753051758 0.7868058681488037
31.701139450073242 28.825714111328125 0.7912431955337524
31.989845275878906 28.732065200805664 0.7772508859634399
32.30844497680664 28.662443161010742 0.7605516910552979
32.48780059814453 28.467676162719727 0.7561558485031128
32.534698486328125 28.158172607421875 0.7633169889450073
32.54793930053711 27.822586059570312 0.773218035697937
32.58497619628906 27.510425567626953 0.7807988524436951
32.58033752441406 27.16627311706543 0.7917971611022949
32.61122131347656 26.85492706298828 0.7994686961174011
32.61784362792969 26.526599884033203 0.8090266585350037
32.64889907836914 26.221071243286133 0.8162518739700317
32.6453971862793 25.890743255615234 0.8262425661087036
32.66499328613281 25.58174705505371 0.8340307474136353
32.686771392822266 25.27714729309082 0.8414257168769836
32.67829895019531 24.952056884765625 0.8511961698532104
32.69894027709961 24.65204620361328 0.8582803606987
32.73154830932617 24.36344337463379 0.8641577959060669
32.754615783691406 24.070053100585938 0.8706526160240173
32.5936164855957 23.645483016967773 0.8924409747123718
32.621707916259766 23.362049102783203 0.8980960845947266
32.69236373901367 23.110837936401367 0.9000129699707031
32.679351806640625 22.802547454833984 0.9087501168251038
32.72049331665039 22.534332275390625 0.9127917289733887
32.790924072265625 22.28778076171875 0.9142369031906128
32.76512145996094 21.977859497070312 0.923492968082428
32.775856018066406 21.694976806640625 0.9295442700386047
32.770992279052734 21.4040584564209 0.9367069602012634
32.830055236816406 21.156713485717773 0.9384470582008362
32.81407165527344 20.86288070678711 0.9461848139762878
32.854042053222656 20.60661506652832 0.9491755366325378
32.82508850097656 20.30917739868164 0.9576343894004822
32.879737854003906 20.06536102294922 0.9591174125671387
32.84288787841797 19.767621994018555 0.9678851962089539
32.896278381347656 19.52608299255371 0.9691705703735352
32.917808532714844 19.26699447631836 0.9728913307189941
32.91926193237305 18.99790382385254 0.9780840873718262
32.90998840332031 18.724590301513672 0.9839863777160645
32.82987594604492 18.413555145263672 0.995428204536438
32.86505126953125 18.169363021850586 0.9974480867385864
32.9720458984375 17.965524673461914 0.9935788512229919
33.00395965576172 17.721416473388672 0.9955960512161255
33.00943374633789 17.464529037475586 0.9995875358581543
33.02538299560547 17.214696884155273 1.002602219581604
33.04306411743164 16.967147827148438 1.00534188747406
33.042930603027344 16.71192741394043 1.0093613862991333
33.06949234008789 16.471576690673828 1.0111258029937744
33.079124450683594 16.224061965942383 1.0140998363494873
33.095951080322266 15.981385231018066 1.0163724422454834
33.09033203125 15.729266166687012 1.0202877521514893
33.10455322265625 15.487957000732422 1.0225040912628174
33.11796569824219 15.247483253479004 1.0246559381484985
33.17147445678711 15.026358604431152 1.0235254764556885
33.129676818847656 14.763334274291992 1.0297675132751465
33.10052490234375 14.507795333862305 1.0348823070526123
33.12445068359375 14.276853561401367 1.0357028245925903
33.13393020629883 14.040718078613281 1.0375345945358276
33.17030334472656 13.816887855529785 1.0371395349502563
33.18764877319336 13.58596134185791 1.0381149053573608
33.208038330078125 13.357202529907227 1.038732647895813
33.078453063964844 13.070061683654785 1.0509439706802368
33.12606430053711 12.85465145111084 1.0491943359375
33.47052001953125 12.752776145935059 1.0241875648498535
33.65427780151367 12.587060928344727 1.0116204023361206
33.70992660522461 12.372834205627441 1.0089293718338013
33.736061096191406 12.148259162902832 1.0084228515625
33.740962982177734 11.916853904724121 1.0094538927078247
33.75089645385742 11.688129425048828 1.00997793674469
33.750797271728516 11.456844329833984 1.011167049407959
33.75008010864258 11.226312637329102 1.0122907161712646
33.76676940917969 11.002401351928711 1.0119481086730957
33.78863525390625 10.780826568603516 1.0110926628112793
33.79954147338867 10.556424140930176 1.0109772682189941
33.80705642700195 10.331708908081055 1.0110129117965698
33.806400299072266 10.105297088623047 1.0115724802017212
33.81764221191406 9.883197784423828 1.0110989809036255
33.82935333251953 9.661887168884277 1.0104807615280151
33.8338623046875 9.439193725585938 1.010311484336853
33.848453521728516 9.219953536987305 1.0092514753341675
33.84910583496094 8.997557640075684 1.0091655254364014
33.86375045776367 8.779502868652344 1.0078868865966797
33.85765838623047 8.556719779968262 1.0081087350845337
33.87915802001953 8.341489791870117 1.006084680557251
33.88959884643555 8.123993873596191 1.004812479019165
33.89961624145508 7.906906604766846 1.0034667253494263
33.90046691894531 7.688238620758057 1.0027271509170532
33.92036056518555 7.47435998916626 1.000403642654419
33.93013381958008 7.258647918701172 0.9987610578536987
33.93951416015625 7.043298244476318 0.9970446228981018
33.950462341308594 6.8286943435668945 0.9951019287109375
33.9669075012207 6.615553855895996 0.9926267862319946
33.965354919433594 6.399328231811523 0.9914475083351135
33.9830322265625 6.187119483947754 0.9886679649353027
33.981712341308594 5.971826076507568 0.9872646331787109
33.997703552246094 5.759943962097168 0.9844081997871399
34.010406494140625 5.5477681159973145 0.9817051291465759
34.01686477661133 5.334878444671631 0.9793853759765625
34.01213073730469 5.120632171630859 0.9778358936309814
34.02776336669922 4.909775257110596 0.9745949506759644
34.04010772705078 4.698644161224365 0.971505343914032
34.056087493896484 4.488195896148682 0.9680290222167969
34.056915283203125 4.2759881019592285 0.9656342267990112
34.0633544921875 4.06476354598999 0.9626989364624023
33.641510009765625 3.8053274154663086 0.993276834487915
33.502296447753906 3.5816311836242676 1.0016120672225952
33.54314041137695 3.378063678741455 0.995708167552948
33.639312744140625 3.179474353790283 0.9853403568267822
33.651885986328125 2.9725501537323 0.9814454913139343
33.65921401977539 2.7652626037597656 0.9778613448143005
33.66029357910156 2.557617664337158 0.9746690392494202
33.67102813720703 2.350825071334839 0.9706119894981384
33.67949676513672 2.1439318656921387 0.9666306376457214
15.744550704956055 0.9055336713790894 2.385375499725342
15.781510353088379 0.8105775117874146 2.380798578262329
15.791007041931152 0.7139859199523926 2.378350019454956
15.784969329833984 0.6167239546775818 2.3770883083343506
15.804239273071289 0.5204143524169922 2.373762607574463
15.825906753540039 0.42397060990333557 2.370192527770996
15.831040382385254 0.32695072889328003 2.367892265319824
15.822619438171387 0.22969502210617065 2.3666276931762695
33.732425689697266 0.2823227345943451 0.9280107021331787
12.99903678894043 0.02929254248738289 2.5894627571105957
13.002826690673828 -0.05045764893293381 2.5874462127685547
33.76972961425781 -0.3388043940067291 0.9116755723953247
33.78859329223633 -0.546290397644043 0.9054965972900391
33.788238525390625 -0.7536223530769348 0.9007614254951477
11.855352401733398 -0.3369483947753906 2.6731791496276855
33.8066291809082 -1.169126033782959 0.8894256949424744
33.8163948059082 -1.3771979808807373 0.8835484385490417
33.74522399902344 -1.581701636314392 0.8841560482978821
13.11203384399414 -0.694989025592804 2.56337833404541
12.813881874084473 -0.7580312490463257 2.5856716632843018
12.85361385345459 -0.8395397067070007 2.5803256034851074
33.86384582519531 -2.4211676120758057 0.8526160717010498
12.622483253479004 -0.9800986051559448 2.595032215118408
33.86265563964844 -2.83906888961792 0.841122567653656
12.961625099182129 -1.166595220565796 2.5626001358032227
33.904911041259766 -3.261991024017334 0.8255887627601624
33.904720306396484 -3.4720284938812256 0.8194118738174438
33.91016387939453 -3.682941198348999 0.812654435634613
33.9340934753418 -3.896327257156372 0.8042386174201965
33.92204666137695 -4.105956077575684 0.7987067699432373
33.94133377075195 -4.319737911224365 0.7904399633407593
33.95235061645508 -4.532989501953125 0.7827444076538086
33.947227478027344 -4.744472026824951 0.7762864828109741
33.94768142700195 -4.9570722579956055 0.7692412734031677
33.96158218383789 -5.172108173370361 0.7609407305717468
33.98691177368164 -5.389533519744873 0.7515465021133423
33.9764404296875 -5.6017913818359375 0.7450645565986633
12.755013465881348 -2.1831822395324707 2.546576738357544
13.38585376739502 -2.3758060932159424 2.489802360534668
34.02035140991211 -6.254305362701416 0.718461275100708
34.01816177368164 -6.469936370849609 0.7107786536216736
34.02927780151367 -6.688660621643066 0.7018265724182129
33.97160339355469 -6.894092082977295 0.6986860632896423
33.92732238769531 -7.102132320404053 0.6942854523658752
33.95578384399414 -7.325862884521484 0.6834573149681091
34.0070915222168 -7.555613994598389 0.6704958081245422
34.03451156616211 -7.781163692474365 0.6594648957252502
34.0827522277832 -8.012579917907715 0.6464633941650391
34.09067916870117 -8.23552417755127 0.6368471384048462
34.087486267089844 -8.45646858215332 0.62807297706604
34.094444274902344 -8.680636405944824 0.6182662844657898
34.12499237060547 -8.911755561828613 0.6062257289886475
34.12415313720703 -9.135589599609375 0.5968237519264221
34.11223602294922 -9.3571138381958 0.588269829750061
34.14684295654297 -9.59231185913086 0.57541424036026
34.16355895996094 -9.82360553741455 0.564003586769104
34.16438293457031 -10.051249504089355 0.5538706183433533
34.16560363769531 -10.2798490524292 0.5435553193092346
34.20053482055664 -10.519680976867676 0.5300317406654358
34.179622650146484 -10.743300437927246 0.5214216709136963
34.1790771484375 -10.974067687988281 0.5108132362365723
34.16655731201172 -11.201817512512207 0.50114905834198
34.21110153198242 -11.449433326721191 0.4860888719558716
34.21995544433594 -11.686426162719727 0.47413939237594604
34.2403450012207 -11.928548812866211 0.46095529198646545
34.190521240234375 -12.147017478942871 0.4541270136833191
34.15335464477539 -12.370413780212402 0.4459892213344574
34.23714828491211 -12.639006614685059 0.42638102173805237
34.299346923828125 -12.901728630065918 0.4085783064365387
34.30192565917969 -13.143590927124023 0.3961917459964752
34.31117630004883 -13.389230728149414 0.38299962878227234
34.314064025878906 -13.63364028930664 0.37023264169692993
34.3355598449707 -13.886808395385742 0.3555122911930084
34.33220291137695 -14.13127326965332 0.34298059344291687
34.333560943603516 -14.378914833068848 0.3298172354698181
34.30110168457031 -14.613441467285156 0.3197392225265503
34.3410758972168 -14.880191802978516 0.3024744391441345
29.48983383178711 -12.993642807006836 0.7614216208457947
34.41322708129883 -15.415984153747559 0.2680472731590271
34.37830352783203 -15.65442943572998 0.2574748992919922
34.419490814208984 -15.92900562286377 0.23923155665397644
34.39189147949219 -16.173309326171875 0.227566659450531
34.40931701660156 -16.440202713012695 0.21124635636806488
34.401458740234375 -16.69661521911621 0.1972326934337616
34.317596435546875 -16.916996002197266 0.1906457245349884
34.33563232421875 -17.188697814941406 0.17365367710590363
34.068397521972656 -17.317291259765625 0.18530991673469543
34.30801010131836 -17.704971313476562 0.14545631408691406
33.74308776855469 -17.676593780517578 0.18734201788902283
34.285160064697266 -18.22969627380371 0.11594640463590622
34.01622772216797 -18.35546112060547 0.12741537392139435
33.79771041870117 -18.50636100769043 0.1336938738822937
29.844207763671875 -21.199588775634766 0.2281014323234558
30.2247314453125 -21.750391006469727 0.1653381884098053
29.815122604370117 -21.734769821166992 0.19298581779003143
29.70321273803711 -21.933794021606445 0.1863275170326233
29.620277404785156 -22.15492820739746 0.17614208161830902
29.60875701904297 -22.431182861328125 0.157385915517807
29.59811019897461 -22.71055793762207 0.1382388174533844
33.7761116027832 -26.247543334960938 -0.37883415818214417
33.64915084838867 -26.481922149658203 -0.3876485228538513
33.518245697021484 -26.7138729095459 -0.39617180824279785
32.79224395751953 -26.800439834594727 -0.3572666645050049
32.60676193237305 -26.98456573486328 -0.3593073785305023
32.426361083984375 -27.172536849975586 -0.3620745837688446
32.21983337402344 -27.338062286376953 -0.36171069741249084
32.039676666259766 -27.525436401367188 -0.36470869183540344
31.842660903930664 -27.69791030883789 -0.36570215225219727
31.583473205566406 -27.81505584716797 -0.3589225113391876
31.3188533782959 -27.925426483154297 -0.3514361083507538
30.980205535888672 -28.3142147064209 -0.36096054315567017
31.135499954223633 29.739614486694336 0.513634979724884
31.234973907470703 29.47073745727539 0.5179768800735474
15.524476051330566 14.468704223632812 2.0921847820281982
31.291812896728516 28.807720184326172 0.5400679111480713
31.370145797729492 28.526674270629883 0.5457931160926819
31.539701461791992 28.329721450805664 0.5423539876937866
31.71026039123535 28.133747100830078 0.5386735200881958
31.922353744506836 27.974214553833008 0.530813455581665
31.9715518951416 27.672800064086914 0.5386157035827637
32.01523208618164 27.369247436523438 0.5467164516448975
32.33529281616211 27.301685333251953 0.5280359983444214
32.51784896850586 27.116249084472656 0.5224860906600952
14.568140983581543 11.997458457946777 2.245234966278076
14.645931243896484 11.911651611328125 2.2429847717285156
14.670343399047852 11.78287410736084 2.2457263469696045
14.711700439453125 11.668498992919922 2.2467751502990723
14.706671714782715 11.518393516540527 2.2521002292633057
14.693258285522461 11.363299369812012 2.258099317550659
14.716545104980469 11.2378568649292 2.260558843612671
14.714164733886719 11.093944549560547 2.2653160095214844
14.760171890258789 10.987403869628906 2.2654831409454346
14.815069198608398 10.88780403137207 2.2647552490234375
14.88302230834961 10.797898292541504 2.262756586074829
14.877464294433594 10.65530776977539 2.2674498558044434
14.921205520629883 10.548885345458984 2.267528772354126
14.974014282226562 10.449173927307129 2.2667076587677
15.03109073638916 10.352605819702148 2.2654318809509277
15.170012474060059 10.311789512634277 2.2566611766815186
15.06718921661377 10.107439994812012 2.2697558403015137
15.097140312194824 9.993914604187012 2.2707200050354004
15.13294506072998 9.884764671325684 2.2710819244384766
15.133617401123047 9.753402709960938 2.2745285034179688
15.171956062316895 9.647016525268555 2.2745132446289062
15.2120943069458 9.542116165161133 2.27426815032959
15.261693000793457 9.44338321685791 2.2731122970581055
15.31320571899414 9.345955848693848 2.2717230319976807
15.384599685668945 9.260595321655273 2.268507480621338
15.426370620727539 9.157402038574219 2.2678613662719727
15.47433853149414 9.058074951171875 2.2666029930114746
32.904541015625 18.991609573364258 0.73264479637146
32.9654541015625 18.75835418701172 0.7332996726036072
32.845611572265625 18.424579620361328 0.7496832609176636
32.8572998046875 18.167282104492188 0.754332423210144
32.95900344848633 17.960630416870117 0.7509495615959167
32.994407653808594 17.718503952026367 0.753228485584259
33.02631759643555 17.475685119628906 0.7556641697883606
33.004337310791016 17.205947875976562 0.7626409530639648
33.044151306152344 16.969934463500977 0.7640894651412964
33.05028533935547 16.717876434326172 0.7683148980140686
33.059043884277344 16.468603134155273 0.7721645832061768
33.07404327392578 16.22380256652832 0.7753267884254456
33.07831573486328 15.975102424621582 0.7792706489562988
33.0816764831543 15.727386474609375 0.783145546913147
33.101318359375 15.488682746887207 0.7854771018028259
33.125614166259766 15.253246307373047 0.7872684597969055
33.147361755371094 15.017682075500488 0.7891417741775513
33.13833236694336 14.769436836242676 0.793516993522644
33.09098815917969 14.50585651397705 0.8010309338569641
33.12863540649414 14.280904769897461 0.8011294603347778
33.142738342285156 14.046698570251465 0.8031100034713745
33.160743713378906 13.815155982971191 0.8046249747276306
33.179927825927734 13.585053443908691 0.8059075474739075
33.20863342285156 13.359698295593262 0.8062496185302734
33.0847053527832 13.074779510498047 0.8194491863250732
33.12675857543945 12.857170104980469 0.8183916807174683
33.46733093261719 12.753844261169434 0.7918601036071777
33.66034698486328 12.591633796691895 0.7777670621871948
33.701969146728516 12.372220039367676 0.7764068841934204
33.71590042114258 12.143308639526367 0.7772687673568726
33.73957824707031 11.918676376342773 0.7771809697151184
33.74386978149414 11.688010215759277 0.7786077260971069
33.74094772338867 11.455814361572266 0.7805206775665283
33.74968719482422 11.228499412536621 0.7813221216201782
33.76544189453125 11.00428581237793 0.7814078330993652
33.78636169433594 10.782422065734863 0.7809355854988098
33.80012512207031 10.558929443359375 0.7809461951255798
33.8038444519043 10.333051681518555 0.7816839814186096
33.79365539550781 10.10381031036377 0.7834746241569519
33.8020133972168 9.88095474243164 0.7835788726806641
33.82041549682617 9.661660194396973 0.7827187180519104
33.828758239746094 9.440099716186523 0.7825872302055359
33.84623718261719 9.221680641174316 0.7815690040588379
33.85557174682617 9.001607894897461 0.781119167804718
33.84900665283203 8.7780122756958 0.7818917632102966
33.86802673339844 8.561674118041992 0.7803921699523926
33.87599563598633 8.343048095703125 0.7797073721885681
33.89322280883789 8.127201080322266 0.7781276702880859
33.89742660522461 7.9087371826171875 0.7775302529335022
33.90216827392578 7.6909661293029785 0.7767720818519592
33.915252685546875 7.475578308105469 0.7751967906951904
33.927947998046875 7.260525703430176 0.7735402584075928
33.944156646728516 7.046609401702881 0.7714726328849792
33.94925308227539 6.8308000564575195 0.7702301144599915
33.956886291503906 6.6159539222717285 0.7686587572097778
33.96414566040039 6.401453018188477 0.7670069932937622
33.97789764404297 6.188539505004883 0.7646941542625427
33.98933410644531 5.975522518157959 0.7624644041061401
33.99943542480469 5.762596130371094 0.7602342963218689
34.0042724609375 5.549127101898193 0.7583379149436951
34.004817962646484 5.335350036621094 0.75669264793396
34.002044677734375 5.121475696563721 0.7552167177200317
34.02949142456055 4.91239070892334 0.7510703206062317
34.039859771728516 4.7009782791137695 0.7482577562332153
34.047935485839844 4.489490985870361 0.7455284595489502
34.05073165893555 4.27758264541626 0.7431345582008362
34.062103271484375 4.066987991333008 0.7399021983146667
33.59394836425781 3.802278757095337 0.7773331999778748
33.48747253417969 3.5823686122894287 0.783940851688385
33.53422546386719 3.3794937133789062 0.7774034142494202
33.618438720703125 3.1798384189605713 0.7675570249557495
33.63694381713867 2.9735703468322754 0.7631950378417969
33.64524459838867 2.7664577960968018 0.7595923542976379
33.6492919921875 2.5591259002685547 0.7562435865402222
33.66100311279297 2.3524720668792725 0.7521278858184814
33.67144775390625 2.145768404006958 0.7480101585388184
15.748120307922363 0.9064003229141235 2.2826340198516846
15.791023254394531 0.8117322325706482 2.2773380279541016
15.794538497924805 0.7148130536079407 2.275369644165039
15.793477058410645 0.6177243590354919 2.273743152618408
15.799784660339355 0.520937442779541 2.2714297771453857
15.829399108886719 0.42473742365837097 2.267050266265869
15.832530975341797 0.3276559114456177 2.264902114868164
15.814146041870117 0.2302457094192505 2.264564275741577
33.73818588256836 0.2847404181957245 0.7082605361938477
33.75286865234375 0.07782500237226486 0.7026494145393372
12.162003517150879 -0.04683997109532356 2.576122522354126
12.947338104248047 -0.12925824522972107 2.506065845489502
33.767372131347656 -0.5435674786567688 0.6876979470252991
33.789913177490234 -0.7512760758399963 0.6809383630752563
12.183547019958496 -0.3459519147872925 2.567417621612549
11.76988410949707 -0.40649139881134033 2.6018803119659424
33.82495880126953 -1.3751542568206787 0.6627966165542603
13.222524642944336 -0.6190981864929199 2.4704389572143555
13.179534912109375 -0.6981368064880371 2.4721291065216064
12.824828147888184 -0.7582802772521973 2.501317262649536
12.825757026672363 -0.8373197317123413 2.499110698699951
12.723857879638672 -0.9090917110443115 2.505974769592285
33.8524284362793 -2.62677264213562 0.6270797252655029
12.85042953491211 -1.076749324798584 2.4902729988098145
13.017051696777344 -1.1711649894714355 2.4731059074401855
12.893470764160156 -1.239835500717163 2.481765031814575
12.973665237426758 -1.3279211521148682 2.4721760749816895
33.90947723388672 -3.68044114112854 0.590953528881073
33.908626556396484 -3.8909754753112793 0.5844541192054749
33.911415100097656 -4.102237701416016 0.5775051712989807
33.937583923339844 -4.3168253898620605 0.5683194994926453
33.96437072753906 -4.532153129577637 0.5589427947998047
33.952301025390625 -4.742738723754883 0.5529552698135376
13.065299034118652 -1.9071393013000488 2.445568561553955
13.10440444946289 -1.9950357675552368 2.439181327819824
13.189152717590332 -2.0908119678497314 2.428556203842163
13.208353996276855 -2.177015542984009 2.4238486289978027
34.00093078613281 -5.817878246307373 0.5111770033836365
29.25535011291504 -5.190884113311768 0.9402637481689453
34.01630401611328 -6.251093864440918 0.4939010739326477
34.041481018066406 -6.471898555755615 0.4834398031234741
34.0192985534668 -6.684225559234619 0.47722598910331726
33.961631774902344 -6.889597415924072 0.4741896092891693
33.925148010253906 -7.09920597076416 0.46906983852386475
33.93019485473633 -7.317866325378418 0.45994502305984497
34.00091552734375 -7.551756381988525 0.444519579410553
34.07294464111328 -7.787455081939697 0.4287938177585602
34.06968307495117 -8.00700855255127 0.41999074816703796
34.06694030761719 -8.227286338806152 0.4109973907470703
34.07243347167969 -8.45022964477539 0.4010797142982483
34.0822639465332 -8.675025939941406 0.39060109853744507
34.111812591552734 -8.90579605102539 0.3780878186225891
34.126338958740234 -9.133652687072754 0.36684650182724
34.11245346069336 -9.354650497436523 0.358175128698349
34.15082931518555 -9.590900421142578 0.34432631731033325
34.13877487182617 -9.813944816589355 0.3351743221282959
34.146278381347656 -10.043386459350586 0.3239787518978119
34.15415573120117 -10.273862838745117 0.3125860393047333
34.18047332763672 -10.510961532592773 0.2992304265499115
34.19091033935547 -10.744295120239258 0.2872532904148102
34.159950256347656 -10.965372085571289 0.27917248010635376
34.17108154296875 -11.2007417678833 0.2668006420135498
34.19099044799805 -11.440135955810547 0.25338849425315857
34.168724060058594 -11.666364669799805 0.24397937953472137
34.21736526489258 -11.917967796325684 0.22735826671123505
34.14598846435547 -12.128621101379395 0.22252154350280762
34.06020736694336 -12.334105491638184 0.2190067321062088
34.145042419433594 -12.602420806884766 0.19821029901504517
34.30426788330078 -12.900978088378906 0.16966332495212555
34.302127838134766 -13.141061782836914 0.15717393159866333
34.30110549926758 -13.382691383361816 0.14438991248607635
34.2382698059082 -13.60091781616211 0.1377336084842682
33.78733825683594 -13.662510871887207 0.17071959376335144
33.72085952758789 -13.877069473266602 0.16431282460689545
33.65668487548828 -14.092867851257324 0.15753130614757538
33.6030387878418 -14.31347370147705 0.14951948821544647
33.57991409301758 -14.547804832458496 0.13817940652370453
29.477636337280273 -12.986123085021973 0.553009569644928
33.66964340209961 -15.080292701721191 0.10070034116506577
30.809972763061523 -17.11470603942871 0.19869044423103333
20.594057083129883 -14.063830375671387 1.1597657203674316
20.05537223815918 -13.87732982635498 1.2115323543548584
19.861997604370117 -13.924676895141602 1.2218717336654663
19.74100685119629 -14.02146053314209 1.2234342098236084
19.615541458129883 -14.114381790161133 1.225512146949768
19.572507858276367 -14.266663551330566 1.217384696006775
19.56195831298828 -14.44377326965332 1.2050814628601074
19.509326934814453 -14.590896606445312 1.1978422403335571
19.550010681152344 -14.809416770935059 1.1787501573562622
19.517688751220703 -14.974472045898438 1.1686077117919922
19.504499435424805 -15.155561447143555 1.1558648347854614
