# .PCD v0.7 - Point Cloud Data file format
VERSION 0.7
FIELDS x y z
SIZE 4 4 4
TYPE F F F
COUNT 1 1 1
WIDTH 856
HEIGHT 1
VIEWPOINT 0 0 0 1 0 0 0
POINTS 856
DATA ascii
44.30302047729492 -18.627471923828125 2.581258773803711
44.30360794067383 -18.94842529296875 2.5725648403167725
29.727785110473633 -12.930879592895508 2.915483236312866
29.651466369628906 -13.114612579345703 2.911417245864868
44.44668197631836 -19.985158920288086 2.5425753593444824
44.4531364440918 -20.316856384277344 2.5334091186523438
44.47169494628906 -20.656126022338867 2.5238592624664307
44.53024673461914 -21.016437530517578 2.513218402862549
34.44718551635742 -16.516923904418945 2.7595441341400146
34.344207763671875 -16.72748565673828 2.7549471855163574
34.411991119384766 -17.022510528564453 2.7459282875061035
34.29072952270508 -17.22520637512207 2.7417263984680176
34.14689636230469 -17.416152954101562 2.7381019592285156
34.08280563354492 -17.647815704345703 2.7323646545410156
34.15608596801758 -17.952369689941406 2.7229275703430176
34.42978286743164 -18.36670684814453 2.708005905151367
34.37085723876953 -18.607070922851562 2.7018980979919434
34.264713287353516 -18.82237434387207 2.6970324516296387
30.569042205810547 -17.037296295166016 2.7909812927246094
30.311555862426758 -17.13838768005371 2.7910921573638916
34.349246978759766 -19.700389862060547 2.670994281768799
34.40736770629883 -20.015281677246094 2.661288261413574
34.37078094482422 -20.277273178100586 2.6541707515716553
34.51327896118164 -20.647859573364258 2.6418468952178955
34.45849609375 -20.903257369995117 2.6350839138031006
34.4027214050293 -21.15928077697754 2.6282901763916016
34.41889953613281 -21.461421966552734 2.6193201541900635
34.33379364013672 -21.702064514160156 2.613260507583618
34.443992614746094 -22.06866455078125 2.6013059616088867
34.49815368652344 -22.40312957763672 2.5908966064453125
34.441776275634766 -22.668188095092773 2.5837323665618896
34.444984436035156 -22.974443435668945 2.574672222137451
34.425018310546875 -23.267595291137695 2.566232204437256
34.69718933105469 -23.763017654418945 2.548574209213257
34.72473907470703 -24.096229553222656 2.538379192352295
30.083223342895508 -21.150087356567383 2.6764798164367676
34.77145767211914 -24.76632308959961 2.5179004669189453
34.85382843017578 -25.14878273010254 2.5055718421936035
34.855323791503906 -25.47654914855957 2.4957258701324463
34.86936569213867 -25.816579818725586 2.4853532314300537
34.87094497680664 -26.150541305541992 2.475270986557007
34.88564682006836 -26.497577667236328 2.464632034301758
34.91007614135742 -26.85552978515625 2.453536033630371
34.92747497558594 -27.211702346801758 2.442542552947998
34.851558685302734 -27.497886657714844 2.4346210956573486
34.79998779296875 -27.805376052856445 2.4257752895355225
34.68767166137695 -28.066110610961914 2.4189560413360596
34.65464782714844 -28.393033981323242 2.409275531768799
34.86125564575195 -28.921649932861328 2.3909454345703125
34.8437614440918 -29.26997184753418 2.3804004192352295
34.879642486572266 -29.66709327697754 2.367788314819336
34.89755630493164 -30.05335235595703 2.355666399002075
34.887168884277344 -30.419265747070312 2.3444297313690186
34.95303726196289 -30.85629653930664 2.330207586288452
34.829261779785156 -31.129411697387695 2.3229174613952637
34.9146842956543 -31.593313217163086 2.307615041732788
34.916114807128906 -31.986499786376953 2.295309543609619
34.83340072631836 -32.30611801147461 2.286090135574341
34.86831283569336 -32.73881912231445 2.27217173576355
32.34235763549805 24.00008773803711 3.3488025665283203
32.48652648925781 23.79945945739746 3.34478759765625
32.5184440612793 23.517683029174805 3.3417460918426514
32.52534103393555 23.22014617919922 3.3389174938201904
32.59030532836914 22.966035842895508 3.335552215576172
32.68211364746094 22.731992721557617 3.3319203853607178
32.74424362182617 22.478443145751953 3.3285419940948486
32.70018768310547 22.154315948486328 3.326141595840454
32.624298095703125 21.81212615966797 3.3240420818328857
32.606380462646484 21.51190948486328 3.321394681930542
32.77373123168945 21.334943771362305 3.316957473754883
33.009124755859375 21.201045989990234 3.311821222305298
32.6849479675293 20.71072769165039 3.3121261596679688
33.127620697021484 20.707542419433594 3.304889440536499
32.8701171875 20.267230987548828 3.3045578002929688
32.674259185791016 19.87087631225586 3.303642749786377
32.78950119018555 19.66646385192871 3.2995920181274414
32.62289047241211 19.29542350769043 3.2984020709991455
32.720733642578125 19.083349227905273 3.2944982051849365
32.820674896240234 18.8727970123291 3.2905466556549072
32.68091583251953 18.526607513427734 3.289088487625122
32.8934211730957 18.381393432617188 3.2839107513427734
32.75590133666992 18.041765213012695 3.2824289798736572
33.399356842041016 18.13007164001465 3.272538661956787
44.7394905090332 23.932104110717773 3.1461751461029053
44.688140869140625 23.5532283782959 3.142683744430542
44.485626220703125 23.098928451538086 3.140859842300415
44.358463287353516 22.688535690307617 3.1382200717926025
44.19937515258789 22.266178131103516 3.1359481811523438
43.99199676513672 21.824411392211914 3.1342391967773438
43.954280853271484 21.47074317932129 3.1306166648864746
43.75979232788086 21.044252395629883 3.1287922859191895
43.64759826660156 20.661605834960938 3.1260344982147217
43.494293212890625 20.263397216796875 3.1237645149230957
43.37593460083008 19.885353088378906 3.1210968494415283
43.23999786376953 19.502948760986328 3.118645429611206
43.087303161621094 19.11688232421875 3.116405963897705
42.9892463684082 18.758621215820312 3.113520622253418
42.84798812866211 18.384939193725586 3.1111652851104736
42.74800491333008 18.0323543548584 3.108314037322998
42.57510757446289 17.6525821685791 3.1063687801361084
42.41862487792969 17.283538818359375 3.1042377948760986
42.34555435180664 16.951644897460938 3.1010730266571045
42.187191009521484 16.58873176574707 3.0989859104156494
42.09221267700195 16.25398063659668 3.0961060523986816
41.99097442626953 15.91960334777832 3.093309164047241
41.84693908691406 15.572081565856934 3.0910699367523193
41.700218200683594 15.226933479309082 3.088876962661743
41.64122009277344 14.916547775268555 3.0855441093444824
41.493202209472656 14.576967239379883 3.0833852291107178
41.429569244384766 14.269726753234863 3.080113410949707
41.29740905761719 13.941427230834961 3.0777580738067627
41.186527252197266 13.623139381408691 3.075124502182007
41.04667282104492 13.29810905456543 3.0728909969329834
40.90914535522461 12.976821899414062 3.070636510848999
40.88764572143555 12.694491386413574 3.066786289215088
40.73984909057617 12.375130653381348 3.064683437347412
40.61555862426758 12.065750122070312 3.062263011932373
40.56967544555664 11.781789779663086 3.058741331100464
40.42948913574219 11.472640037536621 3.056553840637207
40.34294128417969 11.181146621704102 3.05360746383667
40.223453521728516 10.882790565490723 3.0511372089385986
40.408302307128906 10.667234420776367 3.0442402362823486
40.881534576416016 10.524361610412598 3.0330541133880615
41.3079719543457 10.364398956298828 3.0224413871765137
41.787391662597656 10.212656021118164 3.010930061340332
42.21686935424805 10.043611526489258 3.000044584274292
42.705257415771484 9.883432388305664 2.9881577491760254
43.15813064575195 9.709733009338379 2.976684331893921
43.653446197509766 9.540240287780762 2.964442491531372
44.16197204589844 9.367937088012695 2.95186710357666
44.638675689697266 9.183300971984863 2.9396519660949707
44.87353515625 8.945075035095215 2.9310922622680664
44.930419921875 8.670204162597656 2.9252593517303467
44.96891784667969 8.391853332519531 2.9196815490722656
44.843318939208984 8.084081649780273 2.916691541671753
45.00920486450195 7.829238414764404 2.909018039703369
45.04150390625 7.550507545471191 2.903444290161133
45.06121826171875 7.269923686981201 2.8980438709259033
45.08808135986328 6.99075984954834 2.892496109008789
45.11617660522461 6.711981296539307 2.8868956565856934
45.14948654174805 6.434108734130859 2.8811755180358887
45.180084228515625 6.155944347381592 2.875466823577881
45.2010383605957 5.876614570617676 2.869887113571167
45.22920227050781 5.59836483001709 2.8641529083251953
45.2397575378418 5.318121910095215 2.858684778213501
45.28932571411133 5.042497158050537 2.852515459060669
45.32228469848633 4.764894485473633 2.846593141555786
45.34857940673828 4.48658561706543 2.8407511711120605
45.366188049316406 4.207485675811768 2.8350257873535156
45.39004898071289 3.929028034210205 2.8291566371917725
45.3524055480957 3.6456267833709717 2.8243491649627686
45.43962478637695 3.372236490249634 2.817277669906616
45.47232437133789 3.094313144683838 2.8111417293548584
12.544878005981445 0.775489330291748 3.4045846462249756
45.54957962036133 2.5385990142822266 2.7985317707061768
45.563194274902344 2.259084939956665 2.7926266193389893
45.58807373046875 1.9800631999969482 2.7864773273468018
19.515972137451172 0.7270373702049255 3.2680466175079346
19.230213165283203 0.5982710719108582 3.2709591388702393
13.013545036315918 0.3245742619037628 3.386281728744507
12.9832763671875 0.2441338449716568 3.3851966857910156
45.708797454833984 0.5821307301521301 2.7552058696746826
12.588321685791016 0.08219995349645615 3.389483690261841
12.599559783935547 0.004982580430805683 3.3876280784606934
12.275394439697266 -0.07048027962446213 3.3923301696777344
12.316692352294922 -0.14627502858638763 3.389899969100952
12.318534851074219 -0.2218809574842453 3.3882322311401367
12.159992218017578 -0.2936691641807556 3.3897600173950195
12.05200481414795 -0.3650594651699066 3.3903026580810547
11.866669654846191 -0.4323413074016571 3.3924310207366943
11.956665992736816 -0.5090730786323547 3.3889851570129395
13.530096054077148 -0.6590750217437744 3.3550517559051514
13.188344955444336 -0.7235798239707947 3.360255002975464
12.825369834899902 -0.7826406359672546 3.3659820556640625
46.04334259033203 -3.0901122093200684 2.668499231338501
12.79779052734375 -0.9386873245239258 3.362980604171753
46.11135482788086 -3.6634645462036133 2.654111623764038
12.891837120056152 -1.1047489643096924 3.3573498725891113
13.30591869354248 -1.2224630117416382 3.3466014862060547
11.794685363769531 -1.1567691564559937 3.377410411834717
12.096592903137207 -1.2613141536712646 3.369121789932251
12.515900611877441 -1.3826576471328735 3.3581573963165283
11.795147895812988 -1.3763982057571411 3.3722424507141113
12.806538581848145 -1.5740036964416504 3.348008155822754
13.589836120605469 -1.7548927068710327 3.3285672664642334
13.53717041015625 -1.832594871520996 3.327718734741211
12.75154972076416 -1.80604088306427 3.3435006141662598
12.763934135437012 -1.8877372741699219 3.3412811756134033
13.558356285095215 -2.0902254581451416 3.32106351852417
13.558075904846191 -2.1754150390625 3.318981647491455
13.53654956817627 -2.2572290897369385 3.3173797130584717
12.771761894226074 -2.2103841304779053 3.333204984664917
13.227313041687012 -2.372847318649292 3.32043719291687
13.573209762573242 -2.520908832550049 3.310117483139038
13.012557029724121 -2.499509811401367 3.321368455886841
29.58013153076172 -5.868680477142334 2.9200944900512695
33.73335647583008 -6.907864570617676 2.8145596981048584
33.713722229003906 -7.119621753692627 2.8095335960388184
33.762115478515625 -7.346487522125244 2.8027985095977783
33.76215744018555 -7.563726425170898 2.7972028255462646
12.71281623840332 -2.9308507442474365 3.31604266166687
33.79404067993164 -8.007553100585938 2.7850868701934814
33.88404846191406 -8.248750686645508 2.7770838737487793
33.87440872192383 -8.466873168945312 2.7715396881103516
33.87110900878906 -8.687172889709473 2.765791654586792
33.88958740234375 -8.91385555267334 2.7594375610351562
34.07160186767578 -9.18558120727539 2.7487874031066895
34.04726791381836 -9.403460502624512 2.7434170246124268
33.99267578125 -9.613227844238281 2.7388017177581787
33.934871673583984 -9.822123527526855 2.7342424392700195
33.93425750732422 -10.047983169555664 2.728130578994751
33.91970443725586 -10.270440101623535 2.7223427295684814
33.94476318359375 -10.505803108215332 2.7154386043548584
33.919593811035156 -10.726490020751953 2.709840774536133
33.99477767944336 -10.98013687133789 2.7014505863189697
34.004512786865234 -11.214133262634277 2.6947836875915527
33.956756591796875 -11.429849624633789 2.6896562576293945
34.04093551635742 -11.691182136535645 2.680802583694458
34.01185607910156 -11.914978981018066 2.6750500202178955
34.01802062988281 -12.151973724365234 2.6682536602020264
34.03382873535156 -12.393596649169922 2.661121368408203
34.15384292602539 -12.67516803741455 2.650928497314453
34.324039459228516 -12.978474617004395 2.6391758918762207
34.33787536621094 -13.225067138671875 2.631852149963379
34.34531021118164 -13.470491409301758 2.6246495246887207
34.35009765625 -13.716134071350098 2.6174583435058594
34.35964584350586 -13.96497631072998 2.6100614070892334
34.37295913696289 -14.216741561889648 2.6024813652038574
34.36697769165039 -14.461831092834473 2.5954132080078125
34.37030029296875 -14.712100982666016 2.5879979133605957
29.69657325744629 -12.927865028381348 2.7236924171447754
34.434661865234375 -15.24229621887207 2.5711781978607178
34.436092376708984 -15.496308326721191 2.5635974407196045
34.40842056274414 -15.73843765258789 2.5568552017211914
34.426212310791016 -16.00271987915039 2.5486204624176025
34.40228271484375 -16.249027252197266 2.5416274070739746
34.39283752441406 -16.503427505493164 2.5341079235076904
34.371681213378906 -16.75350570678711 2.526893138885498
34.3594970703125 -17.00926399230957 2.519319772720337
34.29008865356445 -17.2376708984375 2.5135414600372314
34.173763275146484 -17.442689895629883 2.5092580318450928
34.08461380004883 -17.661649703979492 2.504049777984619
34.14888381958008 -17.961593627929688 2.4936838150024414
34.30862045288086 -18.31523895263672 2.4799959659576416
34.3123664855957 -18.588672637939453 2.471423625946045
34.251853942871094 -18.82865333557129 2.4649534225463867
30.682952880859375 -17.11292266845703 2.578927993774414
30.213621139526367 -17.095081329345703 2.587376594543457
34.310035705566406 -19.69158172607422 2.4368340969085693
34.32233428955078 -19.979616165161133 2.4275057315826416
34.4658088684082 -20.3472957611084 2.413435459136963
34.47740173339844 -20.640478134155273 2.4038922786712646
34.461910247802734 -20.91952133178711 2.3952176570892334
34.47748565673828 -21.219579696655273 2.3853261470794678
34.40756607055664 -21.468769073486328 2.3784403800964355
34.42288589477539 -21.772924423217773 2.3683578968048096
34.443336486816406 -22.082931518554688 2.3579697608947754
34.52748489379883 -22.437026977539062 2.3450868129730225
34.4249267578125 -22.672040939331055 2.3390629291534424
34.45795440673828 -22.998191833496094 2.327849864959717
34.617431640625 -23.41294288635254 2.3116774559020996
34.689823150634766 -23.77344512939453 2.2986435890197754
34.70818328857422 -24.100374221801758 2.2875404357910156
30.064189910888672 -21.150514602661133 2.4584250450134277
34.793724060058594 -24.798158645629883 2.263009548187256
34.82310104370117 -25.142759323120117 2.251046657562256
34.84148406982422 -25.48274803161621 2.239375114440918
34.83771896362305 -25.809629440307617 2.22845196723938
34.845638275146484 -26.148216247558594 2.216921329498291
34.87139892578125 -26.503591537475586 2.2045164108276367
34.88063430786133 -26.84990119934082 2.192636013031006
34.912933349609375 -27.21759033203125 2.179645299911499
34.90045166015625 -27.553861618041992 2.1683664321899414
34.83127975463867 -27.847936630249023 2.1593432426452637
34.695335388183594 -28.090002059936523 2.153062582015991
34.730865478515625 -28.473379135131836 2.139348268508911
34.82527542114258 -28.909954071044922 2.122896909713745
34.59122848510742 -29.07608985900879 2.1205742359161377
34.845855712890625 -29.656946182250977 2.0967154502868652
34.80162811279297 -29.989526748657227 2.085784435272217
34.95419692993164 -30.49679183959961 2.0658910274505615
34.935543060302734 -30.86016273498535 2.053445339202881
34.795284271240234 -31.11851692199707 2.0463762283325195
34.89395523071289 -31.594318389892578 2.028245449066162
34.98955154418945 -32.0738410949707 2.0099895000457764
34.85419845581055 -32.34564971923828 2.0022666454315186
34.904022216796875 -32.792869567871094 1.9857178926467896
37.13851547241211 28.604955673217773 3.037677526473999
32.582698822021484 24.153682708740234 3.105828046798706
32.20410919189453 23.56830406188965 3.1102986335754395
32.29371643066406 23.331071853637695 3.1071603298187256
32.41093063354492 23.114532470703125 3.1035373210906982
32.38117599487305 22.794973373413086 3.1022846698760986
32.39470291137695 22.508604049682617 3.10029935836792
32.49995040893555 22.287403106689453 3.0967748165130615
32.45713424682617 21.966556549072266 3.095665216445923
32.477298736572266 21.69095230102539 3.093489170074463
32.51033401489258 21.425832748413086 3.0910732746124268
32.516197204589844 21.144771575927734 3.0890839099884033
32.652809143066406 20.94976806640625 3.0848753452301025
32.57365798950195 20.618040084838867 3.0842607021331787
32.67570877075195 20.40300178527832 3.0805699825286865
32.646095275878906 20.107255935668945 3.079075813293457
32.47480010986328 19.728017807006836 3.079974889755249
32.62173080444336 19.544363021850586 3.0754339694976807
32.68585205078125 19.311330795288086 3.0722720623016357
32.7440185546875 19.075729370117188 3.069180488586426
32.4459228515625 18.636432647705078 3.0722157955169678
32.610904693603516 18.46611785888672 3.0672340393066406
32.606510162353516 18.200416564941406 3.065157175064087
32.723609924316406 18.00342559814453 3.060934066772461
32.87291717529297 17.82379913330078 3.056107759475708
33.27875900268555 17.780614852905273 3.046720266342163
44.66584014892578 23.514366149902344 2.8430721759796143
44.50382614135742 23.081560134887695 2.842844247817993
44.394283294677734 22.680286407470703 2.8416731357574463
44.21808624267578 22.24932098388672 2.8416800498962402
43.998870849609375 21.801841735839844 2.842453956604004
43.915122985839844 21.425857543945312 2.840785026550293
43.820316314697266 21.047826766967773 2.839299440383911
43.642086029052734 20.633731842041016 2.8393146991729736
43.512107849121094 20.246662139892578 2.8384456634521484
43.35721206665039 19.851980209350586 2.8380227088928223
43.23012161254883 19.473928451538086 2.8370814323425293
43.06621170043945 19.08319854736328 2.8368115425109863
42.9862174987793 18.733165740966797 2.8349790573120117
42.84290313720703 18.35883903503418 2.8343098163604736
42.71321105957031 17.99397087097168 2.833378314971924
42.57789611816406 17.630237579345703 2.8325443267822266
42.4249153137207 17.262815475463867 2.8320364952087402
42.344234466552734 16.92800521850586 2.830152750015259
42.221031188964844 16.579118728637695 2.8290622234344482
42.19497299194336 16.270877838134766 2.826106309890747
42.00870132446289 15.9037504196167 2.8262016773223877
41.84482955932617 15.548929214477539 2.825866460800171
41.708251953125 15.207680702209473 2.8250017166137695
41.66603469848633 14.903382301330566 2.8222947120666504
41.5122184753418 14.561781883239746 2.821747064590454
41.42197799682617 14.24539566040039 2.819948434829712
41.30573272705078 13.92267894744873 2.818650245666504
41.23836135864258 13.61886215209961 2.8163743019104004
41.08320999145508 13.28869915008545 2.8158280849456787
40.98180389404297 12.978766441345215 2.814206123352051
40.85140609741211 12.6622896194458 2.8131542205810547
40.7512092590332 12.357771873474121 2.8114888668060303
40.625816345214844 12.048134803771973 2.8103225231170654
40.53464889526367 11.751084327697754 2.8084535598754883
40.375003814697266 11.436803817749023 2.807971715927124
40.33638000488281 11.159051895141602 2.805006265640259
40.23795700073242 10.866561889648438 2.803251266479492
40.41977310180664 10.65009880065918 2.7956812381744385
40.858985900878906 10.49825668334961 2.78269100189209
41.31820297241211 10.346522331237793 2.7691688537597656
41.79942321777344 10.194994926452637 2.755065679550171
42.21028137207031 10.021316528320312 2.742321252822876
42.68193435668945 9.857154846191406 2.728177785873413
43.16387939453125 9.689988136291504 2.713688373565674
43.65512466430664 9.51940631866455 2.6988725662231445
44.118492126464844 9.337360382080078 2.684523582458496
44.63218688964844 9.16043758392334 2.6689610481262207
44.8903923034668 8.926850318908691 2.658803701400757
44.9275016784668 8.648097038269043 2.653378486633301
44.9668083190918 8.369956016540527 2.6478633880615234
44.86171340942383 8.065997123718262 2.645481824874878
45.001834869384766 7.806545734405518 2.637664318084717
45.03297424316406 7.527706146240234 2.632202625274658
45.05448532104492 7.2475056648254395 2.62691330909729
45.091060638427734 6.969922065734863 2.621246099472046
45.11404800415039 6.69040060043335 2.615839719772339
45.14223861694336 6.411843776702881 2.610274314880371
45.176631927490234 6.134268283843994 2.6045234203338623
45.20039367675781 5.855355739593506 2.598970413208008
45.22937774658203 5.577238082885742 2.593255043029785
45.260623931884766 5.2994489669799805 2.5874428749084473
33.40126037597656 3.7027833461761475 2.85758638381958
33.42424392700195 3.497924327850342 2.853233575820923
33.43601989746094 3.2919418811798096 2.849109172821045
45.363548278808594 4.1861982345581055 2.564251661300659
45.39422607421875 3.908360719680786 2.5582237243652344
45.344459533691406 3.6240079402923584 2.5540616512298584
12.50144100189209 0.9205189347267151 3.3339719772338867
45.457054138183594 3.0722906589508057 2.5405538082122803
12.543655395507812 0.7690399885177612 3.329951524734497
12.576051712036133 0.6936247944831848 3.3276426792144775
45.56837844848633 2.2383663654327393 2.521284818649292
45.58710861206055 1.959052324295044 2.515209913253784
19.433849334716797 0.7145735621452332 3.154005527496338
12.052559852600098 0.3683736026287079 3.334383487701416
12.031575202941895 0.29386717081069946 3.333385944366455
12.3079833984375 0.22512950003147125 3.3249411582946777
12.569994926452637 0.15283897519111633 3.3167765140533447
12.656631469726562 0.07625975459814072 3.3129642009735107
45.764137268066406 0.0003491641255095601 2.4701595306396484
12.735512733459473 -0.07950244098901749 3.307645320892334
12.96865463256836 -0.16048207879066467 3.2999789714813232
12.957391738891602 -0.2398492693901062 3.298543691635132
12.73477840423584 -0.31392043828964233 3.302579641342163
12.749560356140137 -0.3925537168979645 3.3004729747772217
12.463163375854492 -0.4603237211704254 3.3062422275543213
12.13747787475586 -0.5229239463806152 3.3131115436553955
12.9287691116333 -0.6363620162010193 3.290475606918335
12.896635055541992 -0.7141158580780029 3.289527654647827
12.841085433959961 -0.790091335773468 3.289201498031616
12.826981544494629 -0.8682413101196289 3.287761688232422
12.850284576416016 -0.9490399956703186 3.28529953956604
46.11298370361328 -3.6848578453063965 2.378952980041504
13.226012229919434 -1.140040397644043 3.2713136672973633
13.277456283569336 -1.2265673875808716 3.267965078353882
12.030099868774414 -1.1860021352767944 3.300473928451538
12.157769203186035 -1.2739205360412598 3.2951390743255615
12.697122573852539 -1.4091423749923706 3.2782535552978516
33.946781158447266 -3.974973440170288 2.67962908744812
11.721419334411621 -1.4468052387237549 3.3019490242004395
12.722447395324707 -1.6494863033294678 3.2717337608337402
12.789307594299316 -1.7379851341247559 3.2678561210632324
13.801681518554688 -1.9617022275924683 3.2368078231811523
12.668058395385742 -1.880098581314087 3.2673463821411133
14.041230201721191 -2.171787738800049 3.225496292114258
14.221027374267578 -2.2889862060546875 3.2180047035217285
13.328224182128906 -2.229379653930664 3.241900682449341
13.25712776184082 -2.301190137863159 3.2418298721313477
13.255504608154297 -2.384768486022949 3.239703416824341
13.211098670959473 -2.460550308227539 3.238835096359253
12.7942533493042 -2.4642856121063232 3.249133825302124
12.715126037597656 -2.530052900314331 3.2493677139282227
12.607281684875488 -2.589116334915161 3.250481605529785
33.711830139160156 -7.1356201171875 2.6045827865600586
33.742488861083984 -7.358677387237549 2.5978236198425293
33.783382415771484 -7.585006237030029 2.5906875133514404
33.751670837402344 -7.795697212219238 2.5857386589050293
33.874244689941406 -8.043222427368164 2.575934648513794
33.91055679321289 -8.271940231323242 2.568742513656616
33.88521957397461 -8.486355781555176 2.563429117202759
33.698795318603516 -8.6597318649292 2.563183546066284
33.90006637573242 -8.933513641357422 2.550574779510498
34.05678176879883 -9.19862174987793 2.53926682472229
34.05448532104492 -9.422551155090332 2.532979726791382
34.029563903808594 -9.640806198120117 2.527371406555176
34.0281982421875 -9.866345405578613 2.520944595336914
33.99563980102539 -10.083420753479004 2.5154850482940674
33.90909194946289 -10.284516334533691 2.51176381111145
33.942596435546875 -10.52251148223877 2.5040230751037598
34.08308410644531 -10.795703887939453 2.492628574371338
34.03984451293945 -11.012263298034668 2.487300157546997
34.037940979003906 -11.242803573608398 2.480525493621826
33.9975471496582 -11.461284637451172 2.474998950958252
34.079566955566406 -11.722273826599121 2.4652295112609863
34.05308151245117 -11.947315216064453 2.459101915359497
34.04111099243164 -12.178194999694824 2.45241379737854
34.04167556762695 -12.414514541625977 2.445225954055786
34.213932037353516 -12.715702056884766 2.4319427013397217
34.318336486816406 -12.994697570800781 2.420912265777588
34.325477600097656 -13.238770484924316 2.4132211208343506
34.3206787109375 -13.479401588439941 2.405881881713867
34.34298324584961 -13.731973648071289 2.3974952697753906
34.325523376464844 -13.969880104064941 2.3904643058776855
34.3599853515625 -14.230267524719238 2.381474256515503
34.35109329223633 -14.474142074584961 2.373979330062866
34.35887145996094 -14.726313591003418 2.365797519683838
34.38408279418945 -14.98751163482666 2.3568837642669678
34.42839050292969 -15.25888442993164 2.347165822982788
34.42053985595703 -15.50878620147705 2.3393044471740723
34.402732849121094 -15.75541877746582 2.331740140914917
34.41944122314453 -16.019283294677734 2.3227856159210205
34.43329620361328 -16.283517837524414 2.3138465881347656
34.39744567871094 -16.525588989257812 2.306729555130005
34.35723114013672 -16.766517639160156 2.2997114658355713
34.34221267700195 -17.02088737487793 2.2916393280029297
34.287864685058594 -17.2568359375 2.2850284576416016
34.17762756347656 -17.46501922607422 2.280564069747925
34.056365966796875 -17.66744041442871 2.2765016555786133
34.197425842285156 -18.00777816772461 2.2618918418884277
34.308258056640625 -18.335906982421875 2.2483291625976562
34.374168395996094 -18.643199920654297 2.2364327907562256
34.24321746826172 -18.845035552978516 2.2324507236480713
30.660903930664062 -17.11977767944336 2.3705320358276367
30.231664657592773 -17.124326705932617 2.3798093795776367
34.21070098876953 -19.656158447265625 2.2052786350250244
34.36819076538086 -20.028152465820312 2.188948631286621
34.47593307495117 -20.375356674194336 2.1745223999023438
34.347530364990234 -20.58491325378418 2.169978618621826
34.46723556518555 -20.945188522338867 2.1547558307647705
34.447669982910156 -21.223834991455078 2.145360231399536
34.427669525146484 -21.50408935546875 2.135875940322876
34.391170501708984 -21.77581214904785 2.1270065307617188
34.542694091796875 -22.16986656188965 2.1097447872161865
34.521453857421875 -22.456531524658203 2.09993577003479
34.4554328918457 -22.71571922302246 2.0920145511627197
34.472286224365234 -23.031558990478516 2.080273389816284
34.613990783691406 -23.434728622436523 2.062725305557251
34.70588302612305 -23.8088436126709 2.047224998474121
34.70338821411133 -24.121660232543945 2.035869836807251
30.033842086791992 -21.150800704956055 2.240705966949463
34.77131652832031 -24.80731201171875 2.0093345642089844
34.798885345458984 -25.150659561157227 1.9961140155792236
34.804996490478516 -25.481698989868164 1.983742117881775
34.80754470825195 -25.813161849975586 1.971381664276123
34.8384895324707 -26.169017791748047 1.9574992656707764
34.85205078125 -26.51532554626465 1.9442777633666992
34.857120513916016 -26.8585147857666 1.9312983751296997
34.87898254394531 -27.21812629699707 1.9173238277435303
34.884403228759766 -27.568485260009766 1.903978943824768
34.837677001953125 -27.880592346191406 1.8930615186691284
34.692935943603516 -28.11578369140625 1.8869370222091675
34.69416046142578 -28.4713134765625 1.8733420372009277
34.81528854370117 -28.930086135864258 1.853437066078186
34.82044219970703 -29.2974910736084 1.839221477508545
34.8155403137207 -29.66020965576172 1.8253326416015625
34.829437255859375 -30.042892456054688 1.8102705478668213
34.91519546508789 -30.49258041381836 1.791205644607544
34.90690994262695 -30.865020751953125 1.7768659591674805
34.91470718383789 -31.25583267211914 1.7614623308181763
34.90568923950195 -31.635814666748047 1.7467470169067383
34.96767807006836 -32.085086822509766 1.7279542684555054
34.897335052490234 -32.417301177978516 1.7161509990692139
34.92904281616211 -32.848419189453125 1.6985327005386353
32.34120559692383 30.08629035949707 2.865379810333252
32.50077438354492 29.865009307861328 2.861966133117676
32.78173828125 29.75444793701172 2.855618476867676
32.36648941040039 29.01752471923828 2.8657219409942627
32.42926788330078 28.717018127441406 2.8644349575042725
32.72062683105469 28.61891746520996 2.8576762676239014
37.00166702270508 28.55730438232422 2.7546281814575195
37.31123733520508 28.432804107666016 2.7468068599700928
32.69597625732422 24.600364685058594 2.855966806411743
32.344539642333984 24.026716232299805 2.8638176918029785
32.21387481689453 23.624460220336914 2.866381883621216
32.20584487915039 23.316181182861328 2.8659846782684326
32.34248352050781 23.114110946655273 2.8620965480804443
32.307918548583984 22.791370391845703 2.862243413925171
32.42569351196289 22.57790184020996 2.8587112426757812
32.35172653198242 22.23303985595703 2.8597145080566406
32.30702209472656 21.91182518005371 2.8599791526794434
32.34685134887695 21.650394439697266 2.858180046081543
32.401371002197266 21.400318145751953 2.855985403060913
32.29322052001953 21.045583724975586 2.8576529026031494
32.41237258911133 20.841142654418945 2.8538222312927246
32.496456146240234 20.61461067199707 2.8507888317108154
32.5340690612793 20.359722137451172 2.8488309383392334
32.57658004760742 20.10934829711914 2.846712350845337
32.44218444824219 19.752641677856445 2.8488287925720215
32.26094055175781 19.372093200683594 2.8520500659942627
32.240570068359375 19.091815948486328 2.851346969604492
32.383750915527344 18.909311294555664 2.846635580062866
32.43145751953125 18.67139434814453 2.84419846534729
32.502681732177734 18.447917938232422 2.8411471843719482
32.38567352294922 18.119808197021484 2.8426477909088135
32.518882751464844 17.9333553314209 2.8380043506622314
32.765220642089844 17.808012008666992 2.8305418491363525
32.980384826660156 17.663799285888672 2.8237855434417725
33.090675354003906 17.462554931640625 2.8195526599884033
44.49894332885742 23.134906768798828 2.5369999408721924
44.44589614868164 22.762155532836914 2.5361580848693848
44.17394256591797 22.281970977783203 2.5406861305236816
44.072391510009766 21.89271354675293 2.540971517562866
43.88420867919922 21.46469497680664 2.543372631072998
43.82035827636719 21.101404190063477 2.542651653289795
43.636268615722656 20.684040069580078 2.544889450073242
43.5239143371582 20.304813385009766 2.5453085899353027
43.33224105834961 19.892711639404297 2.5476810932159424
43.27109909057617 19.54422378540039 2.5467543601989746
43.092201232910156 19.146089553833008 2.5487513542175293
43.008079528808594 18.79372215270996 2.548335552215576
42.86799240112305 18.42021942138672 2.549299478530884
33.2034797668457 14.026920318603516 2.7915995121002197
33.221397399902344 13.794989585876465 2.789085865020752
33.274749755859375 13.578475952148438 2.785635232925415
33.24317932128906 13.32834529876709 2.7843101024627686
33.09073257446289 13.03222370147705 2.786051034927368
33.149436950683594 12.82105827331543 2.7823596000671387
41.975223541259766 15.939172744750977 2.5530617237091064
41.88847732543945 15.612955093383789 2.552443265914917
41.734527587890625 15.2647066116333 2.553532838821411
41.65599060058594 14.94696044921875 2.552645444869995
41.5119514465332 14.608519554138184 2.553431510925293
41.4267692565918 14.293603897094727 2.552661418914795
41.281517028808594 13.960750579833984 2.553433418273926
41.20018005371094 13.652228355407715 2.5525083541870117
41.047203063964844 13.322702407836914 2.553438901901245
40.962249755859375 13.017975807189941 2.552558422088623
40.89324188232422 12.720434188842773 2.551227331161499
40.71788787841797 12.39250373840332 2.552687883377075
40.64066696166992 12.097151756286621 2.5515239238739014
40.507606506347656 11.787571907043457 2.5518224239349365
33.8712272644043 9.631545066833496 2.726210594177246
33.876583099365234 9.408875465393066 2.7232882976531982
33.89398956298828 9.190164566040039 2.720005512237549
33.880035400390625 8.963667869567871 2.717533588409424
33.9023323059082 8.747428894042969 2.714047431945801
33.90094757080078 8.52564525604248 2.7111666202545166
33.902976989746094 8.305397033691406 2.708160161972046
33.906497955322266 8.086140632629395 2.7050771713256836
33.90568542480469 7.866475582122803 2.7020785808563232
33.92100524902344 7.651082515716553 2.698601245880127
33.940818786621094 7.437081336975098 2.694962739944458
33.94657897949219 7.220421314239502 2.691676378250122
33.94214630126953 7.002151966094971 2.6886372566223145
33.954933166503906 6.787931442260742 2.68508243560791
33.96342849731445 6.57324743270874 2.681612014770508
33.96664047241211 6.357978820800781 2.678252696990967
33.967506408691406 6.142739295959473 2.6749236583709717
33.981781005859375 5.930305480957031 2.671180009841919
33.994728088378906 5.717927932739258 2.6674351692199707
34.009307861328125 5.506092548370361 2.6636056900024414
33.998863220214844 5.290604591369629 2.660454750061035
34.01572799682617 5.079732418060303 2.656484842300415
34.0293083190918 4.868569374084473 2.6525704860687256
34.02473831176758 4.655126571655273 2.6491410732269287
34.04658126831055 4.445545673370361 2.644909620285034
34.06217575073242 4.235255241394043 2.640820264816284
34.076473236083984 4.024940013885498 2.6367275714874268
33.594764709472656 3.7592570781707764 2.6471500396728516
33.53059005737305 3.5439674854278564 2.6453425884246826
33.59931945800781 3.3429651260375977 2.6395840644836426
33.648929595947266 3.1395812034606934 2.6343393325805664
33.66643524169922 2.9330244064331055 2.6300032138824463
33.67470169067383 2.7257251739501953 2.625901460647583
33.6796989440918 2.518285036087036 2.6218574047088623
12.571592330932617 0.8627421855926514 3.2541260719299316
33.6948356628418 2.104094982147217 2.613497018814087
33.70698165893555 1.8973629474639893 2.609116315841675
33.705875396728516 1.6899597644805908 2.6050984859466553
33.71847915649414 1.4832996129989624 2.6006219387054443
33.71881866455078 1.2761318683624268 2.596479654312134
19.281015396118164 0.6114710569381714 3.0379297733306885
33.73667526245117 0.8624932169914246 2.5875439643859863
33.76518249511719 0.6559937596321106 2.582402229309082
33.77043533325195 0.4488842189311981 2.577939510345459
12.87224292755127 0.09237890690565109 3.229212760925293
12.567669868469238 0.01310733612626791 3.2371373176574707
33.775577545166016 -0.17264129221439362 2.5646321773529053
33.79573440551758 -0.3800729513168335 2.559525489807129
33.795631408691406 -0.5874289274215698 2.5550174713134766
12.24227523803711 -0.28766804933547974 3.240882158279419
33.81357955932617 -1.0028266906738281 2.5452888011932373
12.421517372131348 -0.44441908597946167 3.231745719909668
13.023660659790039 -0.5459958910942078 3.2104876041412354
33.72110366821289 -1.6216187477111816 2.5342416763305664
12.79133129119873 -0.6935499310493469 3.2144293785095215
12.7877836227417 -0.7720622420310974 3.2127225399017334
33.87461471557617 -2.254481792449951 2.5147500038146973
12.883909225463867 -0.936644971370697 3.2058372497558594
33.90888595581055 -2.675002098083496 2.50372052192688
13.204955101013184 -1.1230190992355347 3.1913013458251953
13.376919746398926 -1.2203495502471924 3.1835498809814453
12.202316284179688 -1.1886812448501587 3.2211787700653076
33.92491912841797 -3.515713691711426 2.4828128814697266
12.773846626281738 -1.4027878046035767 3.1979799270629883
12.764948844909668 -1.4811190366744995 3.196302652359009
33.95225524902344 -4.151402473449707 2.46608304977417
13.400936126708984 -1.7218166589736938 3.170325756072998
12.762116432189941 -1.7193684577941895 3.1903469562530518
33.99336242675781 -4.792918682098389 2.4483938217163086
13.337152481079102 -1.9637564420700073 3.1660823822021484
13.414689064025879 -2.0593349933624268 3.161165237426758
34.00849533081055 -5.4351487159729 2.4311141967773438
12.443833351135254 -2.0668513774871826 3.191171884536743
12.390488624572754 -2.136183261871338 3.1909732818603516
12.471540451049805 -2.229031801223755 3.1859545707702637
29.34789276123047 -5.4319000244140625 2.57590389251709
34.026268005371094 -6.514023780822754 2.4014699459075928
33.9727668762207 -6.720104217529297 2.397444009780884
13.101226806640625 -2.674905300140381 3.154228687286377
33.61069869995117 -7.078097343444824 2.3986446857452393
33.84775924682617 -7.345178604125977 2.3838253021240234
33.8106803894043 -7.554630279541016 2.379028081893921
33.905738830566406 -7.794579982757568 2.3692588806152344
33.90672302246094 -8.014142036437988 2.362917900085449
33.94804382324219 -8.244149208068848 2.3549962043762207
33.96648025512695 -8.469646453857422 2.347862958908081
33.987300872802734 -8.696672439575195 2.3405685424804688
34.063636779785156 -8.939238548278809 2.331080913543701
34.07072067260742 -9.164896965026855 2.3241586685180664
34.09172821044922 -9.39522647857666 2.3166306018829346
34.09483337402344 -9.62154483795166 2.309722661972046
34.09452438354492 -9.847701072692871 2.3028786182403564
34.0955924987793 -10.075064659118652 2.2959117889404297
34.078895568847656 -10.29789924621582 2.289576768875122
34.07028579711914 -10.523857116699219 2.282857656478882
34.06209182739258 -10.75069808959961 2.2760543823242188
34.1265754699707 -11.001750946044922 2.2662720680236816
34.16362762451172 -11.245565414428711 2.257493495941162
34.14686965942383 -11.47274112701416 2.2508034706115723
34.13994598388672 -11.704023361206055 2.243645668029785
34.14278793334961 -11.93961238861084 2.2360148429870605
34.13555145263672 -12.172657012939453 2.2287192344665527
34.106075286865234 -12.39854907989502 2.2222697734832764
34.1912956237793 -12.667586326599121 2.2109832763671875
34.33245086669922 -12.960014343261719 2.1972386837005615
34.312740325927734 -13.193680763244629 2.1901113986968994
34.35100173950195 -13.45091438293457 2.1804592609405518
34.34654998779297 -13.692829132080078 2.1725192070007324
34.349674224853516 -13.938952445983887 2.164172649383545
34.368621826171875 -14.192876815795898 2.155056953430176
34.38205337524414 -14.44600772857666 2.146082639694214
34.36701965332031 -14.68844985961914 2.138249635696411
34.37229537963867 -14.94080924987793 2.1294450759887695
34.41596984863281 -15.21156120300293 2.1188557147979736
34.439388275146484 -15.475218772888184 2.1090471744537354
34.416324615478516 -15.719393730163574 2.101199150085449
34.446834564208984 -15.989530563354492 2.0908687114715576
34.440982818603516 -16.244434356689453 2.0820605754852295
34.38013458251953 -16.47439193725586 2.0756473541259766
34.39771270751953 -16.743135452270508 2.065591812133789
34.407901763916016 -17.01005744934082 2.0557620525360107
34.333961486816406 -17.236488342285156 2.0497021675109863
34.23004913330078 -17.44813346862793 2.0449676513671875
34.130149841308594 -17.661909103393555 2.0399959087371826
34.26155090332031 -17.997318267822266 2.0241096019744873
34.142356872558594 -18.202913284301758 2.0198776721954346
34.265350341796875 -18.539426803588867 2.004088878631592
34.247982025146484 -18.80263900756836 1.9948269128799438
34.24961471557617 -19.078004837036133 1.9845433235168457
34.36745071411133 -19.42094612121582 1.9685131311416626
34.39567947387695 -19.716360092163086 1.9566569328308105
34.28509521484375 -19.933504104614258 1.9514684677124023
34.37624740600586 -20.26979637145996 1.9362657070159912
34.33250045776367 -20.528995513916016 1.927579402923584
34.16810989379883 -20.716413497924805 1.9248238801956177
34.49977111816406 -21.20815658569336 1.897080898284912
34.445106506347656 -21.466941833496094 1.8885540962219238
34.360687255859375 -21.708242416381836 1.8814417123794556
34.5438346862793 -22.12173080444336 1.860518217086792
34.418983459472656 -22.340824127197266 1.855236291885376
34.538963317871094 -22.7211971282959 1.8371659517288208
34.44857406616211 -22.965885162353516 1.8298755884170532
34.6263542175293 -23.392642974853516 1.808367371559143
34.719390869140625 -23.767135620117188 1.7910754680633545
34.754119873046875 -24.105493545532227 1.7766742706298828
30.018199920654297 -21.094608306884766 2.01865816116333
34.813377380371094 -24.78498077392578 1.7478647232055664
34.82329559326172 -25.11552619934082 1.734254002571106
34.82078552246094 -25.440048217773438 1.721147894859314
34.854942321777344 -25.794605255126953 1.7058436870574951
34.853275299072266 -26.125965118408203 1.6923311948776245
34.852027893066406 -26.460691452026367 1.6786158084869385
34.87807083129883 -26.81951904296875 1.6631778478622437
34.89076614379883 -27.171682357788086 1.6482895612716675
34.897308349609375 -27.52252769470215 1.6335538625717163
34.868839263916016 -27.848913192749023 1.620636224746704
34.73359680175781 -28.091800689697266 1.6137529611587524
34.71028518676758 -28.427125930786133 1.6002259254455566
34.896392822265625 -28.93922233581543 1.57415771484375
34.86406326293945 -29.27543067932129 1.5606987476348877
34.887516021728516 -29.662155151367188 1.5437116622924805
34.9097900390625 -30.052215576171875 1.5265544652938843
34.91804504394531 -30.43447494506836 1.5100038051605225
34.88545608520508 -30.784912109375 1.4957166910171509
34.92734909057617 -31.20530891418457 1.4766274690628052
34.94538116455078 -31.609277725219727 1.4587416648864746
34.995121002197266 -32.047019958496094 1.438604474067688
34.944828033447266 -32.397586822509766 1.424489140510559
35.000064849853516 -32.85060119628906 1.4034433364868164
32.3403434753418 30.08745574951172 2.580101490020752
32.473384857177734 29.84183120727539 2.5777626037597656
32.51580047607422 29.51507568359375 2.578291416168213
32.47504806518555 29.116853713989258 2.581433057785034
32.42539978027344 28.715608596801758 2.584773540496826
32.57222366333008 28.491151809692383 2.5816850662231445
32.57302474975586 28.141143798828125 2.5832362174987793
32.57304000854492 27.794151306152344 2.5847320556640625
32.6059684753418 27.478500366210938 2.585092544555664
32.607818603515625 27.13983154296875 2.5863754749298096
32.6384162902832 26.828205108642578 2.586660861968994
32.69513702392578 26.540542602539062 2.5860373973846436
32.65362548828125 26.176286697387695 2.588486433029175
32.662960052490234 25.856353759765625 2.5892350673675537
32.677486419677734 25.543453216552734 2.589747667312622
32.7012825012207 25.240514755249023 2.589895248413086
32.71225357055664 24.93037223815918 2.5903828144073486
32.71586608886719 24.61743927001953 2.5910375118255615
32.30280685424805 23.997787475585938 2.6048877239227295
32.176822662353516 23.599349975585938 2.6095235347747803
32.24150848388672 23.344070434570312 2.6080281734466553
32.31809997558594 23.098770141601562 2.606092691421509
32.285892486572266 22.77791404724121 2.607553482055664
32.3239860534668 22.509172439575195 2.6067185401916504
32.39954376220703 22.26799774169922 2.6046338081359863
32.43695831298828 22.00205421447754 2.603700876235962
32.36018753051758 21.661420822143555 2.6063318252563477
32.29381561279297 21.331375122070312 2.6085729598999023
32.29831314086914 21.051002502441406 2.6085071563720703
32.42839813232422 20.85356330871582 2.604400157928467
32.52350616455078 20.633895874023438 2.601346254348755
32.57054138183594 20.384679794311523 2.599759817123413
32.346954345703125 19.969722747802734 2.6067051887512207
32.362850189208984 19.706453323364258 2.605997085571289
32.41187286376953 19.464845657348633 2.604182243347168
32.44023132324219 19.212173461914062 2.6029696464538574
32.33895492553711 18.885276794433594 2.6058218479156494
32.45753479003906 18.688541412353516 2.601635694503784
32.4975471496582 18.447141647338867 2.599893093109131
32.655330657958984 18.272829055786133 2.594350814819336
32.69403076171875 18.032100677490234 2.5925421714782715
32.805660247802734 17.832162857055664 2.58835768699646
32.975101470947266 17.663158416748047 2.582275390625
33.04203796386719 17.4390869140625 2.579404830932617
33.0356330871582 17.17750358581543 2.5788216590881348
33.05573272705078 16.93124008178711 2.5773417949676514
33.06156539916992 16.679075241088867 2.5762672424316406
33.085243225097656 16.437259674072266 2.574572801589966
33.07488250732422 16.179967880249023 2.573917865753174
33.10673904418945 15.944677352905273 2.5718629360198975
33.10895919799805 15.696331977844238 2.5707077980041504
33.124778747558594 15.455743789672852 2.569068670272827
33.13162612915039 15.212218284606934 2.567668914794922
33.13765335083008 14.969600677490234 2.566248655319214
33.1556510925293 14.733572006225586 2.564394235610962
33.16375732421875 14.494281768798828 2.5628116130828857
33.177528381347656 14.25860595703125 2.5609991550445557
33.18505859375 14.0213623046875 2.5593414306640625
33.19553756713867 13.786478996276855 2.5575406551361084
33.208091735839844 13.553505897521973 2.555626630783081
33.233882904052734 13.326850891113281 2.553236722946167
33.08795928955078 13.033350944519043 2.556386709213257
33.14478302001953 12.821481704711914 2.552898406982422
33.574012756347656 12.751363754272461 2.537203311920166
33.68986129760742 12.559489250183105 2.5316648483276367
33.72952651977539 12.33919906616211 2.5285637378692627
33.74612045288086 12.111127853393555 2.526170492172241
33.764957427978516 11.88464641571045 2.5236563682556152
33.74732971191406 11.646322250366211 2.52229642868042
33.75929641723633 11.419232368469238 2.5199177265167236
33.7858772277832 11.19778060913086 2.51701021194458
33.79865646362305 10.972418785095215 2.514512538909912
33.78898620605469 10.740660667419434 2.5127134323120117
33.79779052734375 10.515667915344238 2.5102577209472656
33.81371307373047 10.293593406677246 2.507519245147705
33.804237365722656 10.06458854675293 2.505582809448242
33.824893951416016 9.845303535461426 2.502596139907837
33.84221267700195 9.62559700012207 2.4996745586395264
33.854251861572266 9.40497875213623 2.4968841075897217
33.85618209838867 9.182218551635742 2.4943885803222656
33.86149215698242 8.961069107055664 2.491734743118286
33.88277816772461 8.744693756103516 2.4884960651397705
33.899776458740234 8.527663230895996 2.4853568077087402
33.901798248291016 8.307421684265137 2.4826788902282715
33.90628433227539 8.088403701782227 2.479872703552246
33.922019958496094 7.872580528259277 2.47663950920105
33.92858123779297 7.65510892868042 2.473673105239868
33.94644546508789 7.440633296966553 2.4702746868133545
33.953182220458984 7.224146366119385 2.4672112464904785
33.957557678222656 7.007654190063477 2.464184284210205
33.96643829345703 6.792555809020996 2.4609572887420654
33.969058990478516 6.576661586761475 2.457901954650879
33.96047592163086 6.359149932861328 2.4551897048950195
33.97804641723633 6.146973609924316 2.4515252113342285
33.98937225341797 5.933960437774658 2.4480319023132324
34.003299713134766 5.721701622009277 2.444399833679199
34.02083969116211 5.510293960571289 2.4405956268310547
34.02619934082031 5.297194480895996 2.4371705055236816
34.02627182006836 5.083644866943359 2.4338860511779785
34.04084014892578 4.872559547424316 2.4300451278686523
34.05607604980469 4.661756992340088 2.4261324405670166
34.06108856201172 4.449784278869629 2.422534942626953
34.06874465942383 4.2384185791015625 2.4187965393066406
