# .PCD v0.7 - Point Cloud Data file format
VERSION 0.7
FIELDS x y z
SIZE 4 4 4
TYPE F F F
COUNT 1 1 1
WIDTH 847
HEIGHT 1
VIEWPOINT 0 0 0 1 0 0 0
POINTS 847
DATA ascii
19.23072052001953 0.6515018343925476 0.9217934608459473
19.24588394165039 0.5338715314865112 0.917612612247467
12.858356475830078 -0.7488423585891724 1.7930583953857422
12.856247901916504 -0.8278831243515015 1.7909501791000366
19.771692276000977 -5.928728103637695 0.5794886946678162
19.48297882080078 -5.972774028778076 0.6158470511436462
19.26434326171875 -6.0353851318359375 0.6414216756820679
19.097503662109375 -6.112124443054199 0.6589744687080383
18.859935760498047 -6.164005756378174 0.6875852346420288
18.81576156616211 -6.277683258056641 0.685960054397583
18.826143264770508 -6.4098591804504395 0.6756567358970642
18.809446334838867 -6.5333147048950195 0.6694691181182861
18.800329208374023 -6.659780502319336 0.6619530916213989
18.81362533569336 -6.794779300689697 0.6507437825202942
18.80368995666504 -6.921995639801025 0.6430689692497253
18.81975555419922 -7.059418201446533 0.6311037540435791
18.8154354095459 -7.189888000488281 0.6222338676452637
18.81390380859375 -7.322006702423096 0.612766444683075
18.818815231323242 -7.457292556762695 0.6021066308021545
18.832855224609375 -7.59698486328125 0.589807391166687
18.83490753173828 -7.732624530792236 0.5792781114578247
18.84238624572754 -7.871245384216309 0.5677011609077454
18.846139907836914 -8.009090423583984 0.5565605163574219
18.858890533447266 -8.151594161987305 0.5437751412391663
18.8751220703125 -8.296545028686523 0.53023362159729
18.8740291595459 -8.43474292755127 0.5193626880645752
18.862045288085938 -8.568742752075195 0.5101242661476135
18.886825561523438 -8.720320701599121 0.4946123957633972
18.889862060546875 -8.862868309020996 0.4825214445590973
19.132844924926758 -9.120645523071289 0.43005508184432983
19.149097442626953 -9.273150444030762 0.4152202010154724
18.947704315185547 -9.319732666015625 0.43690958619117737
16.607696533203125 -8.29599666595459 0.821010947227478
16.538494110107422 -8.388752937316895 0.8217806220054626
16.467021942138672 -8.480071067810059 0.8228611946105957
16.239093780517578 -8.489310264587402 0.8506917357444763
16.689395904541016 -8.855627059936523 0.7619152069091797
16.19915771484375 -8.723475456237793 0.8348969221115112
15.976673126220703 -8.730704307556152 0.8619274497032166
16.152442932128906 -8.956025123596191 0.8196938037872314
16.15887451171875 -9.089812278747559 0.8066602349281311
16.259572982788086 -9.278395652770996 0.7768646478652954
16.171178817749023 -9.360116004943848 0.780109703540802
16.072168350219727 -9.435099601745605 0.7851842045783997
16.114696502685547 -9.593660354614258 0.7650146484375
15.999320983886719 -9.658597946166992 0.7728301286697388
16.008535385131836 -9.798851013183594 0.7582468390464783
12.63029670715332 12.669690132141113 1.2620902061462402
12.651150703430176 12.536166191101074 1.2710644006729126
12.6998872756958 12.431294441223145 1.2746437788009644
12.747102737426758 12.325607299804688 1.278351068496704
12.764115333557129 12.191733360290527 1.2874600887298584
12.764829635620117 12.043827056884766 1.2993429899215698
12.831648826599121 11.959230422973633 1.298957347869873
12.862177848815918 11.841364860534668 1.3050355911254883
12.907880783081055 11.738247871398926 1.3082066774368286
12.963127136230469 11.644289016723633 1.309522032737732
12.993983268737793 11.529038429260254 1.3150670528411865
13.040314674377441 11.42822265625 1.3176984786987305
13.050679206848145 11.29677677154541 1.3265557289123535
13.101359367370605 11.20106315612793 1.3281222581863403
13.141512870788574 11.096839904785156 1.3314094543457031
13.18544864654541 10.996352195739746 1.3338974714279175
13.217940330505371 10.886919021606445 1.3382422924041748
13.258811950683594 10.785004615783691 1.3409903049468994
13.295843124389648 10.68051815032959 1.3442679643630981
13.326658248901367 10.571667671203613 1.3484760522842407
13.362101554870605 10.467118263244629 1.3517504930496216
13.403820037841797 10.367989540100098 1.3538219928741455
13.444038391113281 10.26814079284668 1.3560237884521484
13.476418495178223 10.162816047668457 1.3594247102737427
13.508013725280762 10.057479858398438 1.3628246784210205
13.547609329223633 9.958593368530273 1.3647513389587402
13.5792818069458 9.854360580444336 1.3678802251815796
13.617438316345215 9.7553071975708 1.3698015213012695
13.652464866638184 9.654438972473145 1.3721222877502441
13.692455291748047 9.557477951049805 1.3735013008117676
13.730955123901367 9.45982551574707 1.37501060962677
13.771230697631836 9.363730430603027 1.3761138916015625
13.802618026733398 9.261974334716797 1.3785580396652222
13.843192100524902 9.166749954223633 1.3793853521347046
13.872333526611328 9.06432819366455 1.381960153579712
13.914896965026855 8.971020698547363 1.3822414875030518
13.955166816711426 8.87646770477295 1.3827879428863525
13.978017807006836 8.771221160888672 1.386031150817871
14.027060508728027 8.682719230651855 1.3849499225616455
14.059479713439941 8.584131240844727 1.3864316940307617
14.098855018615723 8.490073204040527 1.3866928815841675
14.138458251953125 8.396357536315918 1.3868144750595093
14.176589012145996 8.301974296569824 1.387067198753357
14.206371307373047 8.202978134155273 1.388537049293518
14.243223190307617 8.1083402633667 1.3887826204299927
14.282904624938965 8.015497207641602 1.3884806632995605
14.41040325164795 7.971394062042236 1.3743031024932861
14.747504234313965 8.040339469909668 1.3272978067398071
15.288423538208008 8.214245796203613 1.248611330986023
19.23186492919922 0.7603136897087097 0.8103387355804443
19.220972061157227 0.6418482065200806 0.810015082359314
19.2390193939209 0.5243546366691589 0.8053306937217712
12.88731575012207 -0.6777519583702087 1.7152307033538818
12.861934661865234 -0.755565881729126 1.7166367769241333
12.869645118713379 -0.8352679014205933 1.7130367755889893
19.668272018432617 -5.9081220626831055 0.4739055335521698
19.40165901184082 -5.958158493041992 0.5082930326461792
19.126705169677734 -6.0024895668029785 0.5441170930862427
18.946069717407227 -6.073838233947754 0.564757227897644
18.827280044555664 -6.163488864898682 0.5753658413887024
18.785911560058594 -6.277903079986572 0.5733204483985901
18.758811950683594 -6.3971476554870605 0.568834125995636
18.841094970703125 -6.554601192474365 0.5462942123413086
18.78802490234375 -6.665738582611084 0.5457766652107239
18.793777465820312 -6.797980308532715 0.5354586839675903
18.810665130615234 -6.9349870681762695 0.5231387615203857
18.805295944213867 -7.0644683837890625 0.5143380165100098
18.803653717041016 -7.1959123611450195 0.504763662815094
18.787296295166016 -7.3222222328186035 0.4974895715713501
18.804075241088867 -7.462085247039795 0.48451951146125793
18.824420928955078 -7.604281902313232 0.470767617225647
18.803512573242188 -7.730483055114746 0.4637843370437622
18.821870803833008 -7.873488903045654 0.45001286268234253
18.853721618652344 -8.023200988769531 0.43375879526138306
18.839099884033203 -8.153983116149902 0.4252133071422577
16.5347843170166 -7.277784824371338 0.8079667091369629
16.467819213867188 -7.369374752044678 0.8094672560691833
16.432729721069336 -7.475141525268555 0.805404782295227
16.35391616821289 -7.5608625411987305 0.8087823987007141
16.285404205322266 -7.650940895080566 0.8103135228157043
16.431272506713867 -7.842998027801514 0.7744503617286682
18.960372924804688 -9.193251609802246 0.32180196046829224
16.614015579223633 -8.182271957397461 0.720772922039032
16.532209396362305 -8.268549919128418 0.7239880561828613
16.376869201660156 -8.317018508911133 0.740138590335846
16.433162689208984 -8.472969055175781 0.7187751531600952
16.535409927368164 -8.654653549194336 0.688969075679779
16.27750015258789 -8.64748764038086 0.7232581973075867
16.112478256225586 -8.687166213989258 0.7410562634468079
15.98918628692627 -8.747901916503906 0.7513898015022278
16.208616256713867 -8.997733116149902 0.6996622681617737
16.306791305541992 -9.183709144592285 0.6694643497467041
16.038789749145508 -9.163044929504395 0.7057957649230957
15.982754707336426 -9.261733055114746 0.7034766674041748
16.11174201965332 -9.469151496887207 0.6669705510139465
16.08011817932129 -9.583963394165039 0.6597733497619629
16.119535446166992 -9.742156982421875 0.6392239928245544
12.610580444335938 12.66766357421875 1.1563714742660522
12.643439292907715 12.546133995056152 1.1634809970855713
12.683772087097168 12.432998657226562 1.1689409017562866
12.726753234863281 12.323282241821289 1.1737110614776611
12.761712074279785 12.206660270690918 1.1798558235168457
12.795720100402832 12.090073585510254 1.1859997510910034
12.830230712890625 11.974879264831543 1.1918678283691406
12.864540100097656 11.860387802124023 1.1975973844528198
12.901593208312988 11.749258041381836 1.2026361227035522
12.94660472869873 11.64606761932373 1.2060154676437378
12.984174728393555 11.536846160888672 1.2106359004974365
13.01642894744873 11.423681259155273 1.216084599494934
13.04928207397461 11.31185245513916 1.221256136894226
13.087274551391602 11.205202102661133 1.2253186702728271
13.12218189239502 11.09659194946289 1.2297954559326172
13.160054206848145 10.9911470413208 1.2335773706436157
13.196365356445312 10.885024070739746 1.237496018409729
13.232638359069824 10.779494285583496 1.2412737607955933
13.271202087402344 10.676410675048828 1.2444939613342285
13.305898666381836 10.570795059204102 1.2482681274414062
13.341361045837402 10.466376304626465 1.2517621517181396
13.381525039672852 10.366165161132812 1.254279375076294
13.42017650604248 10.265251159667969 1.2569332122802734
13.453352928161621 10.16067123413086 1.2604210376739502
13.485754013061523 10.056070327758789 1.2639071941375732
13.518976211547852 9.95262622833252 1.2671128511428833
13.559446334838867 9.854973793029785 1.2689189910888672
13.59681510925293 9.755465507507324 1.2711411714553833
13.630245208740234 9.653579711914062 1.2739208936691284
13.669427871704102 9.556188583374023 1.2755776643753052
13.707932472229004 9.458678245544434 1.277230978012085
13.742481231689453 9.358823776245117 1.279442310333252
13.777966499328613 9.260004997253418 1.2813705205917358
13.816058158874512 9.163291931152344 1.2827339172363281
13.852655410766602 9.06591510772705 1.2842345237731934
13.890241622924805 8.96950626373291 1.2854506969451904
13.920487403869629 8.868721961975098 1.2877898216247559
13.960917472839355 8.774750709533691 1.2882953882217407
13.998194694519043 8.679049491882324 1.2892200946807861
14.037359237670898 8.584769248962402 1.2897173166275024
14.077589988708496 8.491357803344727 1.2899281978607178
14.117203712463379 8.397772789001465 1.2901350259780884
14.155344009399414 8.303519248962402 1.2904784679412842
14.197145462036133 8.211590766906738 1.290110468864441
14.240072250366211 8.120441436767578 1.2894537448883057
14.285866737365723 8.031011581420898 1.288224458694458
14.383916854858398 7.9705891609191895 1.2783360481262207
14.73456859588623 8.047327041625977 1.2271147966384888
15.233985900878906 8.199335098266602 1.1517990827560425
19.231061935424805 0.7744503617286682 0.6939801573753357
15.758543014526367 0.5379000902175903 1.223497748374939
19.280845642089844 0.5396905541419983 0.6824657320976257
12.869733810424805 -0.7457026839256287 1.6376062631607056
12.861703872680664 -0.8244317770004272 1.6363812685012817
19.72618293762207 -5.9099202156066895 0.34047093987464905
19.206689834594727 -5.8830084800720215 0.4186461567878723
19.023765563964844 -5.954971790313721 0.44062188267707825
18.866086959838867 -6.033036708831787 0.4583642780780792
18.799219131469727 -6.139127731323242 0.46077021956443787
18.771099090576172 -6.257744789123535 0.456525981426239
16.497072219848633 -5.612380504608154 0.83356112241745
18.77883529663086 -6.517624855041504 0.4367627799510956
16.66916275024414 -5.900296211242676 0.7876806259155273
16.5440673828125 -5.970578670501709 0.800575852394104
18.780487060546875 -6.908366680145264 0.4076220691204071
18.811288833618164 -7.051140785217285 0.3923709988594055
18.788475036621094 -7.174479007720947 0.38619542121887207
18.843975067138672 -7.328578472137451 0.3662930130958557
18.843215942382812 -7.461821556091309 0.35595235228538513
18.83969497680664 -7.594594955444336 0.34592410922050476
18.853513717651367 -7.735101699829102 0.3326904773712158
18.861759185791016 -7.874163627624512 0.3202461898326874
18.85719108581543 -8.0086030960083 0.3098751902580261
18.85077476501465 -8.14289379119873 0.29965776205062866
18.875947952270508 -8.291699409484863 0.283658504486084
18.877466201782227 -8.431058883666992 0.27165868878364563
16.251953125 -7.378449440002441 0.7292014956474304
16.274118423461914 -7.509413242340088 0.7148027420043945
16.217540740966797 -7.6044721603393555 0.7143926620483398
16.20585060119629 -7.720771312713623 0.7057766914367676
16.122270584106445 -7.8028178215026855 0.7100505828857422
16.761001586914062 -8.239421844482422 0.5827237367630005
16.58348846435547 -8.279024124145508 0.6035561561584473
16.48182487487793 -8.355138778686523 0.6105366945266724
16.436012268066406 -8.459224700927734 0.6071914434432983
16.542604446411133 -8.643041610717773 0.5755407810211182
16.362468719482422 -8.677292823791504 0.5967898964881897
16.11737632751465 -8.674588203430176 0.6302294731140137
16.333669662475586 -8.92085075378418 0.5774795413017273
16.200565338134766 -8.977807998657227 0.5898817777633667
16.34347915649414 -9.18870735168457 0.5501965880393982
16.594961166381836 -9.464757919311523 0.4895058572292328
16.04424285888672 -9.281747817993164 0.5809166431427002
16.062347412109375 -9.42441177368164 0.5642727017402649
16.016555786132812 -9.530313491821289 0.5596628189086914
16.046092987060547 -9.681883811950684 0.5403932929039001
12.61043643951416 12.671951293945312 1.0415188074111938
12.661615371704102 12.568578720092773 1.0452853441238403
12.680912017822266 12.434568405151367 1.0553725957870483
12.721081733703613 12.322138786315918 1.0610042810440063
12.759636878967285 12.208998680114746 1.066778540611267
12.80160140991211 12.099926948547363 1.07168710231781
12.837647438049316 11.986072540283203 1.0776017904281616
12.86259651184082 11.862836837768555 1.0855344533920288
12.91285514831543 11.763736724853516 1.0882748365402222
12.935903549194336 11.640636444091797 1.096207618713379
12.981597900390625 11.538732528686523 1.0995200872421265
13.025044441223145 11.435399055480957 1.1031181812286377
13.06173324584961 11.326777458190918 1.1078699827194214
13.082551002502441 11.2052640914917 1.1155147552490234
13.128812789916992 11.10628604888916 1.118093490600586
13.157649993896484 10.993205070495605 1.1238559484481812
13.194755554199219 10.887743949890137 1.1278786659240723
13.231830596923828 10.782864570617676 1.1317540407180786
13.263492584228516 10.674217224121094 1.1364986896514893
13.299744606018066 10.569896697998047 1.1402257680892944
13.338332176208496 10.467972755432129 1.1433690786361694
13.377735137939453 10.367185592651367 1.1462188959121704
13.413262367248535 10.263901710510254 1.1496480703353882
13.449605941772461 10.161765098571777 1.152783989906311
13.484410285949707 10.058975219726562 1.1560633182525635
13.520055770874023 9.95731258392334 1.1590487957000732
13.549360275268555 9.851517677307129 1.16305410861969
13.582700729370117 9.749197006225586 1.1661823987960815
13.616913795471191 9.647981643676758 1.1690161228179932
13.654448509216309 9.549546241760254 1.1711164712905884
13.693734169006348 9.452698707580566 1.1727747917175293
13.733161926269531 9.356284141540527 1.1742830276489258
13.770282745361328 9.258634567260742 1.176080584526062
13.806723594665527 9.160881042480469 1.177875280380249
13.841656684875488 9.062484741210938 1.1798136234283447
13.880889892578125 8.967226028442383 1.1808677911758423
13.917805671691895 8.870760917663574 1.182212233543396
13.954062461853027 8.774177551269531 1.1835532188415527
13.988819122314453 8.676961898803711 1.1850382089614868
14.026284217834473 8.58171272277832 1.1859310865402222
14.0698823928833 8.490416526794434 1.1856409311294556
14.110339164733887 8.397388458251953 1.185787558555603
14.15018367767334 8.304184913635254 1.1859303712844849
14.191128730773926 8.21179485321045 1.1857722997665405
14.234051704406738 8.120683670043945 1.1851664781570435
14.27811336517334 8.03032398223877 1.1842588186264038
14.376957893371582 7.9704179763793945 1.1738691329956055
14.737690925598145 8.052812576293945 1.118708610534668
15.234040260314941 8.203282356262207 1.0406252145767212
19.234806060791016 0.7789251208305359 0.5696595907211304
15.751919746398926 0.5410655736923218 1.123211145401001
19.256929397583008 0.543350875377655 0.562288224697113
12.861106872558594 -0.7425692677497864 1.5561524629592896
12.85604476928711 -0.8214345574378967 1.5544688701629639
16.491138458251953 -3.216987371444702 0.8741859197616577
16.522974014282227 -3.3285903930664062 0.863246738910675
16.47966766357422 -3.4252469539642334 0.8648011088371277
16.46860122680664 -3.5285277366638184 0.8608368635177612
16.491575241088867 -3.6394572257995605 0.8510164022445679
16.488786697387695 -3.745121717453003 0.845418393611908
16.16119384765625 -3.985024929046631 0.8822894096374512
19.911190032958984 -5.827516555786133 0.1849065124988556
19.580724716186523 -5.861551761627197 0.23332418501377106
19.288347244262695 -5.903304576873779 0.27525168657302856
19.094120025634766 -5.97231912612915 0.3001501262187958
18.850927352905273 -6.023567199707031 0.3336511552333832
18.792564392089844 -6.132335662841797 0.33476921916007996
16.239736557006836 -5.409918308258057 0.7751025557518005
16.411317825317383 -5.579252243041992 0.7366583943367004
16.31863784790039 -5.659761905670166 0.7447081804275513
16.10843276977539 -5.697910785675049 0.7735893726348877
16.422574996948242 -5.922728538513184 0.709125280380249
18.807106018066406 -6.9134321212768555 0.27418404817581177
18.792539596557617 -7.039370059967041 0.26654571294784546
18.85452651977539 -7.1949238777160645 0.244988352060318
18.837173461914062 -7.321139812469482 0.2374993860721588
18.862075805664062 -7.464470386505127 0.22221015393733978
18.849334716796875 -7.593643665313721 0.2135491967201233
18.855785369873047 -7.731173992156982 0.2012287676334381
18.852155685424805 -7.865273952484131 0.19056153297424316
18.840320587158203 -7.9965410232543945 0.18121972680091858
18.8828067779541 -8.151798248291016 0.16171491146087646
18.869915008544922 -8.284099578857422 0.15218991041183472
16.37105369567871 -7.3073883056640625 0.6029433012008667
18.89345932006836 -8.572773933410645 0.12344751507043839
16.287446975708008 -7.511353969573975 0.5970622301101685
16.19424819946289 -7.589347839355469 0.6035706400871277
16.284971237182617 -7.754217147827148 0.5754766464233398
16.15505027770996 -7.814452171325684 0.5886904001235962
16.808977127075195 -8.646658897399902 0.4169118404388428
16.570823669433594 -8.653305053710938 0.45009300112724304
16.45779037475586 -8.72337818145752 0.45929449796676636
16.244691848754883 -8.738690376281738 0.48786038160324097
16.238826751708984 -8.864601135253906 0.47624868154525757
16.20356559753418 -8.97500991821289 0.4701891839504242
16.129751205444336 -9.064075469970703 0.4715462028980255
16.105119705200195 -9.180888175964355 0.4631320834159851
16.069419860839844 -9.29181957244873 0.45674145221710205
15.964946746826172 -9.362772941589355 0.46386319398880005
15.958477020263672 -9.491239547729492 0.45139962434768677
15.919797897338867 -9.60114574432373 0.4451865553855896
12.557676315307617 12.769868850708008 0.926613986492157
12.604040145874023 12.66108226776123 0.9318056106567383
12.639719009399414 12.542455673217773 0.9390900135040283
12.678656578063965 12.428019523620605 0.9454754590988159
12.715248107910156 12.312200546264648 0.9521589875221252
12.753043174743652 12.19845199584961 0.9583919048309326
12.794953346252441 12.089452743530273 0.9635733366012573
12.824445724487305 11.9696044921875 0.9711548089981079
12.854406356811523 11.851188659667969 0.9784361124038696
12.888517379760742 11.737515449523926 0.9846658110618591
12.939358711242676 11.639738082885742 0.987285315990448
12.974708557128906 11.528643608093262 0.9929096698760986
12.995067596435547 11.405159950256348 1.001394271850586
13.047270774841309 11.310354232788086 1.003251552581787
13.088287353515625 11.206335067749023 1.007214069366455
13.126256942749023 11.100320816040039 1.0116266012191772
13.155075073242188 10.987289428710938 1.017697811126709
13.186054229736328 10.876839637756348 1.0231648683547974
13.22307300567627 10.772039413452148 1.0272712707519531
13.25930404663086 10.667194366455078 1.0313751697540283
13.29088020324707 10.559234619140625 1.0362343788146973
13.325521469116211 10.454337120056152 1.0403352975845337
13.360158920288086 10.350016593933105 1.044283151626587
13.405011177062988 10.254072189331055 1.0461065769195557
13.446822166442871 10.15617847442627 1.0483808517456055
13.476848602294922 10.049881935119629 1.0527769327163696
13.514833450317383 9.950044631958008 1.055500864982605
13.536111831665039 9.838495254516602 1.0612629652023315
13.57660961151123 9.74146556854248 1.063223123550415
13.615620613098145 9.6437349319458 1.0653313398361206
13.652324676513672 9.544757843017578 1.0677411556243896
13.69646167755127 9.451306343078613 1.0686242580413818
13.739967346191406 9.357670783996582 1.0695021152496338
13.76479721069336 9.251726150512695 1.0737336874008179
13.800374984741211 9.153473854064941 1.075826644897461
13.832786560058594 9.053509712219238 1.0783753395080566
13.871964454650879 8.958316802978516 1.079545497894287
13.916329383850098 8.866698265075684 1.0796407461166382
13.94754409790039 8.766983985900879 1.0820276737213135
13.982258796691895 8.669819831848145 1.0836464166641235
14.020523071289062 8.575138092041016 1.084495186805725
14.064075469970703 8.48388385772705 1.0842660665512085
14.104488372802734 8.390901565551758 1.084492564201355
14.14428997039795 8.29773998260498 1.0847139358520508
14.190321922302246 8.20836353302002 1.0837007761001587
14.228065490722656 8.114325523376465 1.084066390991211
14.264328956604004 8.019647598266602 1.0845823287963867
14.399348258972168 7.979913234710693 1.0673705339431763
14.710427284240723 8.034978866577148 1.0188231468200684
15.24888801574707 8.208294868469238 0.9300756454467773
14.61137580871582 7.635751724243164 1.0561940670013428
19.228652954101562 0.7762161493301392 0.4500221014022827
19.239545822143555 0.6585066914558411 0.44637545943260193
19.27140998840332 0.5413011312484741 0.4391270577907562
12.865808486938477 -0.744751513004303 1.474563479423523
12.851861953735352 -0.8230783939361572 1.4743688106536865
16.218809127807617 -2.7547214031219482 0.8373517990112305
16.256776809692383 -2.966895341873169 0.8203168511390686
16.24178123474121 -3.067274808883667 0.8175011277198792
16.30937385559082 -3.1838200092315674 0.8002225756645203
16.0814151763916 -3.2419207096099854 0.8342564702033997
16.235544204711914 -3.376805067062378 0.8016471862792969
16.14862060546875 -3.462268352508545 0.810965359210968
16.190237045288086 -3.5752663612365723 0.7976984977722168
16.187820434570312 -3.6790802478790283 0.7920141816139221
16.103153228759766 -3.7639389038085938 0.8006864786148071
16.097604751586914 -3.86700177192688 0.795344352722168
19.32225227355957 -5.916402816772461 0.14223748445510864
19.000198364257812 -5.945647239685059 0.1913197636604309
18.857803344726562 -6.028465747833252 0.20790080726146698
18.779747009277344 -6.130861282348633 0.2127346247434616
16.18473243713379 -5.394061088562012 0.6774598360061646
16.20412826538086 -5.511300086975098 0.6655625104904175
16.31949806213379 -5.662563800811768 0.6358628273010254
16.33979606628418 -5.782260894775391 0.6234186291694641
16.44913101196289 -5.934848785400391 0.5943441987037659
16.01811408996582 -5.8907880783081055 0.6651907563209534
18.78583526611328 -7.039671421051025 0.14147301018238068
18.826522827148438 -7.187070846557617 0.12317250669002533
16.059186935424805 -6.244091987609863 0.6301048994064331
16.30121612548828 -7.159172058105469 0.5141869187355042
16.284469604492188 -7.271458625793457 0.5066489577293396
16.311803817749023 -7.404162883758545 0.4904632270336151
16.32380485534668 -7.530876636505127 0.4770316481590271
16.2207088470459 -7.6045122146606445 0.48575326800346375
16.14933967590332 -7.692415237426758 0.48825740814208984
16.592741012573242 -8.40984058380127 0.3533143401145935
16.531660079956055 -8.506937980651855 0.3528238832950592
16.33559226989746 -8.533397674560547 0.37913551926612854
16.485231399536133 -8.740888595581055 0.33637407422065735
16.40052604675293 -8.825495719909668 0.3402542471885681
16.166751861572266 -8.82823371887207 0.374134361743927
16.186805725097656 -8.968729019165039 0.35678043961524963
16.337064743041992 -9.183615684509277 0.3127049505710602
16.115764617919922 -9.189997673034668 0.34404224157333374
16.138778686523438 -9.33499526977539 0.32543855905532837
16.237899780273438 -9.525952339172363 0.2909032702445984
16.111032485961914 -9.585089683532715 0.30271434783935547
16.639101028442383 -10.038158416748047 0.1784660369157791
12.56587028503418 12.773396492004395 0.8293441534042358
12.601808547973633 12.65408706665039 0.8370895981788635
12.628342628479004 12.526468276977539 0.8466932773590088
12.673544883728027 12.41836166381836 0.8519596457481384
12.722156524658203 12.31429386138916 0.8562924861907959
12.757121086120605 12.19780445098877 0.8634145259857178
12.785393714904785 12.075922966003418 0.8717776536941528
12.830710411071777 11.971000671386719 0.8762590289115906
12.869412422180176 11.86061954498291 0.8819801211357117
12.903594017028809 11.746888160705566 0.8884775042533875
12.93246078491211 11.629219055175781 0.8959071040153503
12.96997356414795 11.52016544342041 0.9013140201568604
13.009607315063477 11.413695335388184 0.9060959815979004
13.056636810302734 11.314287185668945 0.9091616272926331
13.090930938720703 11.204451560974121 0.914717972278595
13.129652976989746 11.099084854125977 0.9191811084747314
13.170608520507812 10.996195793151855 0.9230175614356995
13.19479751586914 10.880023002624512 0.9301321506500244
13.226483345031738 10.770827293395996 0.9355280995368958
13.261946678161621 10.665366172790527 0.9399852156639099
13.298162460327148 10.561100959777832 0.9441272616386414
13.342147827148438 10.463499069213867 0.9465447664260864
13.374507904052734 10.357285499572754 0.9511522054672241
13.406853675842285 10.251666069030762 0.9556017518043518
13.446290016174316 10.151991844177246 0.9584807753562927
13.474717140197754 10.04454231262207 0.9633980989456177
13.511878967285156 9.944150924682617 0.9664298892021179
13.541926383972168 9.839035987854004 0.9707162976264954
13.580021858215332 9.740256309509277 0.9732717275619507
13.621445655822754 9.644233703613281 0.9750369191169739
13.693355560302734 9.44559097290039 0.98028963804245
13.734376907348633 9.350317001342773 0.9817292094230652
13.759172439575195 9.244428634643555 0.9861630797386169
13.801294326782227 9.150592803955078 0.9871228933334351
13.842782020568848 9.056587219238281 0.9880782961845398
13.879488945007324 8.959736824035645 0.9898197054862976
13.914698600769043 8.86224365234375 0.9917163252830505
13.94672679901123 8.763078689575195 0.9940850734710693
13.982258796691895 8.66645336151123 0.9956591725349426
14.024713516235352 8.574356079101562 0.9958033561706543
14.068255424499512 8.48308277130127 0.995625376701355
14.112902641296387 8.392606735229492 0.9951247572898865
14.159524917602539 8.303397178649902 0.9941414594650269
14.189345359802246 8.204538345336914 0.9961725473403931
14.229636192321777 8.111981391906738 0.9961336255073547
14.265883445739746 8.017302513122559 0.9967265129089355
14.433623313903809 7.995691299438477 0.9729446172714233
14.697797775268555 8.0248441696167 0.9314322471618652
15.223641395568848 8.191410064697266 0.842006504535675
15.990126609802246 8.478086471557617 0.708877444267273
19.234455108642578 0.7736304402351379 0.34543219208717346
15.740283966064453 0.5360507965087891 0.9415861368179321
19.264310836791992 0.5382823944091797 0.3365435004234314
12.8863525390625 -0.668805718421936 1.4040533304214478
12.856145858764648 -0.7463453412055969 1.4068002700805664
12.853006362915039 -0.8253048062324524 1.4047760963439941
16.243255615234375 -1.5438882112503052 0.7985604405403137
16.30758285522461 -1.752152681350708 0.779374897480011
16.30594825744629 -1.8532460927963257 0.7755168080329895
16.275320053100586 -1.950990915298462 0.7766395807266235
16.31643295288086 -2.0575430393218994 0.7650449872016907
16.238679885864258 -2.1490519046783447 0.7742568850517273
16.298982620239258 -2.2588717937469482 0.7590352296829224
16.279573440551758 -2.358085870742798 0.757753312587738
16.199174880981445 -2.448031425476074 0.7671651840209961
16.231164932250977 -2.5548338890075684 0.7565769553184509
16.33380126953125 -2.7768213748931885 0.7281081080436707
16.393686294555664 -2.8906171321868896 0.712118923664093
16.202804565429688 -2.959625720977783 0.7407675385475159
16.18300437927246 -3.0587589740753174 0.7388043403625488
16.272789001464844 -3.1792776584625244 0.7170819640159607
16.14930534362793 -3.2581915855407715 0.7334956526756287
16.140209197998047 -3.3595807552337646 0.729280948638916
16.232547760009766 -3.4828696250915527 0.7066499590873718
16.05279541015625 -3.5475285053253174 0.7330172657966614
16.216650009155273 -3.6882576942443848 0.6971442699432373
16.096494674682617 -3.765005350112915 0.7125850915908813
16.219375610351562 -5.4083991050720215 0.578686535358429
16.548952102661133 -5.631400108337402 0.5078443288803101
16.302593231201172 -5.65953254699707 0.5456486940383911
16.15860366821289 -5.720985412597656 0.5641129016876221
16.408903121948242 -5.923211097717285 0.5074268579483032
16.349685668945312 -6.015579700469971 0.5094796419143677
16.133270263671875 -6.048725128173828 0.5415868759155273
16.069717407226562 -6.137724876403809 0.5443880558013916
16.237756729125977 -6.3164215087890625 0.5024245381355286
15.998815536499023 -6.33690071105957 0.5388656258583069
16.540754318237305 -7.26742696762085 0.3705193102359772
16.329214096069336 -7.29449987411499 0.40122681856155396
16.356321334838867 -7.427454948425293 0.38461676239967346
16.310922622680664 -7.5280375480651855 0.38224825263023376
16.356670379638672 -7.671370983123779 0.36151841282844543
16.020183563232422 -7.634007930755615 0.41731563210487366
16.508968353271484 -8.627260208129883 0.24364221096038818
16.472681045532227 -8.73756217956543 0.23783761262893677
16.279726028442383 -8.763825416564941 0.2643217444419861
16.246807098388672 -8.875288963317871 0.25764358043670654
16.31122589111328 -9.041036605834961 0.23049092292785645
16.008060455322266 -9.002058982849121 0.2800540328025818
16.093950271606445 -9.180960655212402 0.24804386496543884
16.104156494140625 -9.318400382995605 0.2316581904888153
16.157390594482422 -9.482195854187012 0.20589712262153625
16.024934768676758 -9.537347793579102 0.219392791390419
16.016218185424805 -9.665933609008789 0.20641182363033295
12.542288780212402 12.76730728149414 0.7239682078361511
12.587286949157715 12.657259941101074 0.7299792766571045
12.649618148803711 12.56522274017334 0.7318090200424194
12.673954010009766 12.436259269714355 0.7421548962593079
12.698606491088867 12.308843612670898 0.752181351184845
12.741425514221191 12.200021743774414 0.7578629851341248
12.806336402893066 12.112837791442871 0.758387565612793
12.823779106140137 11.981521606445312 0.7693800926208496
12.872736930847168 11.880563735961914 0.7731199264526367
12.894682884216309 11.755520820617676 0.782663881778717
12.935386657714844 11.648486137390137 0.7878514528274536
12.987061500549316 11.551885604858398 0.790452241897583
13.009867668151855 11.430337905883789 0.7991893887519836
13.051054000854492 11.325760841369629 0.8037243485450745
13.086954116821289 11.217252731323242 0.8092271089553833
13.121264457702637 11.108092308044434 0.8148905038833618
13.163813591003418 11.006526947021484 0.818608820438385
13.198765754699707 10.899202346801758 0.8237828016281128
13.221427917480469 10.782505989074707 0.8313876986503601
13.27159309387207 10.6888427734375 0.8329903483390808
13.303345680236816 10.580839157104492 0.838322103023529
13.349020957946777 10.484427452087402 0.8405661582946777
13.373740196228027 10.372130393981934 0.8470324873924255
13.410123825073242 10.269521713256836 0.8508970737457275
13.444178581237793 10.165665626525879 0.8550849556922913
13.485372543334961 10.067678451538086 0.8576425313949585
13.515546798706055 9.961956024169922 0.8623149394989014
13.564878463745117 9.87075424194336 0.8629101514816284
13.586356163024902 9.759749412536621 0.8690470457077026
13.618254661560059 9.656842231750488 0.8728993535041809
13.655057907104492 9.557867050170898 0.8756067156791687
13.698469161987305 9.463850021362305 0.8768401145935059
13.733904838562012 9.364657402038574 0.8795411586761475
13.776826858520508 9.270890235900879 0.8806025981903076
13.79117202758789 9.158393859863281 0.8872274160385132
13.829414367675781 9.062288284301758 0.888939380645752
13.86948299407959 8.967662811279297 0.8901551961898804
13.911405563354492 8.874478340148926 0.8908752202987671
13.957717895507812 8.784265518188477 0.8906054496765137
13.978304862976074 8.67820930480957 0.8952582478523254
14.014944076538086 8.582531929016113 0.8966239094734192
14.054311752319336 8.48876953125 0.8973280191421509
14.099838256835938 8.398882865905762 0.8967112302780151
14.144790649414062 8.308755874633789 0.896088719367981
14.190020561218262 8.21888542175293 0.8952953219413757
14.214982032775879 8.117521286010742 0.8982892632484436
14.289084434509277 8.044219970703125 0.8917108178138733
14.395590782165527 7.988496780395508 0.8788437843322754
14.668949127197266 8.023101806640625 0.8340629935264587
15.221932411193848 8.204849243164062 0.7361403703689575
19.231807708740234 0.7877118587493896 0.22849421203136444
15.747293472290039 0.5483484864234924 0.8443214893341064
19.262767791748047 0.5524386167526245 0.21929742395877838
12.879541397094727 -0.5789329409599304 1.3291540145874023
12.869553565979004 -0.6576108932495117 1.328526496887207
12.870877265930176 -0.7368654012680054 1.32578444480896
12.855996131896973 -0.8151655793190002 1.3258641958236694
16.223247528076172 -1.6300207376480103 0.6989352703094482
16.11568260192871 -1.719150424003601 0.7143667936325073
16.142597198486328 -1.8222613334655762 0.7053281664848328
16.070152282714844 -1.9140123128890991 0.7142217755317688
16.018674850463867 -2.0076382160186768 0.7192214131355286
16.00665855407715 -2.105971097946167 0.7169380187988281
16.00086212158203 -2.2051749229431152 0.713409423828125
15.913609504699707 -2.2927405834198 0.7246665358543396
16.014663696289062 -2.4077062606811523 0.7013579607009888
16.022546768188477 -2.509533405303955 0.6949681043624878
15.830696105957031 -2.579111099243164 0.7251734137535095
16.308961868286133 -2.759888172149658 0.6319708228111267
16.366926193237305 -2.87312912940979 0.6158767938613892
16.29633331298828 -2.963944673538208 0.6233810782432556
16.21654510498047 -3.0523672103881836 0.6325120329856873
16.35357093811035 -3.1822104454040527 0.6013475060462952
16.05653953552246 -3.2268102169036865 0.6506484150886536
16.089038848876953 -3.3362107276916504 0.6386606097221375
16.518102645874023 -3.531074285507202 0.5525048971176147
16.076868057250977 -3.540069580078125 0.6286637783050537
16.13408851623535 -3.6566503047943115 0.6116148829460144
16.137786865234375 -3.761784315109253 0.6044442653656006
16.093929290771484 -3.85587215423584 0.606091320514679
16.104236602783203 -5.466651439666748 0.488751083612442
16.08857536315918 -5.571749210357666 0.4829668700695038
16.22427749633789 -5.73057222366333 0.44730260968208313
16.263338088989258 -5.85695219039917 0.43037480115890503
16.330062866210938 -5.994532585144043 0.4077754616737366
16.073400497436523 -6.012580394744873 0.4490484297275543
16.095521926879883 -6.1338019371032715 0.4350312650203705
16.052597045898438 -6.230618953704834 0.433798611164093
16.371612548828125 -7.298918724060059 0.28428760170936584
16.40130043029785 -7.433270454406738 0.2666490077972412
16.362098693847656 -7.537006378173828 0.2629804015159607
16.331146240234375 -7.644711017608643 0.257473886013031
16.49053955078125 -8.731597900390625 0.1212976947426796
16.351381301879883 -8.786975860595703 0.1372290700674057
16.28895378112793 -8.882855415344238 0.13669657707214355
16.216508865356445 -8.973067283630371 0.1382123976945877
16.054460525512695 -9.012701034545898 0.1590362936258316
16.1649227142334 -9.20581340789795 0.12066873908042908
12.630986213684082 12.857818603515625 0.5773892402648926
12.71131706237793 12.782215118408203 0.5753372311592102
12.670190811157227 12.585906028747559 0.6022419333457947
12.694700241088867 12.456872940063477 0.6130821704864502
12.873129844665527 12.478282928466797 0.5872161984443665
12.771744728088379 12.229331016540527 0.627390444278717
12.796720504760742 12.104034423828125 0.6373952031135559
12.825687408447266 11.983601570129395 0.6462266445159912
12.876842498779297 11.884664535522461 0.6496837139129639
12.923625946044922 11.782227516174316 0.6539762020111084
12.950593948364258 11.662510871887207 0.6626371145248413
12.981003761291504 11.54683780670166 0.6702897548675537
13.017889976501465 11.43773365020752 0.67625892162323
13.062861442565918 11.33636474609375 0.6802058815956116
13.095855712890625 11.225250244140625 0.6866764426231384
13.146788597106934 11.130078315734863 0.688931405544281
13.16075325012207 11.004352569580078 0.6992790102958679
13.204834938049316 10.904605865478516 0.7027095556259155
13.243605613708496 10.800994873046875 0.7071497440338135
13.27392864227295 10.691133499145508 0.7132776379585266
13.305719375610352 10.583145141601562 0.7188977599143982
13.342889785766602 10.4800386428833 0.7231636047363281
13.393314361572266 10.387744903564453 0.7243803143501282
13.407116889953613 10.267659187316895 0.7333822846412659
13.45061206817627 10.170979499816895 0.7357785105705261
13.490267753601074 10.071789741516113 0.7388490438461304
13.525249481201172 9.969571113586426 0.7427646517753601
13.559486389160156 9.867301940917969 0.7466781139373779
13.594579696655273 9.766134262084961 0.7502501010894775
13.635375022888184 9.669468879699707 0.7524597644805908
13.665809631347656 9.565885543823242 0.756706953048706
13.697110176086426 9.463411331176758 0.7606121897697449
13.733368873596191 9.364798545837402 0.7633241415023804
13.761576652526855 9.261141777038574 0.7675665616989136
13.802165985107422 9.166213035583496 0.769080638885498
13.823978424072266 9.05925178527832 0.7743433117866516
13.862375259399414 8.963601112365723 0.77602219581604
13.902613639831543 8.86940860748291 0.7771851420402527
13.936381340026855 8.771383285522461 0.7795402407646179
13.987885475158691 8.684709548950195 0.7781307697296143
14.028768539428711 8.591557502746582 0.7787672877311707
14.071565628051758 8.499756813049316 0.778885543346405
14.092604637145996 8.395146369934082 0.7832817435264587
14.138376235961914 8.305566787719727 0.782535195350647
14.185283660888672 8.216726303100586 0.7814401388168335
14.2247896194458 8.123713493347168 0.7817115783691406
14.321203231811523 8.062904357910156 0.7704719305038452
14.390700340270996 7.9863972663879395 0.7645407915115356
14.950688362121582 8.177864074707031 0.6609280109405518
15.115518569946289 8.14819049835205 0.6361557245254517
15.965179443359375 8.480488777160645 0.47584807872772217
15.733867645263672 0.5487207770347595 0.736152708530426
12.821259498596191 -0.6545993089675903 1.2470067739486694
12.857919692993164 -0.7355760335922241 1.237641453742981
12.853837966918945 -0.814481258392334 1.2357749938964844
16.060340881347656 -1.6127541065216064 0.6149828433990479
16.092761993408203 -1.7158043384552002 0.6047762632369995
15.994617462158203 -1.8046627044677734 0.6190574765205383
15.965291023254395 -1.9006316661834717 0.6202747821807861
15.902230262756348 -1.9921585321426392 0.6277692914009094
15.814292907714844 -2.0797829627990723 0.6398926377296448
15.91573715209961 -2.1925547122955322 0.6160169839859009
15.868524551391602 -2.2853612899780273 0.6202086806297302
15.937397003173828 -2.3951969146728516 0.6022135019302368
15.79288387298584 -2.4726805686950684 0.6247339248657227
16.15530014038086 -2.63108491897583 0.5504167675971985
16.380395889282227 -2.8745503425598145 0.4964534044265747
16.239269256591797 -2.952634811401367 0.5178667902946472
16.185686111450195 -3.045632839202881 0.5224123001098633
16.243457794189453 -3.15984845161438 0.5054083466529846
16.154970169067383 -3.245669364929199 0.5164703130722046
16.16610336303711 -3.3512651920318604 0.5081958770751953
16.095834732055664 -3.4398763179779053 0.51555997133255
16.31486701965332 -3.591536045074463 0.46665412187576294
16.152225494384766 -3.659832239151001 0.4917272627353668
16.15681266784668 -3.7652885913848877 0.484179824590683
16.109121322631836 -3.8585851192474365 0.4867120683193207
16.25038719177246 -5.515303134918213 0.3394063115119934
16.1295223236084 -5.58497953414917 0.35479840636253357
16.267688751220703 -5.744937896728516 0.31733134388923645
16.247419357299805 -5.850252151489258 0.31195247173309326
16.28270149230957 -5.976171970367432 0.2950359880924225
16.293128967285156 -6.093803405761719 0.28302544355392456
16.12838363647461 -6.145367622375488 0.30698615312576294
16.160436630249023 -6.271514892578125 0.2902444005012512
16.401927947998047 -7.4325480461120605 0.13969174027442932
16.361814498901367 -7.5358710289001465 0.13616019487380981
16.220584869384766 -7.591965198516846 0.15419535338878632
16.158187866210938 -7.684132099151611 0.15526708960533142
12.672672271728516 12.895487785339355 0.4671725630760193
12.672638893127441 12.738619804382324 0.48513203859329224
12.660682678222656 12.571826934814453 0.5056917071342468
12.677400588989258 12.435319900512695 0.5188292264938354
12.719095230102539 12.324442863464355 0.525571882724762
13.099278450012207 12.538394927978516 0.44977185130119324
13.041003227233887 12.330608367919922 0.4807063937187195
12.807952880859375 11.962656021118164 0.5532355308532715
12.857538223266602 11.86251449584961 0.5572014451026917
12.903467178344727 11.75955867767334 0.5618565082550049
12.94422721862793 11.652531623840332 0.5675488114356995
12.992992401123047 11.553297996520996 0.5711561441421509
13.001075744628906 11.418807029724121 0.5841369032859802
13.030320167541504 11.304011344909668 0.5919105410575867
13.09827995300293 11.223248481750488 0.5904703736305237
13.13642406463623 11.117264747619629 0.5958046913146973
13.162431716918945 11.001758575439453 0.603747546672821
13.201188087463379 10.89763355255127 0.6085567474365234
13.246031761169434 10.799047470092773 0.6117958426475525
13.286332130432129 10.697232246398926 0.6159021854400635
13.278867721557617 10.557943344116211 0.6306452751159668
13.33525562286377 10.47022819519043 0.630738377571106
13.373948097229004 10.368943214416504 0.6346657276153564
13.402519226074219 10.260394096374512 0.6406868100166321
13.44832992553711 10.165539741516113 0.642687201499939
13.484015464782715 10.063438415527344 0.6467814445495605
13.52925968170166 9.96887493133545 0.6485990285873413
13.562705993652344 9.866022109985352 0.6528632044792175
13.59060287475586 9.759688377380371 0.6581766605377197
13.642606735229492 9.67103385925293 0.658055305480957
13.660158157348633 9.558398246765137 0.6652942895889282
13.698713302612305 9.461014747619629 0.6677966117858887
13.735777854919434 9.362963676452637 0.6704716682434082
14.041691780090332 9.446161270141602 0.6151626706123352
14.062082290649414 9.335366249084473 0.6213135719299316
14.082467079162598 9.225214004516602 0.6272898316383362
14.133447647094727 9.135470390319824 0.6265788078308105
14.168917655944824 9.035918235778809 0.6290311217308044
13.992082595825195 8.80311393737793 0.6762394309043884
13.990245819091797 8.682875633239746 0.6861183047294617
14.019362449645996 8.58252239227295 0.6892992258071899
14.060416221618652 8.489768028259277 0.6898303031921387
14.101704597473145 8.397335052490234 0.6901803016662598
14.144935607910156 8.306208610534668 0.6899950504302979
14.174802780151367 8.207468032836914 0.692457377910614
14.218523979187012 8.116966247558594 0.6919092535972595
14.260810852050781 8.025752067565918 0.6915326714515686
14.35500717163086 7.963449954986572 0.6803429126739502
14.70974349975586 8.042896270751953 0.6155954003334045
15.154332160949707 8.16590690612793 0.5326690673828125
15.52967643737793 8.245905876159668 0.46419113874435425
14.55501651763916 7.614429950714111 0.6709213852882385
15.729827880859375 0.5461969971656799 0.6487981677055359
12.860350608825684 -0.7378094792366028 1.1650104522705078
12.848406791687012 -0.8162317872047424 1.1646463871002197
15.931251525878906 -1.6022086143493652 0.549480140209198
16.00566864013672 -1.708945631980896 0.5309122800827026
15.98570442199707 -1.8060829639434814 0.5305164456367493
15.976849555969238 -1.9044357538223267 0.5278482437133789
16.005380630493164 -2.0075128078460693 0.5177788734436035
15.787948608398438 -2.0787360668182373 0.555554986000061
15.827994346618652 -2.1828954219818115 0.5430276989936829
15.907191276550293 -2.2933666706085205 0.522691011428833
15.805049896240234 -2.3777427673339844 0.5377238392829895
15.96240520477295 -2.5016705989837646 0.5017499327659607
15.82039737701416 -2.578995943069458 0.5244187712669373
16.382678985595703 -2.773928165435791 0.4083138406276703
16.268354415893555 -2.9604294300079346 0.41946351528167725
16.1973819732666 -3.050339460372925 0.42763522267341614
16.22998046875 -3.159743070602417 0.4151749908924103
16.07708168029785 -3.232529878616333 0.4394337236881256
16.094018936157227 -3.3388397693634033 0.42984551191329956
16.120811462402344 -3.4477386474609375 0.41814252734184265
16.2580509185791 -3.581578254699707 0.38419288396835327
16.123369216918945 -3.6558358669281006 0.4044867753982544
16.097354888916016 -3.7539803981781006 0.4029310643672943
16.130210876464844 -5.587949752807617 0.2586315870285034
16.12479019165039 -5.6972222328186035 0.2502705752849579
16.15924072265625 -5.8212666511535645 0.23335546255111694
16.181720733642578 -5.941892147064209 0.21875858306884766
16.194135665893555 -6.059577941894531 0.20609615743160248
16.101224899291992 -6.137819290161133 0.21561802923679352
16.117691040039062 -6.257743835449219 0.20178237557411194
12.692654609680176 12.906571388244629 0.3622645437717438
12.70869255065918 12.76572322845459 0.37672939896583557
12.685073852539062 12.58703899383545 0.40099483728408813
12.643589973449707 12.393282890319824 0.42937296628952026
12.682210922241211 12.27991771697998 0.4370887577533722
12.913310050964355 12.351558685302734 0.3962858021259308
13.35241985321045 12.616133689880371 0.30385956168174744
12.812747955322266 11.958597183227539 0.4552287459373474
12.865926742553711 11.86178970336914 0.458471417427063
12.903854370117188 11.75152587890625 0.46528297662734985
12.947500228881836 11.64716625213623 0.4704841375350952
12.9910888671875 11.543363571166992 0.4755032956600189
13.030936241149902 11.436867713928223 0.4812350869178772
13.045438766479492 11.309045791625977 0.4928746223449707
13.090999603271484 11.208992958068848 0.4968133568763733
13.115545272827148 11.09165096282959 0.5055885910987854
13.158778190612793 10.990827560424805 0.5097015500068665
13.194439888000488 10.884255409240723 0.5154266357421875
13.232342720031738 10.780141830444336 0.520431399345398
13.269466400146484 10.675971984863281 0.5254340767860413
13.309662818908691 10.574810981750488 0.5295361280441284
13.350668907165527 10.474770545959473 0.533275306224823
13.388617515563965 10.372815132141113 0.53755122423172
13.423474311828613 10.268994331359863 0.5423647165298462
13.456781387329102 10.164542198181152 0.547356367111206
13.465660095214844 10.042420387268066 0.5577532649040222
13.524238586425781 9.957901954650879 0.5566142797470093
13.563196182250977 9.859158515930176 0.5597968697547913
13.601451873779297 9.760311126708984 0.5629766583442688
13.609312057495117 9.640323638916016 0.5728365778923035
13.685532569885254 9.56908130645752 0.5671582818031311
13.643217086791992 9.415690422058105 0.5878682136535645
13.956356048583984 9.506277084350586 0.5291678309440613
