# .PCD v0.7 - Point Cloud Data file format
VERSION 0.7
FIELDS x y z
SIZE 4 4 4
TYPE F F F
COUNT 1 1 1
WIDTH 854
HEIGHT 1
VIEWPOINT 0 0 0 1 0 0 0
POINTS 854
DATA ascii
12.69684886932373 12.600189208984375 1.2984840869903564
12.791913986206055 12.69490909576416 0.3793131411075592
12.723310470581055 12.534436225891113 1.3009154796600342
12.767901420593262 12.578821182250977 0.3954527974128723
12.74374771118164 12.467412948608398 1.3040016889572144
12.72696304321289 12.451520919799805 0.4150597155094147
12.761717796325684 12.402626037597656 1.307132363319397
12.777971267700195 12.332180976867676 1.3108304738998413
12.799263954162598 12.266921043395996 1.3136104345321655
31.04397964477539 29.55235481262207 0.3328208327293396
12.823851585388184 12.205084800720215 1.3157776594161987
31.048843383789062 29.35136604309082 0.34060347080230713
12.848165512084961 12.143228530883789 1.317943811416626
31.050865173339844 29.148998260498047 0.3485766649246216
12.86496639251709 12.074556350708008 1.3213353157043457
12.896933555603027 12.105462074279785 0.42982450127601624
32.385501861572266 30.17812156677246 2.398128032684326
31.117090225219727 28.997644424438477 0.35035452246665955
12.890791893005371 12.010431289672852 1.323455572128296
12.926542282104492 12.044705390930176 0.43229928612709045
32.418983459472656 29.99872398376465 2.398287773132324
31.135507583618164 28.81269073486328 0.3564874529838562
12.9142484664917 11.94853401184082 1.3256198167800903
12.944757461547852 11.977790832519531 0.4369579255580902
32.48106384277344 29.846521377563477 2.3974506855010986
31.215436935424805 28.68531608581543 0.3563382923603058
12.931946754455566 11.881584167480469 1.3287039995193481
12.966294288635254 11.914226531982422 0.44076046347618103
32.531394958496094 29.68413734436035 2.396986484527588
31.30038070678711 28.562774658203125 0.35562863945961
12.953003883361816 11.817997932434082 1.331174373626709
12.989364624023438 11.85231876373291 0.44413405656814575
32.54621505737305 29.500598907470703 2.3976380825042725
13.016608238220215 11.800501823425293 2.195472478866577
12.97172737121582 11.756671905517578 1.3336896896362305
13.008289337158203 11.791009902954102 0.44798097014427185
32.53927993774414 29.288198471069336 2.3990590572357178
13.035369873046875 11.73499584197998 2.196782112121582
12.990379333496094 11.691426277160645 1.3364667892456055
13.032648086547852 11.730724334716797 0.4509248435497284
32.493995666503906 29.04290008544922 2.4017465114593506
13.059410095214844 11.674485206604004 2.1975350379943848
13.012433052062988 11.629498481750488 1.3386282920837402
13.051237106323242 11.665492057800293 0.4551534950733185
32.45673751831055 28.806568145751953 2.4041309356689453
13.081323623657227 11.612297058105469 2.1984729766845703
13.036070823669434 11.569208145141602 1.3404819965362549
13.067686080932617 11.598634719848633 0.45981156826019287
32.52260208129883 28.652753829956055 2.403062582015991
13.108715057373047 11.551106452941895 2.1989927291870117
13.053997993469238 11.500053405761719 1.3435198068618774
13.091376304626465 11.534407615661621 0.46313658356666565
32.57152557373047 28.494661331176758 2.4024858474731445
13.126325607299805 11.485596656799316 2.200300693511963
13.08081340789795 11.44300365447998 1.344756841659546
13.110925674438477 11.470829010009766 0.4669361114501953
32.59027099609375 28.320951461791992 2.402848482131958
13.149178504943848 11.428936004638672 2.200911045074463
13.0941743850708 11.37843132019043 1.3478857278823853
13.13936710357666 11.419235229492188 0.4682057797908783
32.5911979675293 28.132734298706055 2.4037861824035645
13.166139602661133 11.367365837097168 2.2020785808563232
13.112885475158691 11.318757057189941 1.3500910997390747
13.162018775939941 11.362750053405762 0.4707624912261963
32.58662033081055 27.931007385253906 2.404932975769043
13.186698913574219 11.305130958557129 2.2030136585235596
13.142720222473145 11.264863967895508 1.350709319114685
13.175182342529297 11.294323921203613 0.4758482873439789
32.61148452758789 27.755569458007812 2.405064582824707
13.208883285522461 11.244504928588867 2.2037618160247803
13.16289234161377 11.202862739562988 1.3528671264648438
13.204907417297363 11.240307807922363 0.47706857323646545
32.62788772583008 27.573843002319336 2.4054555892944336
13.232707977294922 11.18547248840332 2.2043230533599854
13.184688568115234 11.142457008361816 1.3547157049179077
13.223132133483887 11.176685333251953 0.48086559772491455
32.64627456665039 27.385042190551758 2.4057986736297607
13.263948440551758 11.128902435302734 2.2042768001556396
13.204343795776367 11.076543807983398 1.3571348190307617
13.239225387573242 11.107595443725586 0.4854751527309418
32.65322494506836 27.19738006591797 2.4064533710479736
13.279617309570312 11.063406944274902 2.2055823802948
13.223689079284668 11.014528274536133 1.359291434288025
13.266325950622559 11.05188274383545 0.48712167143821716
32.67658996582031 27.024333953857422 2.4065330028533936
13.302674293518066 11.004290580749512 2.2061407566070557
13.248499870300293 10.957255363464355 1.3605211973190308
13.283709526062012 10.988266944885254 0.4909175634384155
32.67211151123047 26.829256057739258 2.4075193405151367
13.311992645263672 10.934072494506836 2.2080070972442627
13.269237518310547 10.896796226501465 1.3623671531677246
13.308422088623047 10.930915832519531 0.49299225211143494
32.686038970947266 26.650325775146484 2.407865524291992
13.33837604522705 10.878104209899902 2.208190441131592
13.297403335571289 10.8425931930542 1.3629764318466187
13.33289909362793 10.873525619506836 0.4950657784938812
32.695228576660156 26.468488693237305 2.4083445072174072
13.358715057373047 10.817375183105469 2.2089340686798096
13.308000564575195 10.77428150177002 1.3663675785064697
13.349480628967285 10.80989933013916 0.4988603889942169
32.70618438720703 26.27963638305664 2.408777952194214
13.384552955627441 10.757426261901855 2.2092552185058594
13.331748008728027 10.71302318572998 1.3678560256958008
13.369564056396484 10.745497703552246 0.5021770000457764
32.709693908691406 26.0952091217041 2.409396171569824
13.406320571899414 10.69821834564209 2.2098100185394287
13.35531234741211 10.655614852905273 1.369080662727356
13.383654594421387 10.68035888671875 0.5064023733139038
32.71819305419922 25.915733337402344 2.4098241329193115
13.425885200500488 10.637443542480469 2.2105515003204346
13.370861053466797 10.592009544372559 1.371543526649475
13.409034729003906 10.62442684173584 0.5080419182777405
32.717979431152344 25.730335235595703 2.410517692565918
13.441268920898438 10.573578834533691 2.2116682529449463
13.390028953552246 10.531492233276367 1.3733865022659302
13.420638084411621 10.557787895202637 0.5126980543136597
32.728179931640625 25.563270568847656 2.410809278488159
13.458473205566406 10.51515007019043 2.2124569416046143
13.414938926696777 10.479414939880371 1.3740367889404297
13.451470375061035 10.510217666625977 0.5126587748527527
32.738101959228516 25.387649536132812 2.411119222640991
13.485135078430176 10.46048641204834 2.212445020675659
13.435582160949707 10.420384407043457 1.3755680322647095
13.462540626525879 10.443602561950684 0.5173147320747375
32.733341217041016 25.20159339904785 2.411893129348755
13.505653381347656 10.401201248168945 2.212996482849121
13.455976486206055 10.36133861541748 1.3770991563796997
13.48697280883789 10.387557029724121 0.5189507007598877
32.7415771484375 25.026508331298828 2.4122121334075928
13.525924682617188 10.341899871826172 2.2135472297668457
13.476122856140137 10.302273750305176 1.3786296844482422
13.509218215942383 10.329974174499512 0.5210171341896057
32.75098419189453 24.85318374633789 2.4124703407287598
13.543959617614746 10.281075477600098 2.2142858505249023
13.49799633026123 10.244694709777832 1.3798487186431885
13.519460678100586 10.26342487335205 0.5256732106208801
32.757591247558594 24.6785945892334 2.412797689437866
13.565715789794922 10.223252296447754 2.214646816253662
13.515669822692871 10.184102058410645 1.381688117980957
13.541202545166016 10.20582389831543 0.5277388095855713
32.77337646484375 24.511741638183594 2.4127981662750244
13.58124828338623 10.160922050476074 2.2155730724334717
13.541031837463379 10.129454612731934 1.382284164428711
13.574538230895996 10.157044410705566 0.52721107006073
32.738460540771484 24.29914665222168 2.414480447769165
13.614277839660645 10.108121871948242 2.214940071105957
13.551992416381836 10.06056022644043 1.3853182792663574
13.60351848602295 10.101377487182617 0.5279292464256287
32.58757400512695 24.011314392089844 2.419955015182495
13.63331413269043 10.048724174499512 2.215487003326416
13.578868865966797 10.007328033447266 1.385601282119751
13.640442848205566 10.055316925048828 0.5265319347381592
32.41893768310547 23.713029861450195 2.425990581512451
13.652103424072266 9.989317893981934 2.216033697128296
13.597527503967285 9.948172569274902 1.3871279954910278
13.659327507019043 9.996034622192383 0.5290241837501526
32.460899353027344 23.578990936279297 2.4250097274780273
13.668914794921875 9.932283401489258 2.216628074645996
13.624259948730469 9.898674011230469 1.3871451616287231
32.484107971191406 23.423179626464844 2.424649715423584
13.697325706481934 9.880152702331543 2.216226100921631
13.640449523925781 9.838019371032715 1.388981819152832
32.50867462158203 23.268951416015625 2.4242238998413086
13.713376998901367 9.81923770904541 2.2169601917266846
13.656384468078613 9.777372360229492 1.390817642211914
32.57125473022461 23.1423397064209 2.422520399093628
13.733235359191895 9.761219024658203 2.2173147201538086
13.684191703796387 9.725354194641113 1.3907828330993652
13.680522918701172 9.725550651550293 0.5498616099357605
32.576168060302734 22.975244522094727 2.4227027893066406
13.756929397583008 9.7060546875 2.2172882556915283
13.699642181396484 9.664681434631348 1.3926177024841309
13.685990333557129 9.657889366149902 0.5549536347389221
32.57609176635742 22.796979904174805 2.4230453968048096
13.7698335647583 9.639863014221191 2.2183523178100586
13.726664543151855 9.60873794555664 1.39284348487854
13.70693302154541 9.597806930541992 0.556965172290802
32.612266540527344 22.653221130371094 2.422151565551758
13.797146797180176 9.587489128112793 2.2179436683654785
13.741617202758789 9.548049926757812 1.3946772813796997
13.734053611755371 9.545710563659668 0.5572908520698547
32.57149887084961 22.448488235473633 2.423792600631714
13.807450294494629 9.519895553588867 2.2191977500915527
13.764087677001953 9.489195823669434 1.3955250978469849
13.772757530212402 9.49813175201416 0.5553979277610779
32.53015899658203 22.261350631713867 2.425403356552124
13.832670211791992 9.469849586486816 2.2188360691070557
13.783032417297363 9.435113906860352 1.396470069885254
13.96445369720459 9.562310218811035 0.520200252532959
32.50625991821289 22.078895568847656 2.4264307022094727
13.857282638549805 9.415921211242676 2.218614101409912
13.80545711517334 9.379998207092285 1.3970521688461304
14.174677848815918 9.633920669555664 0.4814566373825073
32.551944732666016 21.944368362426758 2.4251418113708496
13.87342357635498 9.356362342834473 2.219154119491577
13.825603485107422 9.323452949523926 1.3979461193084717
14.181446075439453 9.566512107849121 0.4860902726650238
32.562137603759766 21.794633865356445 2.424994468688965
13.898055076599121 9.306160926818848 2.2187881469726562
13.852161407470703 9.27481460571289 1.3976364135742188
14.045116424560547 9.407124519348145 0.5207337737083435
32.56088638305664 21.629709243774414 2.425215244293213
13.917890548706055 9.2493314743042 2.218944549560547
13.87395191192627 9.219562530517578 1.3982150554656982
13.905396461486816 9.243597030639648 0.5562167167663574
32.4424934387207 21.396448135375977 2.429271936416626
13.946298599243164 9.201770782470703 2.218193769454956
13.887724876403809 9.16260051727295 1.3997814655303955
13.917257308959961 9.18525505065918 0.5591855645179749
32.40346908569336 21.200807571411133 2.4307053089141846
13.965217590332031 9.141057968139648 2.218489408493042
13.914807319641113 9.107585906982422 1.3996821641921997
13.929985046386719 9.120725631713867 0.5624896883964539
32.43106460571289 21.057666778564453 2.429914712905884
13.980204582214355 9.08141040802002 2.2190258502960205
13.933863639831543 9.050873756408691 1.4005711078643799
13.965635299682617 9.074753761291504 0.5606269240379333
32.4559440612793 20.913230895996094 2.429194211959839
14.003331184387207 9.027170181274414 2.2187955379486084
13.954779624938965 8.995484352111816 1.4011456966400146
13.994925498962402 9.024640083312988 0.5600654482841492
32.52022933959961 20.79446029663086 2.4271554946899414
14.022048950195312 8.970194816589355 2.218947172164917
13.971297264099121 8.937385559082031 1.4023467302322388
14.011594772338867 8.966471672058105 0.5621121525764465
32.59251403808594 20.680845260620117 2.424834728240967
14.038432121276855 8.91186237335205 2.2192904949188232
13.998053550720215 8.88592529296875 1.4019774198532104
14.019715309143066 8.903017044067383 0.565899670124054
32.59818649291992 20.517358779907227 2.424691915512085
14.066668510437012 8.857710838317871 2.2186222076416016
14.013557434082031 8.82401180267334 1.4034407138824463
32.631351470947266 20.379650115966797 2.4236207008361816
14.082594871520996 8.799327850341797 2.218963623046875
14.044102668762207 8.775062561035156 1.402440071105957
32.52873229980469 20.16602325439453 2.427006721496582
14.10100269317627 8.746027946472168 2.2189700603485107
14.058211326599121 8.719314575195312 1.4036879539489746
14.40644359588623 8.938774108886719 0.5014612674713135
32.48813247680664 19.98430633544922 2.4283316135406494
14.124968528747559 8.692852973937988 2.2185401916503906
14.07783031463623 8.663711547851562 1.4042561054229736
14.374428749084473 8.84974479675293 0.513505756855011
32.50639724731445 19.839567184448242 2.4276959896087646
14.150862693786621 8.640913963317871 2.2179160118103027
14.097233772277832 8.608078002929688 1.4048233032226562
32.53900909423828 19.70400619506836 2.426569700241089
14.176565170288086 8.588902473449707 2.217289686203003
14.124902725219727 8.557552337646484 1.404130220413208
32.493953704833984 19.52212905883789 2.427985191345215
14.193531036376953 8.53167724609375 2.2174341678619385
14.148141860961914 8.504384994506836 1.4040651321411133
14.172353744506836 8.522507667541504 0.5710554122924805
32.41582107543945 19.321617126464844 2.4304728507995605
14.214554786682129 8.476993560791016 2.217191219329834
14.164791107177734 8.447348594665527 1.4049437046051025
14.161619186401367 8.449052810668945 0.5783332586288452
32.44113540649414 19.176006317138672 2.4295268058776855
14.247559547424316 8.426122665405273 2.2159297466278076
14.191208839416504 8.392873764038086 1.4045099020004272
14.17318058013916 8.385836601257324 0.5811978578567505
32.41292190551758 19.007064819335938 2.4303321838378906
14.270326614379883 8.372573852539062 2.2154901027679443
14.218113899230957 8.342053413391113 1.4038093090057373
14.210626602172852 8.341320991516113 0.5784364938735962
32.46487808227539 18.893220901489258 2.4284822940826416
14.28929328918457 8.320207595825195 2.215294122695923
14.230535507202148 8.286144256591797 1.4050517082214355
14.214594841003418 8.280549049377441 0.5822750926017761
32.46343994140625 18.7410831451416 2.428370475769043
14.309505462646484 8.26530933380127 2.215045928955078
14.257054328918457 8.235201835632324 1.4043481349945068
14.247444152832031 8.233366966247559 0.5803830027580261
32.60011672973633 18.668659210205078 2.423682928085327
14.327348709106445 8.20913314819336 2.2149903774261475
14.266178131103516 8.174311637878418 1.4061702489852905
14.267324447631836 8.17871379852295 0.5811107158660889
32.64542770385742 18.543672561645508 2.4219908714294434
14.3579740524292 8.160320281982422 2.2137694358825684
14.2923002243042 8.123260498046875 1.4054635763168335
14.304117202758789 8.133752822875977 0.5783388018608093
32.762107849121094 18.459075927734375 2.4179258346557617
14.390604019165039 8.112616539001465 2.212351083755493
14.320399284362793 8.073343276977539 1.4044389724731445
14.304319381713867 8.068081855773926 0.5830003619194031
32.75425720214844 18.30440902709961 2.4179527759552
14.43613052368164 8.07208251953125 2.209763526916504
14.339667320251465 8.018486976623535 1.4046778678894043
14.34290599822998 8.024134635925293 0.579786479473114
32.79281997680664 18.183603286743164 2.416442394256592
14.376860618591309 7.976926803588867 1.4021177291870117
14.371370315551758 7.977746486663818 0.5783712863922119
32.88227081298828 18.083505630493164 2.413221597671509
14.42908763885498 7.944173336029053 0.5712090730667114
32.94164276123047 17.959308624267578 2.4109604358673096
14.944040298461914 8.152033805847168 2.168835401535034
33.0106201171875 17.847808837890625 2.408377170562744
14.920686721801758 8.072417259216309 1.3320668935775757
33.015357971191406 17.70180320739746 2.4078993797302246
33.05477523803711 17.574752807617188 2.406257152557373
33.09150314331055 17.446474075317383 2.4046857357025146
27.73420524597168 14.629340171813965 1.039918303489685
33.08787536621094 17.297319412231445 2.4044320583343506
27.78931999206543 14.534784317016602 1.0375334024429321
33.10212326049805 17.15067481994629 2.403550386428833
27.826704025268555 14.42484188079834 1.036806583404541
33.09278869628906 16.99966049194336 2.403451442718506
27.823486328125 14.300315856933594 1.0395102500915527
33.11173629760742 16.86366081237793 2.4023988246917725
27.837499618530273 14.185036659240723 1.0406479835510254
33.11161804199219 16.725631713867188 2.4019834995269775
33.125003814697266 16.587604522705078 2.4010815620422363
33.12440872192383 16.443021774291992 2.4006266593933105
33.136661529541016 16.305267333984375 2.399729013442993
33.137123107910156 16.162147521972656 2.3992061614990234
33.15048599243164 16.025745391845703 2.39823842048645
33.152034759521484 15.884051322937012 2.3976454734802246
32.6555061340332 15.654947280883789 0.6330059170722961
33.15752029418945 15.744688034057617 2.396906614303589
32.60166931152344 15.489570617675781 0.6401302218437195
33.16469192504883 15.606539726257324 2.3960955142974854
32.680118560791016 15.3873929977417 0.6356058120727539
33.171730041503906 15.461690902709961 2.3952419757843018
33.00031280517578 15.390786170959473 0.6099874973297119
33.184566497802734 15.326977729797363 2.3942084312438965
33.09658432006836 15.295400619506836 0.603844940662384
33.18549728393555 15.187167167663574 2.3935554027557373
33.15180206298828 15.180856704711914 0.6012584567070007
33.197242736816406 15.052695274353027 2.3925254344940186
33.18166732788086 15.054788589477539 0.6008477210998535
33.192176818847656 14.917974472045898 2.3920726776123047
33.19936752319336 14.930401802062988 0.6013505458831787
33.20742416381836 14.78579044342041 2.3908941745758057
33.208431243896484 14.64763355255127 2.3901751041412354
33.222625732421875 14.515653610229492 2.389000415802002
33.19335174560547 14.512177467346191 0.6080701947212219
33.2225341796875 14.377796173095703 2.3882856369018555
33.16581344604492 14.362593650817871 0.6124406456947327
33.22877883911133 14.243069648742676 2.3873443603515625
33.19490432739258 14.237936019897461 0.6118361949920654
33.23004150390625 14.099747657775879 2.3865153789520264
33.230567932128906 14.10940170288086 0.610711395740509
33.24900817871094 13.971116065979004 2.385115385055542
33.20816421508789 13.963418006896973 0.6144959926605225
33.253639221191406 13.836764335632324 2.3841793537139893
33.21506118774414 13.830216407775879 0.615689754486084
33.2530403137207 13.707404136657715 2.38344407081604
33.242095947265625 13.712430000305176 0.615005612373352
33.268192291259766 13.578058242797852 2.382124423980713
33.26414489746094 13.58598804473877 0.6148003935813904
33.25968551635742 13.439414978027344 2.3815836906433105
33.25337600708008 13.446480751037598 0.6173992156982422
33.24828338623047 13.300067901611328 2.3811256885528564
33.25823974609375 13.313694953918457 0.6185983419418335
33.21774673461914 13.153607368469238 2.3812975883483887
33.213924407958984 13.161763191223145 0.6240130066871643
33.18193054199219 13.005697250366211 2.3816335201263428
33.145755767822266 13.001202583312988 0.631443977355957
33.18741989135742 12.87446117401123 2.380563259124756
33.14889144897461 12.869231224060059 0.6326588988304138
33.21572494506836 12.752299308776855 2.3787081241607666
33.19571304321289 12.754376411437988 0.630054771900177
33.33982849121094 12.669838905334473 0.6190727949142456
33.5235710144043 12.60604190826416 0.6045666337013245
33.740440368652344 12.543439865112305 2.358120918273926
33.78199768066406 12.568916320800781 0.5835846662521362
33.75362014770508 12.421162605285645 2.3567471504211426
33.767154693603516 12.43619441986084 0.5860989093780518
33.78023910522461 12.297314643859863 2.354854106903076
33.78203582763672 12.30805778503418 0.5860719084739685
33.78053283691406 12.1641206741333 2.3538362979888916
33.798770904541016 12.180808067321777 0.5858423709869385
33.76854705810547 12.026884078979492 2.3532207012176514
33.793724060058594 11.903158187866211 2.351328134536743
33.80664825439453 11.775294303894043 2.3498356342315674
33.7825927734375 11.777124404907227 0.5906272530555725
33.80964279174805 11.644231796264648 2.3486649990081787
33.790283203125 11.647804260253906 0.5910111665725708
33.802677154541016 11.51007080078125 2.3478193283081055
33.80220031738281 11.52017879486084 0.5909907221794128
33.82558059692383 11.379761695861816 2.3458847999572754
33.81089401245117 11.385124206542969 0.5912547707557678
33.812835693359375 11.244307518005371 2.345205068588257
33.83515548706055 11.120783805847168 2.3433127403259277
33.8289794921875 10.994650840759277 2.3424370288848877
33.83087158203125 11.005653381347656 0.5921381711959839
33.8385009765625 10.867364883422852 2.340951919555664
33.845130920410156 10.879913330078125 0.5917137265205383
33.83087158203125 10.734856605529785 2.3400397300720215
33.85179901123047 10.751943588256836 0.5919030904769897
33.848960876464844 10.610754013061523 2.338231086730957
33.86273956298828 10.625548362731934 0.5916840434074402
33.84749984741211 10.480743408203125 2.3370771408081055
33.85417556762695 10.493307113647461 0.5931010246276855
33.85451889038086 10.347159385681152 2.3355555534362793
33.86595153808594 10.361181259155273 0.5927615761756897
33.85923385620117 10.21957015991211 2.3341591358184814
33.8587532043457 10.229975700378418 0.5939791202545166
33.87543869018555 10.095641136169434 2.3323512077331543
33.848655700683594 10.098234176635742 0.5954042673110962
33.8696174621582 9.965375900268555 2.331286907196045
33.857181549072266 9.97231674194336 0.5951924920082092
33.87118911743164 9.843974113464355 2.3300180435180664
33.839599609375 9.845412254333496 0.5971575379371643
33.8668212890625 9.714694023132324 2.328875780105591
33.88311767578125 9.730021476745605 0.5938683748245239
33.89561080932617 9.595088958740234 2.326571226119995
33.883079528808594 9.602219581604004 0.5942751169204712
33.8927001953125 9.466666221618652 2.3253486156463623
33.89696502685547 9.478560447692871 0.593448281288147
33.9085807800293 9.343688011169434 2.323460102081299
33.90319061279297 9.352935791015625 0.5932403206825256
33.911949157714844 9.217437744140625 2.3219895362854004
33.91376876831055 9.228689193725586 0.5926201343536377
33.918846130371094 9.086006164550781 2.320312738418579
33.91584396362305 9.095980644226074 0.5927025079727173
33.921260833740234 8.959928512573242 2.3188445568084717
33.918251037597656 8.96993637084961 0.5927032828330994
33.93531036376953 8.8370943069458 2.316955804824829
33.92019271850586 8.84398365020752 0.5927053689956665
33.92470169067383 8.708059310913086 2.3159117698669434
33.921669006347656 8.718127250671387 0.5927086472511292
33.92665481567383 8.588800430297852 2.3144869804382324
33.928443908691406 8.60012149810791 0.5922168493270874
33.902992248535156 8.457053184509277 2.3138723373413086
33.93143844604492 8.475038528442383 0.5920158624649048
33.939483642578125 8.340478897094727 2.311138868331909
33.938812255859375 8.351228713989258 0.591400682926178
33.934288024902344 8.213763236999512 2.309847831726074
33.93846893310547 8.225708961486816 0.5914095640182495
33.950496673583984 8.09239673614502 2.307792901992798
33.95463180541992 8.104341506958008 0.5899654030799866
33.962799072265625 7.963951110839844 2.3057827949523926
33.942626953125 7.9701995849609375 0.5908913612365723
33.958641052246094 7.838080406188965 2.3044111728668213
33.953025817871094 7.847785472869873 0.5898634195327759
33.97350311279297 7.716759204864502 2.3023552894592285
33.95083236694336 7.722630023956299 0.5898768901824951
33.97330856323242 7.592163562774658 2.300813674926758
33.960330963134766 7.600305080413818 0.5888505578041077
33.97868347167969 7.475200653076172 2.2991397380828857
33.960811614990234 7.482327938079834 0.5885740518569946
33.99224853515625 7.353939056396484 2.2970833778381348
33.97187423706055 7.360612392425537 0.5873393416404724
33.9833984375 7.227997779846191 2.295804262161255
33.97520065307617 7.2373552322387695 0.5867307782173157
34.01076889038086 7.109872817993164 2.2932281494140625
33.99028396606445 7.116714954376221 0.5850786566734314
33.993675231933594 6.982599258422852 2.292212963104248
33.99272537231445 6.993547439575195 0.5844711065292358
34.0164794921875 6.8575005531311035 2.2896831035614014
33.998355865478516 6.865010738372803 0.583530604839325
34.01559829711914 6.7339019775390625 2.2880613803863525
33.9925537109375 6.740520000457764 0.5835530757904053
34.01671600341797 6.610868453979492 2.2863540649414062
33.99119567871094 6.617105484008789 0.5831584334373474
34.013816833496094 6.4933762550354 2.2848594188690186
34.00294494628906 6.502518177032471 0.5816304683685303
34.01652908325195 6.370960712432861 2.283066987991333
34.00562286376953 6.380153179168701 0.5808171629905701
34.01633834838867 6.248154640197754 2.281362295150757
34.01765823364258 6.259650707244873 0.5791627764701843
34.04029846191406 6.129852771759033 2.2787768840789795
34.01455307006836 6.13648796081543 0.5787718296051025
34.05400466918945 6.009723663330078 2.2765426635742188
34.02082443237305 6.015158176422119 0.5775387287139893
34.04513168334961 5.885744094848633 2.275104284286499
34.029109954833984 5.894282341003418 0.5760949850082397
34.062896728515625 5.766483783721924 2.2726924419403076
34.03942108154297 5.773837566375732 0.5744402408599854
34.06299591064453 5.644314289093018 2.2709012031555176
34.03948211669922 5.651760578155518 0.5736297369003296
34.05868911743164 5.515471935272217 2.2691633701324463
34.05235290527344 5.525808811187744 0.5716375708580017
34.062828063964844 5.394240379333496 2.267195701599121
34.04906463623047 5.403438568115234 0.5710397362709045
34.05664825439453 5.271519184112549 2.2655858993530273
34.062564849853516 5.283830165863037 0.5689603090286255
34.04757308959961 5.148532867431641 2.2640678882598877
34.07072067260742 5.163446426391602 0.567302942276001
34.07424545288086 5.0370917320251465 2.2613298892974854
34.062801361083984 5.046824932098389 0.5670450329780579
34.07173156738281 4.915300369262695 2.25954270362854
34.07011413574219 4.926507949829102 0.5653888583183289
34.08611297607422 4.796022891998291 2.2571260929107666
34.06961441040039 4.8051581382751465 0.5643700361251831
34.08768844604492 4.6750078201293945 2.255159854888916
34.07854461669922 4.685227870941162 0.5625006556510925
34.09626388549805 4.555032730102539 2.252922296524048
34.087059020996094 4.565292835235596 0.5606310367584229
34.11014938354492 4.429746627807617 2.2503769397735596
34.10332107543945 4.440370082855225 0.5579954981803894
34.117862701416016 4.309747695922852 2.2481377124786377
34.10850143432617 4.320090293884277 0.5563377141952515
34.10283279418945 4.187008380889893 2.246718406677246
34.10335922241211 4.198609828948975 0.5555328130722046
34.09779357910156 4.077218055725098 0.5547294020652771
34.10101318359375 3.963013172149658 0.5531983375549316
33.75798416137695 3.803853750228882 0.5814999341964722
33.56083297729492 3.6517224311828613 2.2588160037994385
33.40684127807617 3.646327257156372 0.6104955673217773
33.54345703125 3.531446933746338 2.2574450969696045
33.4488639831543 3.532871723175049 0.6054592728614807
33.5803337097168 3.4168970584869385 2.2540500164031982
33.2823600769043 3.3979287147521973 0.6184393167495728
33.62485122680664 3.2969985008239746 2.250248670578003
33.34640884399414 3.281080722808838 0.6113528609275818
33.67335891723633 3.1831626892089844 2.2463796138763428
33.27560806274414 3.156942129135132 0.6159842610359192
33.7065544128418 3.067671060562134 2.2430598735809326
33.27627944946289 3.0399041175842285 0.6143890619277954
33.711463928222656 2.955474615097046 2.240882396697998
33.075069427490234 2.9110283851623535 0.6303544640541077
33.70902633666992 2.8367679119110107 2.238858222961426
32.5933952331543 2.7541041374206543 0.6705722212791443
33.698699951171875 2.7175118923187256 2.2371160984039307
32.684513092041016 2.646984100341797 0.6610495448112488
33.70288848876953 2.5995137691497803 2.2348134517669678
33.27690124511719 2.5780932903289795 0.6079174280166626
33.709171295166016 2.481703042984009 2.232417345046997
32.82594680786133 2.4279990196228027 0.6454200148582458
33.710052490234375 2.363530397415161 2.230208158493042
32.973140716552734 2.3232345581054688 0.6308881044387817
33.71549987792969 2.245713233947754 2.227810859680176
33.174659729003906 2.2211289405822754 0.6115741729736328
33.708431243896484 2.12121844291687 2.2257590293884277
33.048118591308594 2.0910804271698 0.6206938028335571
33.703060150146484 2.0028343200683594 2.2237391471862793
32.99532699584961 1.972185492515564 0.6234527826309204
33.699764251708984 1.8846522569656372 2.2216241359710693
15.809046745300293 0.8906359076499939 2.1208887100219727
33.69855499267578 1.7666478157043457 2.2194159030914307
15.806973457336426 0.8352038860321045 2.1201536655426025
33.719093322753906 1.6556552648544312 2.216478109359741
15.829452514648438 0.7837827801704407 2.1173043251037598
12.544285774230957 0.5733393430709839 3.0211780071258545
15.83446979522705 0.7286564707756042 2.115915298461914
12.571126937866211 0.5306102633476257 3.019296646118164
15.831829071044922 0.6731880307197571 2.1151790618896484
12.502962112426758 0.4840434491634369 3.0210394859313965
15.841439247131348 0.618230402469635 2.1133532524108887
19.31585693359375 0.7568680047988892 0.8496871590614319
12.447108268737793 0.4383964538574219 3.0223138332366943
15.845878601074219 0.5630372762680054 2.111962080001831
19.320653915405273 0.689554750919342 0.8479167819023132
12.461073875427246 0.39317768812179565 3.0208663940429688
15.857677459716797 0.5052918791770935 2.1098570823669434
12.532246589660645 0.3516412377357483 3.017254590988159
15.856743812561035 0.44988441467285156 2.108901262283325
19.314769744873047 0.5510596036911011 0.8463442921638489
12.608277320861816 0.3097344934940338 3.0134389400482178
15.87055778503418 0.3948589563369751 2.106633424758911
19.34360694885254 0.4843423664569855 0.8411681652069092
12.626721382141113 0.26609984040260315 3.0118298530578613
15.869235038757324 0.33942463994026184 2.1056761741638184
12.57753849029541 0.22335968911647797 3.0128724575042725
15.870169639587402 0.2868169844150543 2.1045584678649902
33.7852783203125 0.47863852977752686 2.190326452255249
15.883414268493652 0.23161755502223969 2.1022861003875732
33.78664016723633 0.3607363700866699 2.1878209114074707
15.881524085998535 0.17616495490074158 2.101327896118164
33.79507827758789 0.24288350343704224 2.185023784637451
12.549281120300293 0.04767065867781639 3.0103092193603516
12.61177921295166 0.0016865379875525832 3.0068933963775635
12.674116134643555 -0.04254365339875221 3.003514528274536
32.8807258605957 -0.10212194919586182 0.5943686366081238
12.723808288574219 -0.08712156862020493 3.0006158351898193
32.91481018066406 -0.21708844602108002 0.5888445377349854
12.78835391998291 -0.1299729198217392 2.99716854095459
32.89876174926758 -0.3260495662689209 0.5878458023071289
12.792773246765137 -0.17466787993907928 2.9960224628448486
32.89719772338867 -0.4408455789089203 0.5854024887084961
12.662200927734375 -0.21485237777233124 3.0002381801605225
33.31862258911133 -0.5569978356361389 0.5455472469329834
12.628814697265625 -0.2605716288089752 3.000532627105713
33.73439025878906 -0.687620997428894 0.5058227777481079
33.84003829956055 -0.8197860717773438 2.1602683067321777
33.736534118652344 -0.8054498434066772 0.502873957157135
33.83686065673828 -0.9378713369369507 2.1577534675598145
33.57149124145508 -0.9187285304069519 0.5147541165351868
33.85325622558594 -1.0565694570541382 2.154445171356201
32.99289321899414 -1.018091082572937 0.5634341835975647
33.836769104003906 -1.1742653846740723 2.1524245738983154
33.27760696411133 -1.1431457996368408 0.5352612733840942
33.29059982299805 -1.2599189281463623 0.5312329530715942
12.933972358703613 -0.5334699749946594 2.3454861640930176
12.538415908813477 -0.5675249099731445 2.997112512588501
12.946758270263672 -0.581527590751648 2.343141555786133
12.683521270751953 -0.6184777021408081 2.990272283554077
33.41887283325195 -1.6211495399475098 0.5107765197753906
12.99817180633545 -0.6770743727684021 2.976637363433838
13.126338005065918 -0.679157018661499 2.324787139892578
13.010649681091309 -0.7232635021209717 2.975066900253296
13.133739471435547 -0.7255068421363831 2.32291841506958
12.966588973999023 -0.7138372659683228 1.693279504776001
12.946290969848633 -0.7078583240509033 1.0437335968017578
12.82347297668457 -0.7577286958694458 2.9815475940704346
12.97691822052002 -0.7622546553611755 2.335767984390259
12.949047088623047 -0.758204996585846 1.6943832635879517
12.931292533874512 -0.7523075938224792 1.045098900794983
12.899877548217773 -0.7521439790725708 0.3884592354297638
12.800760269165039 -0.8012217283248901 2.9813995361328125
12.916926383972168 -0.803965151309967 2.339935064315796
12.91899585723877 -0.8016906380653381 1.6972140073776245
12.916142463684082 -0.7966614961624146 1.0464658737182617
12.887231826782227 -0.7965418100357056 0.38984206318855286
12.516186714172363 -0.8272259831428528 2.99186372756958
12.874192237854004 -0.8464127779006958 2.3425471782684326
12.92339038848877 -0.847249448299408 1.6952159404754639
12.920446395874023 -0.8422006368637085 1.044105052947998
12.90353775024414 -0.8427668213844299 0.3841935396194458
11.964960098266602 -0.8326535224914551 3.0132012367248535
12.898392677307129 -0.8932274580001831 2.3391284942626953
12.16622257232666 -0.8893693685531616 3.003993511199951
12.914970397949219 -0.9396782517433167 2.3363771438598633
12.212647438049316 -0.9377749562263489 3.001008987426758
12.906377792358398 -0.9866102933883667 2.3358142375946045
12.450775146484375 -0.9998210072517395 2.990224599838257
12.88538932800293 -1.0302480459213257 2.336421251296997
12.509394645690918 -1.0484894514083862 2.9867467880249023
12.908914566040039 -1.0774866342544556 2.3329925537109375
12.448382377624512 -1.087128758430481 2.988163709640503
12.424763679504395 -1.126583218574524 2.9880998134613037
33.601043701171875 -3.1565518379211426 0.4520333409309387
12.767036437988281 -1.2475799322128296 2.9717631340026855
33.651546478271484 -3.279822826385498 0.4438991844654083
12.787410736083984 -1.2946444749832153 2.9697811603546143
33.63718032836914 -3.396976947784424 0.4416124224662781
12.815065383911133 -1.342648983001709 2.9674863815307617
33.6942253112793 -3.5215814113616943 0.43278899788856506
13.152952194213867 -1.4245294332504272 2.9522781372070312
33.77061462402344 -3.6487669944763184 0.42215073108673096
15.952966690063477 -1.713577151298523 0.4414644241333008
13.366036415100098 -1.4972162246704102 2.942141532897949
33.897804260253906 -3.7882444858551025 0.40663135051727295
15.951217651367188 -1.7725505828857422 0.43927574157714844
13.358199119567871 -1.5435625314712524 2.941246509552002
33.86682891845703 -3.904508113861084 0.4056808352470398
15.94469928741455 -1.8281923532485962 0.438084214925766
13.26615047454834 -1.5775022506713867 2.943932294845581
33.7397346496582 -4.003251552581787 0.41368019580841064
15.855414390563965 -1.8712348937988281 0.452895849943161
12.6159029006958 -1.544752836227417 2.9699835777282715
33.777225494384766 -4.127305030822754 0.4064050316810608
15.909494400024414 -1.9339576959609985 0.4399830102920532
12.58312702178955 -1.5853290557861328 2.970186710357666
33.58699035644531 -4.223078727722168 0.419964075088501
16.080284118652344 -2.0117273330688477 0.4045354127883911
33.972049713134766 -4.404062747955322 2.0676965713500977
33.606380462646484 -4.344724178314209 0.4142783582210541
15.907317161560059 -2.0464913845062256 0.4352572560310364
33.991024017333984 -4.527205467224121 2.0636909008026123
33.77341079711914 -4.486234188079834 0.39497408270835876
15.877935409545898 -2.099079132080078 0.43829452991485596
34.009552001953125 -4.650534152984619 2.0596816539764404
33.84611511230469 -4.61617374420166 0.3842724859714508
15.797286987304688 -2.144545078277588 0.45120173692703247
33.993003845214844 -4.769188404083252 2.0571374893188477
33.91585159301758 -4.746330261230469 0.3737857937812805
15.825950622558594 -2.2047338485717773 0.44296973943710327
33.99828338623047 -4.890984058380127 2.05364727973938
33.97031784057617 -4.874908924102783 0.36465126276016235
16.078006744384766 -2.2971274852752686 0.3914737105369568
34.012142181396484 -5.02026891708374 2.04960560798645
15.913753509521484 -2.3331968784332275 0.4203157126903534
34.01158142089844 -5.141542911529541 2.046321153640747
15.878572463989258 -2.3846898078918457 0.4243001639842987
34.0229377746582 -5.264786243438721 2.0425057411193848
33.99696350097656 -5.24869966506958 0.34937340021133423
15.821381568908691 -2.432605743408203 0.43252646923065186
34.02245330810547 -5.380280017852783 2.03934383392334
34.001277923583984 -5.36486291885376 0.3449006676673889
15.842113494873047 -2.489609956741333 0.4257495403289795
34.02554702758789 -5.5025634765625 2.0358402729034424
33.991939544677734 -5.485060691833496 0.3414403200149536
15.804004669189453 -2.540187358856201 0.430215984582901
34.03066635131836 -5.62534236907959 2.032228469848633
33.99691390991211 -5.607692718505859 0.33660688996315
15.804498672485352 -2.5969042778015137 0.4271470308303833
34.04519271850586 -5.7498884201049805 2.0281882286071777
33.99653625488281 -5.7295989990234375 0.3322291076183319
15.741838455200195 -2.6430788040161133 0.4363347589969635
34.049415588378906 -5.87290620803833 2.0245697498321533
34.00798416137695 -5.853683948516846 0.3267045021057129
15.70324993133545 -2.6930015087127686 0.440814346075058
34.05564880371094 -5.996456146240234 2.0208420753479004
15.770905494689941 -2.761331796646118 0.4245380759239197
34.058982849121094 -6.119679927825928 2.017218589782715
15.867269515991211 -2.8353524208068848 0.4025871753692627
34.0656852722168 -6.2498459815979 2.013249397277832
15.887921333312988 -2.8991944789886475 0.395198792219162
34.077919006347656 -6.37511682510376 2.009190797805786
34.035884857177734 -6.355165004730225 0.30558931827545166
16.106748580932617 -2.9973042011260986 0.34912970662117004
34.06517028808594 -6.495870113372803 2.0062034130096436
34.00102996826172 -6.471563339233398 0.304184228181839
16.100772857666016 -3.054396152496338 0.3469759225845337
34.07649612426758 -6.621377468109131 2.00213885307312
33.977989196777344 -6.590167045593262 0.30163219571113586
16.019882202148438 -3.0970308780670166 0.35947683453559875
34.068939208984375 -6.737217903137207 1.9990609884262085
34.03631591796875 -6.718680381774902 0.291611909866333
16.079145431518555 -3.1638638973236084 0.3446202278137207
34.01817321777344 -6.850639820098877 1.9976913928985596
34.02218246459961 -6.839369297027588 0.28813448548316956
16.082210540771484 -3.222839593887329 0.3405737578868866
33.95478820800781 -6.961281776428223 1.9968684911727905
33.96859359741211 -6.952052593231201 0.2883460521697998
16.101890563964844 -3.2853128910064697 0.3332135081291199
33.93017578125 -7.079729080200195 1.9943175315856934
33.90000915527344 -7.061400890350342 0.2899479568004608
16.140554428100586 -3.3519585132598877 0.32206109166145325
33.919795989990234 -7.201202869415283 1.9911162853240967
33.8968391418457 -7.184296131134033 0.28532227873802185
16.10209846496582 -3.402665376663208 0.3260585069656372
33.8979377746582 -7.32649564743042 1.9882218837738037
33.8748893737793 -7.309490203857422 0.28218507766723633
16.209251403808594 -3.487460136413574 0.3010962903499603
33.92571258544922 -7.456541538238525 1.9832749366760254
33.83920669555664 -7.425515174865723 0.28056424856185913
16.131994247436523 -3.5298173427581787 0.31267595291137695
33.89936447143555 -7.57488489151001 1.9807240962982178
16.114543914794922 -3.5850119590759277 0.3124118149280548
33.91157150268555 -7.7019877433776855 1.9764246940612793
16.107126235961914 -3.639486074447632 0.31031131744384766
33.865203857421875 -7.803406238555908 1.9751148223876953
33.99691390991211 -7.8217058181762695 0.2506989538669586
16.13301658630371 -3.701639413833618 0.3015681803226471
33.866825103759766 -7.928369998931885 1.971250057220459
33.9909782409668 -7.945388317108154 0.24605295062065125
16.107805252075195 -3.7551157474517822 0.30272769927978516
33.88256072998047 -8.056907653808594 1.9667240381240845
34.006385803222656 -8.074300765991211 0.23931553959846497
33.87354278564453 -8.179786682128906 1.9632927179336548
34.04066848754883 -8.208087921142578 0.23071299493312836
33.93684387207031 -8.320547103881836 1.956552267074585
34.06233596801758 -8.339251518249512 0.22326643764972687
34.01896667480469 -8.466679573059082 1.9489160776138306
34.07867431640625 -8.469468116760254 0.21627864241600037
34.07868576049805 -8.607977867126465 1.9422599077224731
34.07279586791992 -8.594419479370117 0.2113819122314453
34.10153579711914 -8.74049186706543 1.9372550249099731
34.114681243896484 -8.731780052185059 0.20182110369205475
34.11421203613281 -8.870756149291992 1.9326879978179932
34.1295280456543 -8.862655639648438 0.19481806457042694
34.122398376464844 -9.006532669067383 1.9280979633331299
34.14228057861328 -8.999699592590332 0.18768061697483063
34.148536682128906 -9.141056060791016 1.9228523969650269
34.1392707824707 -9.126497268676758 0.18230284750461578
34.133174896240234 -9.264745712280273 1.9194971323013306
34.1309814453125 -9.252077102661133 0.17739033699035645
34.1390380859375 -9.394405364990234 1.9151344299316406
34.110233306884766 -9.37441635131836 0.1736459583044052
34.132381439208984 -9.52086353302002 1.9113285541534424
34.110618591308594 -9.502737998962402 0.16779354214668274
34.127662658691406 -9.6480712890625 1.9074074029922485
34.05783462524414 -9.616292953491211 0.16709531843662262
34.11526870727539 -9.773297309875488 1.9038211107254028
34.08124542236328 -9.751511573791504 0.15889430046081543
34.12639617919922 -9.905516624450684 1.8991092443466187
34.07065200805664 -9.87730598449707 0.15397505462169647
34.12263870239258 -10.03370475769043 1.8950685262680054
34.081092834472656 -10.00946044921875 0.1469382792711258
34.1423454284668 -10.169120788574219 1.8898967504501343
34.05046463012695 -10.129741668701172 0.14389416575431824
34.12623596191406 -10.30064868927002 1.886171817779541
33.950897216796875 -10.235747337341309 0.14731112122535706
19.823898315429688 -5.972382545471191 0.5130324363708496
34.15682601928711 -10.440118789672852 1.880423665046692
34.00041198730469 -10.380319595336914 0.13626892864704132
19.615741729736328 -5.984455108642578 0.5397577881813049
34.148681640625 -10.568109512329102 1.8764822483062744
34.025543212890625 -10.518012046813965 0.127571702003479
19.45267105102539 -6.009029388427734 0.5597212314605713
34.16339111328125 -10.696934700012207 1.8716453313827515
34.04249572753906 -10.647092819213867 0.11993958801031113
19.31907081604004 -6.0380353927612305 0.575489342212677
34.16142654418945 -10.82740592956543 1.8673571348190308
34.052330017089844 -10.780842781066895 0.11264568567276001
19.17027473449707 -6.065090179443359 0.5933486819267273
34.18230056762695 -10.958898544311523 1.8621691465377808
34.0943717956543 -10.918716430664062 0.10240408033132553
19.055591583251953 -6.098423480987549 0.6062895655632019
34.17503356933594 -11.094870567321777 1.8578572273254395
18.964630126953125 -6.146067142486572 0.6151622533798218
34.18342590332031 -11.229652404785156 1.852986454963684
18.88642120361328 -6.193689823150635 0.6223269701004028
34.17233657836914 -11.358325004577637 1.8490263223648071
18.848033905029297 -6.254093647003174 0.6234074831008911
34.17023468017578 -11.490242004394531 1.844605803489685
18.83525276184082 -6.32296895980835 0.6205459237098694
34.179447174072266 -11.62630558013916 1.8396084308624268
18.826906204223633 -6.393424034118652 0.616966962814331
34.174259185791016 -11.764474868774414 1.8350509405136108
18.833538055419922 -6.472812175750732 0.6108027100563049
34.18003463745117 -11.900081634521484 1.8301591873168945
18.831642150878906 -6.545796871185303 0.6061434149742126
34.173500061035156 -12.031726837158203 1.8258394002914429
34.1944694519043 -12.166720390319824 1.8203761577606201
16.33854103088379 -5.797839164733887 0.10674915462732315
34.13992691040039 -12.281744956970215 1.8183623552322388
34.14365768432617 -12.417878150939941 1.8134570121765137
18.91547203063965 -6.868894577026367 0.5731639266014099
34.172645568847656 -12.563669204711914 1.8072701692581177
34.231563568115234 -12.727968215942383 1.799318552017212
18.853790283203125 -6.999706745147705 0.5720263719558716
16.19411277770996 -6.005922317504883 0.11425123363733292
34.28965759277344 -12.886002540588379 1.791599154472351
18.842920303344727 -7.070664405822754 0.5684334635734558
16.175094604492188 -6.063246250152588 0.11254150420427322
34.31672286987305 -13.033072471618652 1.7853827476501465
18.838722229003906 -7.144261837005615 0.5637581944465637
16.126052856445312 -6.109210014343262 0.11709209531545639
34.33148193359375 -13.16912841796875 1.779989242553711
18.842443466186523 -7.217288494110107 0.5580702424049377
16.160451889038086 -6.183671474456787 0.10436978191137314
34.341060638427734 -13.310515403747559 1.7745767831802368
18.858436584472656 -7.2990641593933105 0.5501424074172974
34.32914733886719 -13.443931579589844 1.7702120542526245
18.85105323791504 -7.37202787399292 0.545821487903595
34.35386657714844 -13.592130661010742 1.763968586921692
18.857196807861328 -7.450486183166504 0.5393311977386475
34.35710144042969 -13.732322692871094 1.7587743997573853
18.85152816772461 -7.5244903564453125 0.5346455574035645
34.35977554321289 -13.872702598571777 1.753575325012207
18.859338760375977 -7.604097843170166 0.5277881026268005
34.36420440673828 -14.014214515686035 1.7482534646987915
18.853078842163086 -7.678253173828125 0.5230980515480042
34.36574935913086 -14.1549711227417 1.7430450916290283
18.862539291381836 -7.75904655456543 0.515872597694397
34.378047943115234 -14.30766487121582 1.7369927167892456
18.858869552612305 -7.838543891906738 0.5103824138641357
34.3623046875 -14.442059516906738 1.7326027154922485
18.863101959228516 -7.917702674865723 0.5038751363754272
34.37362289428711 -14.588227272033691 1.7267876863479614
18.86928367614746 -7.997952938079834 0.497001975774765
34.382320404052734 -14.726682662963867 1.7213354110717773
18.874286651611328 -8.074076652526855 0.490559846162796
34.383296966552734 -14.869372367858887 1.7159843444824219
18.89117431640625 -8.159502029418945 0.4818660318851471
34.39741897583008 -15.018247604370117 1.7099145650863647
18.86688995361328 -8.227343559265137 0.479701429605484
18.908004760742188 -8.32402229309082 0.46700507402420044
18.948671340942383 -8.421089172363281 0.45429956912994385
34.433780670166016 -15.465513229370117 1.6917833089828491
16.499794006347656 -7.401645660400391 0.842601478099823
34.422672271728516 -15.605171203613281 1.6868846416473389
16.428598403930664 -7.438760757446289 0.8486189246177673
34.4218635559082 -15.757181167602539 1.6811310052871704
16.423511505126953 -7.50918436050415 0.8436651229858398
34.420936584472656 -15.90234375 1.6756237745285034
16.41720962524414 -7.575770854949951 0.8391358852386475
34.421661376953125 -16.048744201660156 1.6699923276901245
16.354595184326172 -7.616295337677002 0.8437125086784363
