# .PCD v0.7 - Point Cloud Data file format
VERSION 0.7
FIELDS x y z
SIZE 4 4 4
TYPE F F F
COUNT 1 1 1
WIDTH 855
HEIGHT 1
VIEWPOINT 0 0 0 1 0 0 0
POINTS 855
DATA ascii
32.671730041503906 25.83864974975586 2.101593017578125
32.69160461425781 25.530107498168945 2.103975296020508
32.709712982177734 25.22290802001953 2.106332302093506
32.734832763671875 24.9237117767334 2.108258008956909
32.722373962402344 24.598739624023438 2.111827850341797
32.71037673950195 24.27724266052246 2.1152684688568115
32.54252624511719 23.844594955444336 2.1258223056793213
32.4434814453125 23.467641830444336 2.1330649852752686
32.48661422729492 23.196758270263672 2.133629083633423
32.51376724243164 22.916440963745117 2.1348369121551514
32.54936981201172 22.644086837768555 2.135563373565674
32.49142074584961 22.309368133544922 2.1404972076416016
32.56874465942383 22.069839477539062 2.139122247695923
32.66511917114258 21.844087600708008 2.1367921829223633
32.44219207763672 21.408279418945312 2.1489903926849365
32.45549011230469 21.132530212402344 2.150277614593506
32.512027740478516 20.886594772338867 2.1495039463043213
32.57605743408203 20.646644592285156 2.1483068466186523
32.550254821777344 20.351600646972656 2.151120185852051
32.52035903930664 20.056598663330078 2.1540305614471436
32.55125427246094 19.80116844177246 2.1540915966033936
32.56224822998047 19.535314559936523 2.1549742221832275
32.57809066772461 19.274145126342773 2.1555559635162354
32.40898895263672 18.906763076782227 2.1644394397735596
32.66535568237305 18.788822174072266 2.153961658477783
32.66421127319336 18.52253532409668 2.155073881149292
32.72819137573242 18.29451560974121 2.153162956237793
32.80986404418945 18.07701873779297 2.150376796722412
32.95331573486328 17.893537521362305 2.144726514816284
32.99795913696289 17.656644821166992 2.1434671878814697
33.00823974609375 17.402633666992188 2.1436843872070312
33.038818359375 17.160676956176758 2.1429104804992676
33.04988098144531 16.909896850585938 2.142942190170288
33.05376052856445 16.65692901611328 2.143224000930786
33.07637023925781 16.41476821899414 2.1425881385803223
33.099056243896484 16.17383575439453 2.141876459121704
33.085811614990234 15.916778564453125 2.1427111625671387
33.10498046875 15.676745414733887 2.142014503479004
33.11430358886719 15.433279037475586 2.1416895389556885
33.13369369506836 15.195703506469727 2.140841484069824
33.139583587646484 14.953126907348633 2.140531539916992
33.146484375 14.71226692199707 2.140106439590454
33.16175079345703 14.476282119750977 2.139235734939575
33.16436004638672 14.23593521118164 2.138866901397705
33.179073333740234 14.001928329467773 2.137885332107544
33.200477600097656 13.771721839904785 2.13653302192688
33.211978912353516 13.538385391235352 2.135561466217041
33.22836685180664 13.308026313781738 2.1343019008636475
33.0953483581543 13.019810676574707 2.139718532562256
33.131534576416016 12.799989700317383 2.1374354362487793
33.57262420654297 12.734373092651367 2.1167960166931152
33.68737030029297 12.54214096069336 2.1108200550079346
33.729698181152344 12.322918891906738 2.1080482006073
33.736751556396484 12.091509819030762 2.1068053245544434
33.736576080322266 11.858489990234375 2.1058247089385986
33.75465393066406 11.632765769958496 2.103952646255493
33.73810577392578 11.396072387695312 2.103585720062256
33.77304458618164 11.177600860595703 2.1008200645446777
33.767601013183594 10.946496963500977 2.099822759628296
33.78821563720703 10.724645614624023 2.0975770950317383
33.80451965332031 10.502063751220703 2.0954644680023193
33.80980682373047 10.276778221130371 2.0937888622283936
33.80976867675781 10.05068302154541 2.0922930240631104
33.8216667175293 9.828880310058594 2.0901906490325928
33.83788299560547 9.608946800231934 2.087827682495117
33.843048095703125 9.38651180267334 2.085907459259033
33.84579849243164 9.16411304473877 2.084035634994507
33.858680725097656 8.945096015930176 2.081637144088745
33.867252349853516 8.725517272949219 2.079373836517334
33.86180877685547 8.503005981445312 2.0776920318603516
33.8811149597168 8.287298202514648 2.074812173843384
33.90195846557617 8.072368621826172 2.071798086166382
33.89809036254883 7.852081775665283 2.0698604583740234
33.907413482666016 7.635437965393066 2.0672528743743896
33.923160552978516 7.420682430267334 2.064286470413208
33.93462371826172 7.205398082733154 2.061455488204956
33.94569778442383 6.990452289581299 2.058581590652466
33.964229583740234 6.777401447296143 2.055297613143921
33.96867370605469 6.561921119689941 2.052607297897339
33.96390151977539 6.345171928405762 2.0502848625183105
33.9783935546875 6.1324543952941895 2.047003984451294
33.99253463745117 5.919969081878662 2.043675184249878
33.99943542480469 5.706546306610107 2.040623426437378
34.01092529296875 5.494217395782471 2.0372955799102783
34.016143798828125 5.281194686889648 2.0341994762420654
34.0081787109375 5.066546440124512 2.031663417816162
34.024574279785156 4.855864524841309 2.0279181003570557
34.037681579589844 4.644901275634766 2.0242650508880615
34.040565490722656 4.432796955108643 2.0210318565368652
34.05303192138672 4.222183704376221 2.0172836780548096
34.072139739990234 4.012517929077148 2.013155698776245
33.534027099609375 3.7407286167144775 2.0355124473571777
33.50845718383789 3.52993106842041 2.033442497253418
33.574005126953125 3.3287580013275146 2.0269577503204346
33.62840270996094 3.1259868144989014 2.020933151245117
33.651710510253906 2.9200801849365234 2.0163302421569824
33.655845642089844 2.7125585079193115 2.0125858783721924
33.65968704223633 2.505168914794922 2.008791923522949
33.67919921875 2.298990249633789 2.004179000854492
11.96088981628418 0.74146568775177 3.0533998012542725
33.64562225341797 1.8823480606079102 1.998281478881836
12.132548332214355 0.6028308272361755 3.0423200130462646
12.287620544433594 0.5350266695022583 3.0333359241485596
12.197772979736328 0.4561561346054077 3.0362801551818848
12.777291297912598 0.39945724606513977 3.006381034851074
33.736392974853516 0.8509666323661804 1.9739214181900024
33.73377990722656 0.6438747644424438 1.9698708057403564
33.7398796081543 0.4369756579399109 1.9653266668319702
33.757694244384766 0.23011401295661926 1.9601356983184814
33.75725555419922 0.02303636632859707 1.9557822942733765
33.75654983520508 -0.18403394520282745 1.951378583908081
12.806087493896484 -0.1496526449918747 2.9935195446014404
12.74094009399414 -0.22707490622997284 2.995048999786377
33.792728424072266 -0.8062570095062256 1.9358514547348022
33.786930084228516 -1.0135291814804077 1.93143630027771
11.80016803741455 -0.42778173089027405 3.037243604660034
12.272216796875 -0.5202109813690186 3.011641502380371
12.937076568603516 -0.6278076767921448 2.976083993911743
12.704536437988281 -0.6947027444839478 2.986025810241699
12.854470252990723 -0.7819955348968506 2.9764678478240967
12.85433292388916 -0.8611642122268677 2.974529504776001
11.806870460510254 -0.8639438152313232 3.0263984203338623
13.155245780944824 -1.043543815612793 2.955045461654663
12.618146896362305 -1.0789556503295898 2.980748176574707
12.244236946105957 -1.1227478981018066 2.9981303215026855
12.165477752685547 -1.1908409595489502 3.0002479553222656
12.749876976013184 -1.3269610404968262 2.9677493572235107
33.917564392089844 -3.7370505332946777 1.8571850061416626
13.322685241699219 -1.551936149597168 2.933397054672241
13.34355354309082 -1.6373952627182007 2.930027484893799
33.93745040893555 -4.372784614562988 1.8388015031814575
12.220818519592285 -1.6522387266159058 2.984955072402954
13.742016792297363 -1.9435633420944214 2.901822566986084
33.97502136230469 -5.014896869659424 1.8187761306762695
33.977935791015625 -5.228521347045898 1.8124549388885498
33.98541259765625 -5.443317890167236 1.8058075904846191
33.98463439941406 -5.657256603240967 1.7995246648788452
33.98546600341797 -5.8719024658203125 1.7930762767791748
33.98985290527344 -6.087651252746582 1.7863550186157227
34.01643371582031 -6.308044910430908 1.7783401012420654
34.03864288330078 -6.528430461883545 1.7704728841781616
34.015350341796875 -6.740594863891602 1.7650138139724731
33.90170669555664 -6.934516429901123 1.764460802078247
33.882713317871094 -7.147491455078125 1.7586337327957153
33.884830474853516 -7.365372180938721 1.7515578269958496
33.950828552246094 -7.598156452178955 1.7408342361450195
33.93642044067383 -7.813884735107422 1.7344961166381836
33.92063903808594 -8.029723167419434 1.7281538248062134
33.99663162231445 -8.268310546875 1.7165552377700806
34.02252960205078 -8.496040344238281 1.7076706886291504
34.0507698059082 -8.72538948059082 1.6985505819320679
34.07843780517578 -8.955660820007324 1.6893590688705444
34.09684753417969 -9.18452262878418 1.6805930137634277
34.09736633300781 -9.409433364868164 1.6727544069290161
34.08967590332031 -9.632797241210938 1.6652947664260864
34.069976806640625 -9.853370666503906 1.658437967300415
34.11969757080078 -10.095024108886719 1.6474541425704956
34.10943603515625 -10.320024490356445 1.639853835105896
34.11772537231445 -10.551474571228027 1.6310710906982422
34.123504638671875 -10.783112525939941 1.6223305463790894
34.12106704711914 -11.013073921203613 1.6139732599258423
34.12467575073242 -11.245911598205566 1.6051546335220337
34.12575912475586 -11.478889465332031 1.5963802337646484
34.14226150512695 -11.718137741088867 1.5865755081176758
34.150516510009766 -11.955711364746094 1.5771530866622925
34.10823440551758 -12.17637825012207 1.570672631263733
34.135833740234375 -12.422919273376465 1.559861660003662
34.24031448364258 -12.699416160583496 1.544233798980713
34.298789978027344 -12.961076736450195 1.5312561988830566
34.30315017700195 -13.203851699829102 1.5214627981185913
34.29931640625 -13.444620132446289 1.512057900428772
34.32626724243164 -13.698786735534668 1.5006252527236938
34.3439826965332 -13.950783729553223 1.4896342754364014
34.33866882324219 -14.194744110107422 1.479956030845642
34.34914016723633 -14.446516036987305 1.4691636562347412
34.33577346801758 -14.689528465270996 1.4597501754760742
29.63005828857422 -12.892317771911621 1.7486701011657715
29.551084518432617 -13.074228286743164 1.74464750289917
34.4111442565918 -15.477304458618164 1.4233781099319458
34.409690856933594 -15.73125171661377 1.4126770496368408
34.4100341796875 -15.987444877624512 1.4017268419265747
34.429283142089844 -16.254037857055664 1.3894085884094238
34.4366569519043 -16.5167179107666 1.3777183294296265
34.441192626953125 -16.7796630859375 1.3660693168640137
34.46078872680664 -17.051694869995117 1.3532792329788208
34.462284088134766 -17.3165340423584 1.341535210609436
34.380897521972656 -17.540752410888672 1.3351831436157227
34.33706283569336 -17.78482437133789 1.326216459274292
34.3577880859375 -18.06385612487793 1.3127686977386475
34.35875701904297 -18.334409713745117 1.3004952669143677
34.401588439941406 -18.629419326782227 1.2852085828781128
30.78871726989746 -16.91839027404785 1.5205802917480469
30.784347534179688 -17.16282081604004 1.5095174312591553
34.5663948059082 -19.55016326904297 1.235681176185608
34.52776336669922 -19.809009552001953 1.2252857685089111
34.52089309692383 -20.087690353393555 1.212523341178894
34.51448059082031 -20.368558883666992 1.1995618343353271
34.53760528564453 -20.6690616607666 1.184336543083191
34.57539367675781 -20.980972290039062 1.1678682565689087
34.54093551635742 -21.25123405456543 1.1563701629638672
34.522239685058594 -21.532957077026367 1.143578290939331
34.52500534057617 -21.830183029174805 1.1290580034255981
34.52121353149414 -22.12555694580078 1.1148234605789185
34.604652404785156 -22.479883193969727 1.0939973592758179
34.569976806640625 -22.760324478149414 1.0816192626953125
34.510746002197266 -23.026229858398438 1.0708943605422974
34.654605865478516 -23.43089485168457 1.0448477268218994
34.72808837890625 -23.792499542236328 1.023752212524414
34.7254524230957 -24.10523223876953 1.0081313848495483
34.700679779052734 -24.405048370361328 0.9939785003662109
34.80765151977539 -24.80101776123047 0.9695468544960022
34.792091369628906 -25.113353729248047 0.9542227387428284
34.79253005981445 -25.439979553222656 0.937443733215332
34.81913757324219 -25.7889347076416 0.9183899760246277
34.81401824951172 -26.11760902404785 0.9015604257583618
34.821266174316406 -26.458662033081055 0.8835157752037048
34.84935760498047 -26.81904411315918 0.8635583519935608
34.85936737060547 -27.169103622436523 0.8447656035423279
34.853065490722656 -27.509784698486328 0.8270161151885986
34.877410888671875 -27.878196716308594 0.8065271973609924
34.786827087402344 -28.15753173828125 0.7951189875602722
34.74120330810547 -28.475391387939453 0.7798425555229187
34.889583587646484 -28.9569034576416 0.7482953667640686
34.86296463012695 -29.298126220703125 0.730864942073822
34.87754440307617 -29.67761993408203 0.7097194790840149
34.93111038208008 -30.094867706298828 0.6849694848060608
34.90414047241211 -30.446971893310547 0.6666948795318604
34.86443328857422 -30.791288375854492 0.649232804775238
34.972084045410156 -31.27062225341797 0.6187999248504639
34.9811897277832 -31.667373657226562 0.5964648127555847
34.96391677856445 -32.04450988769531 0.5760927796363831
34.96527099609375 -32.4429817199707 0.5537616610527039
35.015411376953125 -32.89186096191406 0.5267544984817505
34.978904724121094 -33.26417922973633 0.5070710778236389
32.33946228027344 30.855072021484375 1.771579623222351
32.38029098510742 30.517013549804688 1.77606201171875
32.33116912841797 30.098608016967773 1.7855287790298462
32.45098114013672 29.840885162353516 1.7851839065551758
32.51190185546875 29.53110122680664 1.7880618572235107
32.46836471557617 29.130287170410156 1.7967076301574707
32.40618896484375 28.717872619628906 1.806227207183838
32.557456970214844 28.497495651245117 1.8035696744918823
32.57270812988281 28.1600341796875 1.8084317445755005
32.59568786621094 27.83254623413086 1.8127152919769287
32.59678649902344 27.489734649658203 1.8180744647979736
32.60335922241211 27.154998779296875 1.8229833841323853
32.64641189575195 26.85358428955078 1.8257293701171875
32.650550842285156 26.523061752319336 1.8304955959320068
32.675254821777344 26.212251663208008 1.8339914083480835
32.65743637084961 25.870506286621094 1.8396916389465332
32.69410705566406 25.574901580810547 1.842267394065857
32.68806457519531 25.24867820739746 1.8470550775527954
32.72056579589844 24.954999923706055 1.8496081829071045
32.70361328125 24.626415252685547 1.8547310829162598
32.74399948120117 24.34368896484375 1.8566126823425293
32.60577392578125 23.931936264038086 1.8680496215820312
32.52926254272461 23.570281982421875 1.8759970664978027
32.53569412231445 23.272077560424805 1.8793361186981201
32.6572151184082 23.057661056518555 1.8763664960861206
32.63144302368164 22.74095344543457 1.8812158107757568
32.66556930541992 22.468461990356445 1.8827342987060547
32.48185348510742 22.04996109008789 1.8957993984222412
32.57478713989258 21.82250213623047 1.893945574760437
32.63948440551758 21.57710075378418 1.8935050964355469
32.70825958251953 21.335548400878906 1.8927502632141113
32.6207275390625 20.99448585510254 1.9002059698104858
32.54037094116211 20.66172981262207 1.9071608781814575
32.51474380493164 20.3668155670166 1.9110997915267944
32.70684051513672 20.20899200439453 1.9034168720245361
32.77708435058594 19.975753784179688 1.9020973443984985
32.56058120727539 19.571041107177734 1.9158141613006592
32.55261993408203 19.295560836791992 1.9184151887893677
32.69172286987305 19.108118057250977 1.9131807088851929
32.81589126586914 18.911714553833008 1.90865159034729
32.8450813293457 18.661211013793945 1.9090285301208496
32.80619430541992 18.37396240234375 1.9128843545913696
32.883094787597656 18.1530704498291 1.910577416419983
32.98834991455078 17.948158264160156 1.906700849533081
33.01133346557617 17.699209213256836 1.9070454835891724
33.0422248840332 17.45578956604004 1.9068893194198608
33.04212951660156 17.197437286376953 1.9082629680633545
33.0730094909668 16.956605911254883 1.9079320430755615
33.062049865722656 16.69577980041504 1.9096968173980713
33.0831298828125 16.4526309967041 1.9097048044204712
33.094398498535156 16.205896377563477 1.910138487815857
33.07599639892578 15.946195602416992 1.9120315313339233
33.104393005371094 15.710457801818848 1.9114049673080444
33.12299728393555 15.471166610717773 1.9112062454223633
33.13719177246094 15.230987548828125 1.9111536741256714
33.16243362426758 14.996978759765625 1.9104454517364502
33.132205963134766 14.739279747009277 1.9125375747680664
33.14491271972656 14.502134323120117 1.9123185873031616
33.13026809692383 14.254335403442383 1.913439393043518
33.16351318359375 14.028275489807129 1.911995768547058
33.186927795410156 13.798890113830566 1.9109824895858765
33.19028854370117 13.562190055847168 1.910933017730713
33.220733642578125 13.337504386901855 1.9093995094299316
33.10100173950195 13.054325103759766 1.9155830144882202
33.15043640136719 12.839492797851562 1.9129105806350708
33.54764938354492 12.757318496704102 1.8921104669570923
33.67371368408203 12.569457054138184 1.885304570198059
33.711509704589844 12.348578453063965 1.8830041885375977
33.74222946166992 12.12568187713623 1.8809939622879028
33.74887466430664 11.894904136657715 1.88015878200531
33.764339447021484 11.668089866638184 1.8787896633148193
33.76032638549805 11.435444831848145 1.8783586025238037
33.76610565185547 11.207061767578125 1.877343773841858
33.78935241699219 10.985215187072754 1.875346302986145
33.797828674316406 10.759262084960938 1.8740441799163818
33.82292175292969 10.539262771606445 1.871802568435669
33.82079315185547 10.311495780944824 1.8709055185317993
33.82001876831055 10.085006713867188 1.869864821434021
33.82924270629883 9.862269401550293 1.8682314157485962
33.842777252197266 9.641438484191895 1.8663002252578735
33.84621810913086 9.418402671813965 1.8648242950439453
33.84819412231445 9.195686340332031 1.8633525371551514
33.86512756347656 8.977649688720703 1.8610279560089111
33.85551834106445 8.753251075744629 1.860020399093628
33.86574172973633 8.534676551818848 1.8579044342041016
33.88716506958008 8.319400787353516 1.8551287651062012
33.91499710083008 8.106039047241211 1.851944088935852
33.8967399597168 7.882242679595947 1.851110577583313
33.90331268310547 7.664919853210449 1.8489015102386475
33.928009033203125 7.4520978927612305 1.8456676006317139
33.93965148925781 7.236761093139648 1.8430495262145996
33.947967529296875 7.021155834197998 1.8405358791351318
33.9686279296875 6.808467388153076 1.8372998237609863
33.97815704345703 6.593886375427246 1.8345798254013062
33.98338317871094 6.3788909912109375 1.832018494606018
33.98332595825195 6.163364410400391 1.8296672105789185
33.994686126708984 5.950316905975342 1.8266396522521973
33.997825622558594 5.736196994781494 1.823979377746582
34.021297454833984 5.525783538818359 1.8201647996902466
34.026695251464844 5.31267786026001 1.8172433376312256
34.02286148071289 5.09852933883667 1.8147443532943726
34.03646469116211 4.887322425842285 1.8112444877624512
34.058650970458984 4.6774983406066895 1.8072121143341064
34.06864547729492 4.466156005859375 1.803761601448059
34.07238006591797 4.25424861907959 1.8005766868591309
34.08570098876953 4.043755531311035 1.7968047857284546
33.540042877197266 3.770569324493408 1.8231322765350342
33.51862335205078 3.56012225151062 1.821146845817566
33.58728790283203 3.359219789505005 1.8142175674438477
33.638851165771484 3.1561150550842285 1.8081350326538086
33.65833282470703 2.949800968170166 1.8037158250808716
33.66162872314453 2.7421486377716064 1.8001058101654053
33.656673431396484 2.534040927886963 1.7968761920928955
13.058239936828613 0.9028984308242798 2.9194986820220947
33.673797607421875 2.1202664375305176 1.7887290716171265
33.670982360839844 1.912820816040039 1.7851736545562744
33.675865173339844 1.7059423923492432 1.7811237573623657
13.201793670654297 0.587852954864502 2.905776262283325
12.395888328552246 0.4758263826370239 2.9487531185150146
19.314319610595703 0.6225563883781433 2.5643222332000732
12.751965522766113 0.3328804671764374 2.926034450531006
12.482152938842773 0.24923977255821228 2.939469575881958
33.748348236083984 0.4661354422569275 1.7529094219207764
33.76331329345703 0.2592126131057739 1.7477853298187256
12.553261756896973 0.0196177177131176 2.9307310581207275
12.631933212280273 -0.057747986167669296 2.9246675968170166
12.729093551635742 -0.136282280087471 2.9175162315368652
12.722938537597656 -0.21427635848522186 2.9161360263824463
33.80707550048828 -0.7774817943572998 1.7227650880813599
33.80940628051758 -0.9850732684135437 1.7178958654403687
33.817447662353516 -1.1929707527160645 1.7126274108886719
12.484064102172852 -0.5168456435203552 2.9225523471832275
12.585281372070312 -0.5983956456184387 2.9149415493011475
13.165487289428711 -0.7069713473320007 2.8798553943634033
12.85286808013916 -0.7692751288414001 2.895805597305298
11.823737144470215 -0.780468761920929 2.9530529975891113
12.231882095336914 -0.882819414138794 2.9276604652404785
12.613314628601074 -0.9881779551506042 2.9036567211151123
12.408965110778809 -1.0487918853759766 2.9134891033172607
12.39326000213623 -1.124077320098877 2.9123830795288086
12.715936660766602 -1.2320507764816284 2.8915088176727295
33.90557861328125 -3.4958608150482178 1.6494663953781128
13.305039405822754 -1.4541327953338623 2.852647066116333
33.93202209472656 -3.9199066162109375 1.6363060474395752
12.487282752990723 -1.5199980735778809 2.89630389213562
33.94819641113281 -4.344498634338379 1.6234073638916016
33.96516799926758 -4.55863094329834 1.6163010597229004
33.97782897949219 -4.7727203369140625 1.6093617677688599
33.9792594909668 -4.98568868637085 1.6030033826828003
33.99119186401367 -5.200666904449463 1.5959300994873047
34.004722595214844 -5.416451454162598 1.5886696577072144
34.0119514465332 -5.631783962249756 1.5816963911056519
34.00699996948242 -5.845549583435059 1.5753703117370605
29.278676986694336 -5.217872142791748 1.8557462692260742
34.02741241455078 -6.279871463775635 1.560610294342041
34.04681396484375 -6.499709129333496 1.5525274276733398
34.0354118347168 -6.7142252922058105 1.546233892440796
33.969844818115234 -6.918091297149658 1.5431873798370361
33.91672897338867 -7.124279499053955 1.5393059253692627
33.90528869628906 -7.3393707275390625 1.5327715873718262
33.971397399902344 -7.572181224822998 1.5213254690170288
33.989219665527344 -7.795369625091553 1.5127687454223633
34.01626205444336 -8.02158260345459 1.5035306215286255
34.054420471191406 -8.251477241516113 1.4934831857681274
34.064876556396484 -8.475634574890137 1.485068440437317
34.08643341064453 -8.703442573547363 1.4758459329605103
34.0977783203125 -8.929559707641602 1.4671608209609985
34.14715576171875 -9.166754722595215 1.4559434652328491
34.13042068481445 -9.387157440185547 1.448831558227539
34.10938262939453 -9.606888771057129 1.4419002532958984
34.1137809753418 -9.834458351135254 1.433232307434082
34.13389587402344 -10.067525863647461 1.4234386682510376
34.12281036376953 -10.292277336120605 1.415554404258728
34.150306701660156 -10.529623031616211 1.4050490856170654
34.13428497314453 -10.754496574401855 1.3972707986831665
34.15668487548828 -10.992414474487305 1.3868615627288818
34.150901794433594 -11.222288131713867 1.3781884908676147
34.11518859863281 -11.44298267364502 1.3713886737823486
34.1649284362793 -11.69339656829834 1.3588037490844727
34.182708740234375 -11.93432331085205 1.3482097387313843
34.16403579711914 -12.163524627685547 1.3399361371994019
34.139137268066406 -12.391243934631348 1.33197021484375
34.271854400634766 -12.677978515625 1.313227891921997
34.31173324584961 -12.932665824890137 1.3005963563919067
34.320892333984375 -13.177228927612305 1.2899136543273926
34.32647705078125 -13.421664237976074 1.2793437242507935
34.34239959716797 -13.671463966369629 1.2679296731948853
34.354698181152344 -13.921213150024414 1.2566261291503906
34.34769058227539 -14.164401054382324 1.2465237379074097
34.347267150878906 -14.41150188446045 1.2358323335647583
34.37355041503906 -14.67127513885498 1.2231318950653076
34.37138366699219 -14.920388221740723 1.2122807502746582
29.543560028076172 -13.040660858154297 1.54278564453125
34.4163703918457 -15.444695472717285 1.186654806137085
34.423255920410156 -15.702311515808105 1.1747193336486816
34.44184494018555 -15.966887474060059 1.161792278289795
34.44132995605469 -16.224205017089844 1.1500818729400635
34.445247650146484 -16.485130310058594 1.1379002332687378
34.466094970703125 -16.755874633789062 1.1243302822113037
34.48223114013672 -17.026172637939453 1.1109347343444824
34.4758186340332 -17.287010192871094 1.0990276336669922
34.41326141357422 -17.52079200744629 1.0911132097244263
34.364192962646484 -17.762248992919922 1.0820807218551636
34.434505462646484 -18.067277908325195 1.0640113353729248
34.40460205078125 -18.321773529052734 1.0532389879226685
34.4395751953125 -18.612638473510742 1.0374280214309692
34.41365432739258 -18.872474670410156 1.026031255722046
30.804920196533203 -17.140174865722656 1.2873506546020508
34.581153869628906 -19.520320892333984 0.9859779477119446
34.576438903808594 -19.798507690429688 0.972387969493866
34.562705993652344 -20.0733642578125 0.9593145251274109
34.55119705200195 -20.3513240814209 0.9458922147750854
34.58810043334961 -20.660091400146484 0.9285010099411011
34.569602966308594 -20.93802261352539 0.9152417778968811
34.560890197753906 -21.223812103271484 0.9010264873504639
34.53471374511719 -21.500795364379883 0.888006329536438
34.596717834472656 -21.835233688354492 0.8677563667297363
34.572696685791016 -22.11800765991211 0.8541576266288757
34.609291076660156 -22.442020416259766 0.8354695439338684
34.61817932128906 -22.750873565673828 0.8187841773033142
34.56064224243164 -23.018091201782227 0.8073037266731262
34.732662200927734 -23.441740036010742 0.776773989200592
34.74842071533203 -23.76416778564453 0.7587780356407166
34.75168228149414 -24.08085060119629 0.7415761351585388
34.74827575683594 -24.395597457885742 0.7246922850608826
34.833351135253906 -24.775972366333008 0.7001186013221741
34.813880920410156 -25.08540153503418 0.6840710639953613
34.79594421386719 -25.398462295532227 0.6676620841026306
34.82600784301758 -25.749610900878906 0.6468995809555054
34.831504821777344 -26.0859375 0.6279665231704712
34.849266052246094 -26.434751510620117 0.6076955199241638
34.878292083740234 -26.795703887939453 0.5861519575119019
34.86482238769531 -27.127368927001953 0.5680368542671204
34.895599365234375 -27.496923446655273 0.5457399487495422
34.87479782104492 -27.829296112060547 0.5277142524719238
34.793800354003906 -28.116043090820312 0.5148155689239502
34.78084945678711 -28.46033477783203 0.4955742657184601
34.88019561767578 -28.9009952545166 0.4658457040786743
34.871490478515625 -29.256738662719727 0.445564866065979
34.93042755126953 -29.67352294921875 0.4187527298927307
34.92958068847656 -30.043991088867188 0.39708176255226135
34.92775344848633 -30.417526245117188 0.37517300248146057
34.8740119934082 -30.74928092956543 0.3578042685985565
34.96855926513672 -31.21637535095215 0.32613393664360046
34.769317626953125 -31.42425537109375 0.3219687044620514
34.97801208496094 -32.005271911621094 0.2785830795764923
34.91596221923828 -32.34461975097656 0.26069796085357666
35.05331802368164 -32.87411117553711 0.22312182188034058
34.950374603271484 -33.18328094482422 0.208515927195549
32.34755325317383 30.864604949951172 1.4896687269210815
32.40880584716797 30.545713424682617 1.4940810203552246
32.32919692993164 30.09859848022461 1.5075839757919312
32.44899368286133 29.840904235839844 1.507785439491272
32.51953125 29.53989028930664 1.5110656023025513
32.45378112792969 29.11906623840332 1.5230501890182495
32.4042854309082 28.718053817749023 1.5337632894515991
32.5517692565918 28.49440574645996 1.5315500497817993
32.58061599731445 28.168771743774414 1.5368552207946777
32.591514587402344 27.83088493347168 1.543147087097168
32.6025505065918 27.49650764465332 1.5492596626281738
32.60380935668945 27.157291412353516 1.5558284521102905
32.62220001220703 26.835594177246094 1.5611404180526733
32.63322448730469 26.51091957092285 1.5667610168457031
32.66176223754883 26.203371047973633 1.5711174011230469
32.654090881347656 25.869802474975586 1.5776035785675049
32.686832427978516 25.5711669921875 1.5813931226730347
32.674461364746094 25.240131378173828 1.587863564491272
32.697391510009766 24.939287185668945 1.5919737815856934
32.720252990722656 24.640918731689453 1.5959466695785522
32.736690521240234 24.34023094177246 1.6001790761947632
32.72410583496094 24.02076530456543 1.6060696840286255
32.54628372192383 23.584577560424805 1.6220262050628662
32.56093215942383 23.292102813720703 1.6259229183197021
32.66379165649414 23.064285278320312 1.6242616176605225
32.61103439331055 22.72871971130371 1.632043719291687
32.71009826660156 22.501087188720703 1.630380630493164
32.71422576904297 22.209699630737305 1.6344133615493774
32.72099685668945 21.922452926635742 1.6381570100784302
32.687156677246094 21.610620498657227 1.6442461013793945
32.7168083190918 21.343137741088867 1.6463443040847778
32.77632522583008 21.09664535522461 1.6465142965316772
32.753963470458984 20.799365997314453 1.6515308618545532
32.77235412597656 20.530197143554688 1.65395987033844
32.765743255615234 20.247411727905273 1.6577810049057007
32.66310119628906 19.908306121826172 1.667263150215149
32.652549743652344 19.628341674804688 1.6710760593414307
32.80903625488281 19.44957733154297 1.6647489070892334
32.846435546875 19.200586318969727 1.665472388267517
32.87163543701172 18.94588279724121 1.6668204069137573
32.87759017944336 18.681726455688477 1.669211983680725
32.808353424072266 18.377216339111328 1.6759816408157349
32.87563705444336 18.1510066986084 1.674498200416565
32.98699188232422 17.94948387145996 1.6702953577041626
33.01261901855469 17.70197105407715 1.671097993850708
33.03822708129883 17.455751419067383 1.6718015670776367
33.03105163574219 17.193744659423828 1.6743489503860474
33.050350189208984 16.947067260742188 1.6752256155014038
33.050045013427734 16.691795349121094 1.677162528038025
33.07288360595703 16.449617385864258 1.6776310205459595
33.08772277832031 16.204713821411133 1.6784754991531372
33.09361267089844 15.956772804260254 1.6797515153884888
33.10221862792969 15.711515426635742 1.6807712316513062
33.12173080444336 15.472667694091797 1.6810519695281982
33.127769470214844 15.22874927520752 1.6820322275161743
33.15389633178711 14.995216369628906 1.681736946105957
33.12367248535156 14.737579345703125 1.6846647262573242
33.13544845581055 14.500093460083008 1.6850271224975586
33.12446975708008 14.253939628601074 1.6866368055343628
33.142066955566406 14.021305084228516 1.686476230621338
33.18571853637695 13.800493240356445 1.6846948862075806
33.19093704223633 13.564563751220703 1.6850826740264893
33.22694396972656 13.342109680175781 1.6835750341415405
33.089630126953125 13.051941871643066 1.6921480894088745
33.137168884277344 12.83646011352539 1.6897871494293213
33.537025451660156 12.755419731140137 1.666678547859192
33.688289642333984 12.577054977416992 1.658067226409912
33.71017837524414 12.350250244140625 1.6569559574127197
33.739013671875 12.126690864562988 1.6553515195846558
33.74753952026367 11.896599769592285 1.6548514366149902
33.74696731567383 11.664252281188965 1.6547998189926147
33.74386978149414 11.432039260864258 1.6548110246658325
33.761940002441406 11.207852363586426 1.6534966230392456
33.77853775024414 10.983871459960938 1.6521848440170288
33.79269790649414 10.759804725646973 1.650931477546692
33.808250427246094 10.536869049072266 1.6495131254196167
33.80323791503906 10.308320999145508 1.649219036102295
33.79765319824219 10.080516815185547 1.648876428604126
33.82026290893555 9.861831665039062 1.646795630455017
33.84050369262695 9.642972946166992 1.644771933555603
33.8477897644043 9.421025276184082 1.6434271335601807
33.85169982910156 9.19882583618164 1.6422004699707031
33.858985900878906 8.97821044921875 1.6406937837600708
33.868709564208984 8.758851051330566 1.6389631032943726
33.884761810302734 8.541661262512207 1.636778473854065
33.89845275878906 8.32436466217041 1.634652853012085
33.89619445800781 8.103738784790039 1.6333872079849243
33.895416259765625 7.884131908416748 1.6319551467895508
33.896148681640625 7.665497779846191 1.6303553581237793
33.91984939575195 7.452507019042969 1.627317190170288
33.93830871582031 7.238678932189941 1.6245099306106567
33.950538635253906 7.023892879486084 1.621990442276001
33.96141052246094 6.809227466583252 1.6194719076156616
33.968963623046875 6.594310760498047 1.6170703172683716
33.97221374511719 6.37900447845459 1.614846110343933
33.98589324951172 6.166042804718018 1.611923098564148
33.99332046508789 5.952291965484619 1.6092934608459473
33.99842071533203 5.738513469696045 1.6067224740982056
34.013999938964844 5.5268168449401855 1.6034479141235352
34.018409729003906 5.313602924346924 1.6007609367370605
34.00666046142578 5.098321437835693 1.5989623069763184
34.027156829833984 4.888209342956543 1.5951564311981201
34.04536056518555 4.6778998374938965 1.5914067029953003
34.059303283691406 4.467160224914551 1.5878326892852783
34.06896209716797 4.256052494049072 1.5844354629516602
34.08425521850586 4.045816421508789 1.5806204080581665
33.538787841796875 3.772614002227783 1.6105475425720215
33.515380859375 3.5619630813598633 1.6089588403701782
33.57706832885742 3.3603885173797607 1.6021491289138794
33.62759780883789 3.157256841659546 1.5959278345108032
33.650047302246094 2.951274871826172 1.5913233757019043
33.66228485107422 2.7444045543670654 1.587257981300354
33.67623519897461 2.5377187728881836 1.5830085277557373
33.683937072753906 2.3306188583374023 1.5790588855743408
33.67641830444336 2.1226394176483154 1.5759599208831787
33.66263198852539 1.9145547151565552 1.573168396949768
33.662513732910156 1.7074761390686035 1.5694636106491089
13.035459518432617 0.5808039903640747 2.8327763080596924
13.019726753234863 0.5001050233840942 2.8322460651397705
13.015467643737793 0.42000702023506165 2.830981969833374
33.71815872192383 0.881760835647583 1.5503910779953003
33.737632751464844 0.6752173900604248 1.5450713634490967
33.75284957885742 0.46842503547668457 1.5399322509765625
12.757970809936523 0.0985233411192894 2.840573787689209
33.767494201660156 0.05433998629450798 1.5303846597671509
12.661211967468262 -0.057558368891477585 2.843287944793701
12.665513038635254 -0.13527420163154602 2.8413236141204834
33.80487823486328 -0.5677403211593628 1.514474630355835
12.781437873840332 -0.293362021446228 2.830556869506836
33.80180740356445 -0.9826076626777649 1.505204200744629
33.811824798583984 -1.1905252933502197 1.4997169971466064
33.821563720703125 -1.3986456394195557 1.494160532951355
12.574604034423828 -0.5975667834281921 2.836264133453369
12.992146492004395 -0.6972987055778503 2.807827949523926
12.850046157836914 -0.7687591910362244 2.8148860931396484
12.876852989196777 -0.8496682643890381 2.8111684322357178
33.87685012817383 -2.443443536758423 1.464650273323059
12.530963897705078 -0.9814038276672363 2.829251766204834
33.885528564453125 -2.8623762130737305 1.4530861377716064
33.89091110229492 -3.0723369121551514 1.447104811668396
12.762775421142578 -1.2362477779388428 2.8080062866210938
13.247214317321777 -1.3652374744415283 2.774399757385254
13.347604751586914 -1.458389163017273 2.7655651569366455
13.784395217895508 -1.5917339324951172 2.734724760055542
33.9497184753418 -4.1308746337890625 1.413751244544983
33.94721221923828 -4.342080116271973 1.4077322483062744
33.96118927001953 -4.555801868438721 1.400538444519043
33.967891693115234 -4.769025802612305 1.39372718334198
33.97621536254883 -4.982939720153809 1.3867130279541016
33.98713684082031 -5.19774055480957 1.3794294595718384
33.99965286254883 -5.41333532333374 1.371940016746521
33.99898147583008 -5.627324104309082 1.3652297258377075
33.99008560180664 -5.840328693389893 1.3589746952056885
29.27140235900879 -5.214696884155273 1.6687595844268799
34.02616882324219 -6.277320384979248 1.342553734779358
34.05435562133789 -6.49882173538208 1.3334989547729492
34.03313064575195 -6.711447238922119 1.3276801109313965
33.967559814453125 -6.9153008460998535 1.3247833251953125
33.9359245300293 -7.125986099243164 1.319500207901001
33.918575286865234 -7.339920997619629 1.3131506443023682
33.9368896484375 -7.562159061431885 1.3042576313018799
33.99848175048828 -7.795155048370361 1.2922711372375488
34.036155700683594 -8.023926734924316 1.2818046808242798
34.07714080810547 -8.254630088806152 1.270983338356018
34.07203674316406 -8.47506046295166 1.2632410526275635
34.08290100097656 -8.70018196105957 1.2542775869369507
34.10580062866211 -8.929295539855957 1.2443548440933228
34.11656188964844 -9.156171798706055 1.2351635694503784
34.12004852294922 -9.381932258605957 1.2263667583465576
34.11148452758789 -9.605104446411133 1.2183080911636353
34.11391830444336 -9.832119941711426 1.2093558311462402
34.13494873046875 -10.065452575683594 1.1989614963531494
34.12955856323242 -10.291924476623535 1.190328598022461
34.16271209716797 -10.531055450439453 1.1788095235824585
34.16566467285156 -10.76198673248291 1.1693304777145386
34.15471649169922 -10.989380836486816 1.1607338190078735
34.13752365112305 -11.215489387512207 1.1524745225906372
34.14153289794922 -11.449414253234863 1.1425524950027466
34.17416763305664 -11.694147109985352 1.1304062604904175
34.1749267578125 -11.929190635681152 1.1204564571380615
34.167510986328125 -12.162342071533203 1.110979676246643
34.14069747924805 -12.389388084411621 1.1028143167495728
34.27330780029297 -12.676081657409668 1.0826678276062012
34.3028564453125 -12.92687702178955 1.0700072050094604
34.31943893432617 -13.17422103881836 1.058165192604065
34.319400787353516 -13.4164457321167 1.0474261045455933
34.33529281616211 -13.66617488861084 1.0353420972824097
34.34107971191406 -13.913232803344727 1.023872971534729
34.33866882324219 -14.158214569091797 1.0128817558288574
34.364898681640625 -14.416424751281738 0.99955153465271
34.3580436706543 -14.662179946899414 0.9886017441749573
34.368682861328125 -14.916732788085938 0.9761545658111572
29.526269912719727 -13.031020164489746 1.3404488563537598
34.43267059326172 -15.449515342712402 0.9474461674690247
34.4203987121582 -15.698507308959961 0.9362926483154297
34.426265716552734 -15.957159996032715 0.9235609769821167
34.429351806640625 -16.21605110168457 0.9108850955963135
34.43684005737305 -16.478593826293945 0.8976916670799255
34.46841812133789 -16.754484176635742 0.8824048638343811
34.47643280029297 -17.020782470703125 0.8688145875930786
34.475337982177734 -17.284236907958984 0.8557817339897156
34.39763259887695 -17.51030731201172 0.8487772941589355
34.372501373291016 -17.76401138305664 0.8373801112174988
34.42945098876953 -18.062084197998047 0.8191149234771729
34.40215301513672 -18.317928314208984 0.8075422644615173
34.42741012573242 -18.603515625 0.7914694547653198
34.40235137939453 -18.863725662231445 0.779363214969635
30.809833526611328 -17.140716552734375 1.0645501613616943
34.57407760620117 -19.513748168945312 0.7360463738441467
34.5693244934082 -19.791851043701172 0.7216181755065918
34.58229446411133 -20.0821475982666 0.7054924964904785
34.559478759765625 -20.353614807128906 0.6921968460083008
34.60141372680664 -20.66543960571289 0.6731746196746826
34.60924530029297 -20.959428787231445 0.656836211681366
34.574825286865234 -21.229764938354492 0.643930971622467
34.58070755004883 -21.52682113647461 0.6273343563079834
34.603641510009766 -21.836986541748047 0.6090216040611267
34.55265426635742 -22.10256576538086 0.5969568490982056
34.59090805053711 -22.427474975585938 0.5768269896507263
34.615638732910156 -22.746562957763672 0.5576279759407043
34.57880783081055 -23.027555465698242 0.5436667799949646
34.7183723449707 -23.4294376373291 0.513649582862854
34.76538848876953 -23.773103713989258 0.49160754680633545
34.73980712890625 -24.0699520111084 0.4758635461330414
34.7453498840332 -24.390872955322266 0.4570451080799103
34.832767486572266 -24.772869110107422 0.4304306209087372
34.813228607177734 -25.082239151000977 0.4133484661579132
34.791194915771484 -25.39229965209961 0.3962487578392029
34.813167572021484 -25.737415313720703 0.3747783303260803
34.82421875 -26.077775955200195 0.35402950644493103
34.84590148925781 -26.429481506347656 0.33197376132011414
34.85902786254883 -26.778181076049805 0.3104148507118225
34.85894775390625 -27.120073318481445 0.28980982303619385
34.84892272949219 -27.457414627075195 0.2698594033718109
34.84385681152344 -27.801870346069336 0.24912980198860168
34.743568420410156 -28.072725296020508 0.2373970001935959
34.75933837890625 -28.439998626708984 0.21404950320720673
34.8770866394043 -28.895666122436523 0.18025662004947662
34.880531311035156 -29.261568069458008 0.15736672282218933
34.89674758911133 -29.642147064208984 0.1328490525484085
34.917152404785156 -30.03052520751953 0.10753543674945831
30.309297561645508 -28.774457931518555 0.3995007574558258
32.37532043457031 30.892602920532227 1.2216243743896484
32.388797760009766 30.52836799621582 1.230628490447998
32.32156753540039 30.09300994873047 1.2453725337982178
32.458953857421875 29.851600646972656 1.2447928190231323
32.499996185302734 29.523698806762695 1.2511335611343384
32.4438591003418 29.11172103881836 1.2643767595291138
32.4205207824707 28.734004974365234 1.2749899625778198
32.55305480957031 28.49711036682129 1.2740826606750488
32.539634704589844 28.134929656982422 1.2835808992385864
32.57844161987305 27.821327209472656 1.28911292552948
32.58867645263672 27.486419677734375 1.2965140342712402
32.5991096496582 27.154993057250977 1.303712010383606
32.608245849609375 26.825742721557617 1.3108159303665161
32.62078094482422 26.502445220947266 1.3174951076507568
32.64928436279297 26.195005416870117 1.322866439819336
32.64236831665039 25.862167358398438 1.3305672407150269
32.667213439941406 25.557477951049805 1.3358534574508667
32.689552307128906 25.253456115722656 1.3411507606506348
32.69590759277344 24.939830780029297 1.3474030494689941
32.7259635925293 24.646902084350586 1.351835012435913
32.71039962768555 24.322370529174805 1.3592853546142578
32.75246047973633 24.043277740478516 1.3625693321228027
32.53282165527344 23.576505661010742 1.3838058710098267
32.59453582763672 23.317832946777344 1.3853976726531982
32.65430450439453 23.05929183959961 1.3869901895523071
32.70640563964844 22.796899795532227 1.3889763355255127
32.708805084228516 22.501909255981445 1.3942315578460693
32.651004791259766 22.168495178222656 1.4034500122070312
32.71559524536133 21.92055892944336 1.4041633605957031
32.711753845214844 21.628610610961914 1.40940523147583
32.747371673583984 21.36481285095215 1.411826252937317
32.7742805480957 21.097070693969727 1.4147073030471802
32.78312683105469 20.81963348388672 1.418677806854248
32.80588150024414 20.55295181274414 1.4215761423110962
18.435060501098633 11.392265319824219 2.392998218536377
18.434541702270508 11.236358642578125 2.3953750133514404
18.368635177612305 11.04230785369873 2.402062177658081
18.367172241210938 10.88869571685791 2.4043476581573486
32.83845520019531 19.197690963745117 1.4395922422409058
32.92850875854492 18.980443954467773 1.4372421503067017
32.90343475341797 18.698196411132812 1.4424543380737305
32.81517791748047 18.382816314697266 1.4517388343811035
32.87636184692383 18.153194427490234 1.450963020324707
32.975425720214844 17.94498634338379 1.4475679397583008
32.99663162231445 17.69519805908203 1.4492261409759521
33.0301399230957 17.453285217285156 1.4499579668045044
32.999061584472656 17.178895950317383 1.4548436403274536
33.04758071899414 16.947458267211914 1.4543594121932983
33.04015350341797 16.688613891601562 1.4574543237686157
33.06386947631836 16.446950912475586 1.458385944366455
33.076900482177734 16.20123291015625 1.4599123001098633
33.08097839355469 15.95250415802002 1.461917757987976
33.094970703125 15.709901809692383 1.4631646871566772
33.10091018676758 15.464768409729004 1.4648330211639404
33.12866973876953 15.230996131896973 1.4649662971496582
33.1566276550293 14.99828815460205 1.4649838209152222
33.125526428222656 14.740240097045898 1.4687587022781372
33.12085723876953 14.4955472946167 1.4706999063491821
33.12269592285156 14.255017280578613 1.472113847732544
33.13386154174805 14.019676208496094 1.4728164672851562
33.1756477355957 13.7981538772583 1.4714237451553345
33.183624267578125 13.563424110412598 1.4721360206604004
33.21961212158203 13.341021537780762 1.4709244966506958
33.07585144042969 13.04835033416748 1.4813144207000732
33.12800979614258 12.834759712219238 1.4788538217544556
33.52956771850586 12.75446891784668 1.4535810947418213
33.6751594543457 12.574050903320312 1.444867491722107
33.712955474853516 12.353171348571777 1.443065881729126
33.721134185791016 12.12216854095459 1.44309401512146
33.738101959228516 11.895181655883789 1.4424552917480469
33.74317932128906 11.6648530960083 1.442493200302124
33.74859619140625 11.435550689697266 1.4424140453338623
33.75531005859375 11.207563400268555 1.4421567916870117
33.77094650268555 10.983318328857422 1.4412275552749634
33.796512603759766 10.762937545776367 1.4395599365234375
33.79873275756836 10.535821914672852 1.4393151998519897
33.80898666381836 10.311997413635254 1.4384567737579346
33.79194641113281 10.08073616027832 1.4392794370651245
33.814544677734375 9.862089157104492 1.437436580657959
33.82805252075195 9.64135456085205 1.4360934495925903
33.840126037597656 9.420822143554688 1.4347522258758545
33.85655212402344 9.202075958251953 1.4330377578735352
33.8513069152832 8.978107452392578 1.4326421022415161
33.855224609375 8.757298469543457 1.431562066078186
33.86931610107422 8.539705276489258 1.4297304153442383
33.885894775390625 8.323220252990723 1.4276481866836548
33.89234924316406 8.10476303100586 1.4261356592178345
33.898380279541016 7.886764049530029 1.424562692642212
33.903987884521484 7.669215679168701 1.422928810119629
33.91501998901367 7.45339298248291 1.4208534955978394
33.9295654296875 7.238763332366943 1.418460488319397
33.9456901550293 7.02484130859375 1.4158766269683838
33.94969940185547 6.80883264541626 1.4139962196350098
33.95233917236328 6.593038558959961 1.4121184349060059
33.9575309753418 6.378203392028809 1.4099868535995483
33.97806167602539 6.166581153869629 1.4067631959915161
33.988426208496094 5.953396797180176 1.4041178226470947
33.99351501464844 5.739649772644043 1.401732325553894
34.002193450927734 5.5268635749816895 1.399023175239563
34.00855255126953 5.31403112411499 1.3963810205459595
33.99778747558594 5.0989580154418945 1.3947781324386597
34.020240783691406 4.889185428619385 1.3909024000167847
34.03447341918945 4.6783766746521 1.3874799013137817
34.046417236328125 4.467445373535156 1.3841207027435303
34.052101135253906 4.255922794342041 1.3810888528823853
34.06637954711914 4.0456743240356445 1.377400517463684
33.54192352294922 3.77490496635437 1.409348487854004
33.4976921081543 3.5620176792144775 1.409415364265442
33.56330108642578 3.3609533309936523 1.402101755142212
33.622737884521484 3.158749580383301 1.395102620124817
33.64418029785156 2.952711820602417 1.3905407190322876
33.65540313720703 2.745797872543335 1.3865728378295898
33.6673469543457 2.5390055179595947 1.3824687004089355
33.67403793334961 2.331892490386963 1.3786283731460571
33.6605339050293 2.1235969066619873 1.3760560750961304
33.647735595703125 1.9156666994094849 1.3733534812927246
33.65657043457031 1.7091362476348877 1.369112253189087
33.67510223388672 1.503057599067688 1.3641300201416016
33.65647888183594 1.295431137084961 1.3615647554397583
19.26890754699707 0.6227839589118958 2.330592393875122
12.994745254516602 0.3398166596889496 2.7533295154571533
12.361064910888672 0.24732348322868347 2.794757604598999
12.395166397094727 0.17195670306682587 2.7909085750579834
33.7497444152832 0.26331764459609985 1.3348109722137451
33.75542068481445 0.05630258098244667 1.330068826675415
12.728137969970703 -0.05762430280447006 2.7633438110351562
33.78091049194336 -0.3580937683582306 1.3193469047546387
33.7807731628418 -0.5653466582298279 1.3147318363189697
12.818349838256836 -0.293962687253952 2.7519102096557617
33.80759811401367 -0.9807809591293335 1.3033636808395386
