# .PCD v0.7 - Point Cloud Data file format
VERSION 0.7
FIELDS x y z
SIZE 4 4 4
TYPE F F F
COUNT 1 1 1
WIDTH 852
HEIGHT 1
VIEWPOINT 0 0 0 1 0 0 0
POINTS 852
DATA ascii
33.75286102294922 0.43714460730552673 1.9646843671798706
33.74970245361328 0.23005904257297516 1.9605320692062378
33.76224899291992 0.023040076717734337 1.95553457736969
33.77253341674805 -0.1841200590133667 1.95058274269104
12.810083389282227 -0.1496986746788025 2.9933199882507324
12.738943099975586 -0.2270396202802658 2.9951491355895996
33.801719665527344 -0.8064709305763245 1.9353996515274048
33.808895111083984 -1.0141866207122803 1.9303299188613892
11.801165580749512 -0.4278177320957184 3.0371932983398438
12.270221710205078 -0.5201267004013062 3.0117428302764893
12.94904613494873 -0.6283867359161377 2.975476026535034
12.70353889465332 -0.6946483850479126 2.986076831817627
12.846495628356934 -0.7815116047859192 2.9768755435943604
12.851344108581543 -0.8609644174575806 2.9746828079223633
11.803882598876953 -0.8637256622314453 3.0265519618988037
33.87199401855469 -2.6836583614349365 1.8869637250900269
12.591279983520508 -1.0766627788543701 2.98213791847229
12.264126777648926 -1.1245683431625366 2.997098445892334
33.901676177978516 -3.31484055519104 1.8691990375518799
12.743917465209961 -1.3263417482376099 2.9680604934692383
13.111672401428223 -1.4459173679351807 2.9466872215270996
13.34748363494873 -1.5548211336135864 2.9320943355560303
13.35842227935791 -1.639217495918274 2.929244041442871
33.949337005615234 -4.37431526184082 1.8381726741790771
12.361347198486328 -1.67121422290802 2.9775004386901855
13.75289249420166 -1.9451000690460205 2.9012434482574463
33.98489761352539 -5.016354560852051 1.818249225616455
33.97694778442383 -5.22836971282959 1.812507152557373
33.981468200683594 -5.442686080932617 1.8060193061828613
33.9954719543457 -5.659059524536133 1.7989401817321777
33.99727249145508 -5.873941898345947 1.7924367189407349
33.98985290527344 -6.087651252746582 1.7863550186157227
34.02527618408203 -6.309682846069336 1.777858018875122
34.035701751708984 -6.527866363525391 1.770633339881897
34.00849533081055 -6.739236831665039 1.7653902769088745
33.899749755859375 -6.934116363525391 1.7645686864852905
33.88564682006836 -7.1481099128723145 1.7584720849990845
33.88190460205078 -7.364736080169678 1.7517200708389282
33.951805114746094 -7.598373889923096 1.7407801151275635
33.95393371582031 -7.817916393280029 1.733515977859497
33.92063903808594 -8.029723167419434 1.7281538248062134
34.01118469238281 -8.271849632263184 1.7157350778579712
34.02737045288086 -8.497249603271484 1.7073962688446045
34.03626251220703 -8.721673011779785 1.6993753910064697
34.084232330322266 -8.957183837890625 1.6890285015106201
34.07949447631836 -9.179849624633789 1.6815874576568604
34.08485412597656 -9.405981063842773 1.6734743118286133
34.09640121459961 -9.634696960449219 1.6649060249328613
34.1045036315918 -9.863354682922363 1.6564371585845947
34.10820770263672 -10.091625213623047 1.6481229066848755
34.0951042175293 -10.315688133239746 1.6406913995742798
34.13871383666992 -10.557963371276855 1.6298396587371826
34.12731170654297 -10.784316062927246 1.6221070289611816
34.12391662597656 -11.013994216918945 1.613804578781128
34.12846755981445 -11.247160911560059 1.6049288511276245
34.13143539428711 -11.480798721313477 1.596040964126587
34.168704986572266 -11.727211952209473 1.5849902629852295
34.151458740234375 -11.95604133605957 1.5770964622497559
34.11575698852539 -12.179062843322754 1.5702176094055176
34.1142578125 -12.415066719055176 1.5611724853515625
34.26652908325195 -12.709136962890625 1.5426349639892578
34.300655364990234 -12.961783409118652 1.5311415195465088
34.28265380859375 -13.195963859558105 1.5227247476577759
34.309539794921875 -13.448627471923828 1.511425495147705
34.32626724243164 -13.698786735534668 1.5006252527236938
34.31993103027344 -13.94101619720459 1.4911348819732666
34.35527420043945 -14.201607704162598 1.4789146184921265
34.363861083984375 -14.45270824432373 1.4682364463806152
34.34495162963867 -14.69345474243164 1.4591691493988037
29.61998748779297 -12.88793659210205 1.74931001663208
29.5483455657959 -13.073017120361328 1.7448225021362305
34.40203857421875 -15.4732084274292 1.423963189125061
34.41786575317383 -15.734986305236816 1.412150263786316
34.407318115234375 -15.986184120178223 1.4019031524658203
34.438316345214844 -16.258298873901367 1.388819694519043
34.42314910888672 -16.510242462158203 1.3786026239395142
34.45914077758789 -16.788408279418945 1.3648881912231445
34.446475982666016 -17.044612884521484 1.3542263507843018
34.463172912597656 -17.31698226928711 1.3414757251739502
34.386234283447266 -17.543476104736328 1.3348267078399658
34.33351516723633 -17.782987594604492 1.326454758644104
34.37104034423828 -18.07082176208496 1.3118739128112793
34.332340240478516 -18.3203125 1.3022887706756592
34.401588439941406 -18.629419326782227 1.2852085828781128
30.808837890625 -16.929445266723633 1.5191997289657593
30.80527114868164 -17.174484252929688 1.5080739259719849
34.55683898925781 -19.54475975036621 1.2363442182540894
34.532958984375 -19.811988830566406 1.2249236106872559
34.50967788696289 -20.081165313720703 1.2133100032806396
34.51017761230469 -20.36602210998535 1.1998653411865234
34.53845977783203 -20.669574737548828 1.1842756271362305
34.58392333984375 -20.986148834228516 1.1672598123550415
34.55879211425781 -21.262216567993164 1.1550898551940918
34.5374870300293 -21.542463302612305 1.1424791812896729
34.477760314941406 -21.800312042236328 1.1324846744537354
34.52121353149414 -22.12555694580078 1.1148234605789185
34.610511779785156 -22.483688354492188 1.0935674905776978
34.54413604736328 -22.743310928344727 1.0835274457931519
34.506595611572266 -23.023460388183594 1.0712021589279175
34.66535949707031 -23.438161849975586 1.0440456867218018
34.73055648803711 -23.794191360473633 1.0235668420791626
34.7254524230957 -24.10523223876953 1.0081313848495483
34.71537780761719 -24.415382385253906 0.9928608536720276
34.78814697265625 -24.787118911743164 0.9710395336151123
34.77267074584961 -25.099336624145508 0.9557182192802429
34.795753479003906 -25.44233512878418 0.9371939897537231
34.811920166015625 -25.783588409423828 0.9189531803131104
34.815616607666016 -26.118806838989258 0.901435136795044
34.84828567504883 -26.479190826416016 0.8813822865486145
34.828792572021484 -26.803218841552734 0.8651935458183289
34.86408996582031 -27.172786712646484 0.844387412071228
34.853065490722656 -27.509784698486328 0.8270161151885986
34.89065933227539 -27.8887882232666 0.8054535984992981
34.75269317626953 -28.129907608032227 0.7979037165641785
34.77207946777344 -28.500694274902344 0.7773066759109497
34.91108703613281 -28.974748611450195 0.7465168833732605
34.86449432373047 -29.29941177368164 0.7307376861572266
34.89578628540039 -29.69314193725586 0.7081906795501709
34.946990966796875 -30.108545303344727 0.6836282014846802
34.89210891723633 -30.43647575378418 0.6677175760269165
34.839752197265625 -30.769489288330078 0.65134596824646
34.96390151977539 -31.2633056640625 0.6195052266120911
34.97822952270508 -31.664695739746094 0.5967215895652771
34.96244812011719 -32.04316329956055 0.5762211680412292
34.95941925048828 -32.43755340576172 0.5542773604393005
35.013954162597656 -32.89049530029297 0.5268839001655579
34.95720672607422 -33.24354934692383 0.5090089440345764
32.32210922241211 30.838520050048828 1.772578477859497
32.381019592285156 30.517698287963867 1.7760202884674072
32.33116912841797 30.098608016967773 1.7855287790298462
32.47084045410156 29.859146118164062 1.7840532064437866
32.50968551635742 29.529085159301758 1.7881877422332764
32.497371673583984 29.156307220458984 1.7950663566589355
32.410675048828125 28.72184944152832 1.8059741258621216
32.56948471069336 28.508024215698242 1.8028942346572876
32.563636779785156 28.152193069458008 1.8089401721954346
32.60176467895508 27.837736129760742 1.8123760223388672
32.583038330078125 27.47814178466797 1.8188400268554688
32.61410903930664 27.163949966430664 1.8223868608474731
32.62557601928711 26.83644676208496 1.82688307762146
32.650550842285156 26.523061752319336 1.8304955959320068
32.65420913696289 26.19537353515625 1.8351500034332275
32.67388153076172 25.883533477783203 1.8387893438339233
32.66263198852539 25.550281524658203 1.8439918756484985
32.71731948852539 25.271276473999023 1.8454560041427612
32.715797424316406 24.951364517211914 1.849867820739746
32.717979431152344 24.637231826782227 1.8539505004882812
32.7528190612793 24.350244522094727 1.856134295463562
32.585636138916016 23.917158126831055 1.8691394329071045
32.56081771850586 23.593143463134766 1.8742926120758057
32.54056930541992 23.27556610107422 1.8790738582611084
32.66130065917969 23.060543060302734 1.8761470317840576
32.6338996887207 22.74266815185547 1.8810842037200928
32.66474914550781 22.4678955078125 1.8827786445617676
32.476070404052734 22.046035766601562 1.8961094617843628
32.58723831176758 21.830841064453125 1.89328134059906
32.66865539550781 21.596384048461914 1.891950011253357
32.70491409301758 21.333364486694336 1.8929284811019897
32.619049072265625 20.993404388427734 1.9002957344055176
32.520973205566406 20.6494140625 1.9081895351409912
32.48087692260742 20.345600128173828 1.912893533706665
32.7144889831543 20.213716506958008 1.9030121564865112
32.76087951660156 19.96587562561035 1.9029535055160522
32.5982551574707 19.59368324279785 1.9138263463974
32.546607971191406 19.291994094848633 1.9187321662902832
32.67878341674805 19.100555419921875 1.9138612747192383
32.79598617553711 18.900243759155273 1.9096978902816772
32.83987045288086 18.65825080871582 1.9093024730682373
32.800968170166016 18.37103271484375 1.9131591320037842
32.87522506713867 18.148727416992188 1.91098952293396
32.98220443725586 17.94481658935547 1.907022476196289
33.01133346557617 17.699209213256836 1.9070454835891724
33.02985763549805 17.44925880432129 1.907535195350647
33.04567337036133 17.199281692504883 1.9080778360366821
33.050785064697266 16.945213317871094 1.9090914726257324
33.069183349609375 16.699382781982422 1.9093247652053833
33.06613540649414 16.44417953491211 1.910589575767517
33.06568908691406 16.19183921813965 1.911633014678955
33.084999084472656 15.950532913208008 1.9115633964538574
33.11161422729492 15.713883399963379 1.9110302925109863
33.12028503417969 15.469898223876953 1.9113472700119019
33.1272087097168 15.226398468017578 1.9116724729537964
33.16607666015625 14.998625755310059 1.9102561473846436
33.12947082519531 14.73806095123291 1.9126795530319214
33.12295150756836 14.492525100708008 1.9134591817855835
33.14586639404297 14.261046409606934 1.9126299619674683
33.15338897705078 14.023994445800781 1.9125210046768188
33.1832389831543 13.797356605529785 1.9111740589141846
33.19953155517578 13.56596851348877 1.9104524850845337
33.238346099853516 13.344574928283691 1.908486008644104
33.105648040771484 13.056157112121582 1.9153414964675903
33.14298629760742 12.8366060256958 1.9132981300354004
33.57099151611328 12.766193389892578 1.8908990621566772
33.69523620605469 12.577489852905273 1.8841872215270996
33.70213317871094 12.34514331817627 1.8834902048110962
33.74034881591797 12.125006675720215 1.8810912370681763
33.75263977050781 11.896232604980469 1.8799631595611572
33.762451171875 11.667438507080078 1.8788878917694092
33.76316452026367 11.436405181884766 1.8782110214233398
33.7698974609375 11.208320617675781 1.8771464824676514
33.79220199584961 10.986141204833984 1.8751986026763916
33.796875 10.758959770202637 1.874094009399414
33.81242752075195 10.535993576049805 1.872348427772522
33.81219482421875 10.308874130249023 1.871353268623352
33.81427764892578 10.083294868469238 1.8701640367507935
33.82636642456055 9.861430168151855 1.8683810234069824
33.83989715576172 9.640617370605469 1.8664501905441284
33.85006332397461 9.419473648071289 1.8646228313446045
33.870361328125 9.20170783996582 1.86219322681427
33.86030197143555 8.976370811462402 1.8612803220748901
33.86711883544922 8.756251335144043 1.8594130277633667
33.88801956176758 8.540289878845215 1.856736183166504
33.89492416381836 8.321305274963379 1.8547216653823853
33.91694259643555 8.106502532958984 1.8518421649932861
33.91035461425781 7.885408878326416 1.850394368171692
33.915000915527344 7.667562961578369 1.8482863903045654
33.926055908203125 7.451669216156006 1.8457703590393066
33.93769454956055 7.236344337463379 1.8431528806686401
33.95383834838867 7.022369384765625 1.8402258157730103
33.952964782714844 6.805327415466309 1.8381277322769165
33.96149444580078 6.5906524658203125 1.8354624509811401
33.960811614990234 6.3746538162231445 1.8332152366638184
33.98234176635742 6.163186550140381 1.829719066619873
33.99272155761719 5.949972629547119 1.8267438411712646
34.00373458862305 5.737194061279297 1.823664903640747
34.02031326293945 5.525623321533203 1.8202180862426758
34.02768325805664 5.312832355499268 1.8171906471252441
34.02384948730469 5.098677635192871 1.8146917819976807
34.02756881713867 4.886044979095459 1.811720371246338
34.044795989990234 4.675596714019775 1.8079545497894287
34.067657470703125 4.466026782989502 1.8038148880004883
34.06742477416992 4.2536301612854 1.8008430004119873
34.08372116088867 4.043519973754883 1.796911597251892
33.5162239074707 3.767892360687256 1.8244174718856812
33.520606994628906 3.560333251953125 1.8210389614105225
33.574371337890625 3.3579282760620117 1.8149174451828003
33.63387680053711 3.155648708343506 1.808404803276062
33.651371002197266 2.949190616607666 1.804094910621643
33.66262435913086 2.742229700088501 1.8000519275665283
33.675594329833984 2.5354654788970947 1.7958439588546753
33.68629455566406 2.3285744190216064 1.7916874885559082
33.67878341674805 2.120579957962036 1.7884562015533447
33.655033111572266 1.9119147062301636 1.7860486507415771
33.661903381347656 1.7052353620529175 1.7818915843963623
13.17785358428955 0.5867875218391418 2.9070959091186523
12.36296272277832 0.4745635390281677 2.9505715370178223
19.300350189208984 0.6221063137054443 2.5650956630706787
12.76394271850586 0.33319276571273804 2.925370216369629
12.508108139038086 0.24975723028182983 2.9380264282226562
33.758331298828125 0.4662731885910034 1.7523531913757324
12.46812629699707 0.09596964716911316 2.937107801437378
12.55426025390625 0.01961924135684967 2.9306750297546387
12.63293170928955 -0.057752590626478195 2.9246115684509277
12.718111991882324 -0.13616438210010529 2.9181339740753174
12.746896743774414 -0.21468058228492737 2.914785146713257
33.8090705871582 -0.7775277495384216 1.7226520776748657
33.81739044189453 -0.9853060841560364 1.717443585395813
33.817447662353516 -1.1929707527160645 1.7126274108886719
12.473091125488281 -0.5163910388946533 2.9231772422790527
12.584283828735352 -0.5983482003211975 2.9149985313415527
13.176453590393066 -0.7075605392456055 2.879227638244629
12.846888542175293 -0.7689170837402344 2.896148681640625
11.856611251831055 -0.7826398015022278 2.9511616230010986
12.257771492004395 -0.8846888542175293 2.9261667728424072
12.639192581176758 -0.9902060031890869 2.9021596908569336
12.384095191955566 -1.0466892719268799 2.9149322509765625
12.389283180236816 -1.1237164735794067 2.912614345550537
12.729848861694336 -1.2333989143371582 2.8906972408294678
33.90557861328125 -3.4958608150482178 1.6494663953781128
13.314964294433594 -1.455217719078064 2.852064847946167
33.95284652709961 -3.9223127365112305 1.6350808143615723
12.490256309509277 -1.5203601121902466 2.8961284160614014
33.963050842285156 -4.346399307250977 1.6225285530090332
33.96022415161133 -4.557967185974121 1.6165945529937744
33.96596908569336 -4.771053791046143 1.6100682020187378
33.992103576660156 -4.98757266998291 1.602236270904541
33.99612808227539 -5.201421737670898 1.5956345796585083
33.99781799316406 -5.4153523445129395 1.5890841484069824
34.01096725463867 -5.63162088394165 1.5817557573318481
33.99912643432617 -5.844196796417236 1.5758469104766846
29.27376365661621 -5.216996192932129 1.8560446500778198
34.03624725341797 -6.2815022468566895 1.5600725412368774
34.060543060302734 -6.502329349517822 1.5516886711120605
34.031494140625 -6.7134528160095215 1.5464746952056885
33.95712661743164 -6.915501594543457 1.5439696311950684
33.91086959838867 -7.123048305511475 1.5396676063537598
33.93650436401367 -7.346128940582275 1.5308371782302856
33.97626876831055 -7.573267459869385 1.521023154258728
33.989219665527344 -7.795369625091553 1.5127687454223633
34.039581298828125 -8.027080535888672 1.5020703077316284
34.0689697265625 -8.255002975463867 1.4925694465637207
34.064876556396484 -8.475634574890137 1.485068440437317
34.08449935913086 -8.702949523925781 1.4759677648544312
34.09005355834961 -8.927536964416504 1.4676514863967896
34.14715576171875 -9.166754722595215 1.4559434652328491
34.13908004760742 -9.389538764953613 1.4482775926589966
34.10938262939453 -9.606888771057129 1.4419002532958984
34.101314544677734 -9.830863952636719 1.4340366125106812
34.13006591796875 -10.066396713256836 1.4236855506896973
34.12089920043945 -10.29170036315918 1.41567862033844
34.13409423828125 -10.524622917175293 1.4061073064804077
34.13904571533203 -10.755996704101562 1.3969589471817017
34.18233871459961 -11.000670433044434 1.3851741552352905
34.15374755859375 -11.223222732543945 1.3780014514923096
34.11992263793945 -11.444570541381836 1.37107515335083
34.18097686767578 -11.698891639709473 1.35773503780365
34.162925720214844 -11.927414894104004 1.3495334386825562
34.16121292114258 -12.162520408630371 1.3401252031326294
34.157901763916016 -12.398053169250488 1.3307054042816162
34.280277252197266 -12.681095123291016 1.3126575946807861
34.30239486694336 -12.929145812988281 1.3012312650680542
34.33020782470703 -13.180806159973145 1.2892776727676392
34.336700439453125 -13.425662994384766 1.2786431312561035
34.33961868286133 -13.670356750488281 1.268121361732483
34.36672592163086 -13.926085472106934 1.2557945251464844
34.359683990478516 -14.169347763061523 1.2456904649734497
34.36750793457031 -14.41999626159668 1.234419345855713
34.36345291137695 -14.666966438293457 1.2238394021987915
34.37961959838867 -14.923964500427246 1.211700677871704
29.548126220703125 -13.04267692565918 1.542462706565857
34.430023193359375 -15.450824737548828 1.1856834888458252
34.41326904296875 -15.697755813598633 1.1754322052001953
34.42374038696289 -15.95849323272705 1.1630913019180298
34.443138122558594 -16.225053787231445 1.1499524116516113
34.464149475097656 -16.49417495727539 1.136530876159668
34.46070861816406 -16.753257751464844 1.1247221231460571
34.47775650024414 -17.023963928222656 1.1112626791000366
34.48384475708008 -17.291034698486328 1.0984371900558472
34.4088134765625 -17.518529891967773 1.0914421081542969
34.369510650634766 -17.764995574951172 1.081685185432434
34.43627166748047 -18.06820297241211 1.0638803243637085
34.41428756713867 -18.326932907104492 1.052512288093567
34.4395751953125 -18.612638473510742 1.0374280214309692
30.842422485351562 -16.91395378112793 1.2966166734695435
30.804920196533203 -17.140174865722656 1.2873506546020508
34.56550979614258 -19.511493682861328 0.9871753454208374
34.58163833618164 -19.801483154296875 0.9719878435134888
34.54286193847656 -20.061838150024414 0.9608496427536011
34.5838623046875 -20.370569229125977 0.9433507919311523
34.574398040771484 -20.65190315246582 0.929572343826294
34.5943489074707 -20.953014373779297 0.9132955074310303
34.536231994628906 -21.20867156982422 0.9029757976531982
34.529632568359375 -21.497631072998047 0.8884101510047913
34.60093307495117 -21.8378963470459 0.8674193620681763
34.56261444091797 -22.111555099487305 0.8549683690071106
34.59505844116211 -22.432790756225586 0.8366202712059021
34.63819122314453 -22.764022827148438 0.8171570301055908
34.572269439697266 -23.025833129882812 0.8063536882400513
34.74507141113281 -23.450111389160156 0.775753915309906
34.728660583496094 -23.75065040588379 0.7604130506515503
34.747581481933594 -24.07801055908203 0.7419168949127197
34.753173828125 -24.399036407470703 0.724281907081604
34.813838958740234 -24.762094497680664 0.701761782169342
34.82035827636719 -25.09006690979004 0.6835218667984009
34.800785064697266 -25.40199089050293 0.6672493815422058
34.82119369506836 -25.746051788330078 0.6473129391670227
34.85066604614258 -26.100290298461914 0.6263123750686646
34.867549896240234 -26.448619842529297 0.6061084866523743
34.85060501098633 -26.774429321289062 0.5885713696479797
34.88056945800781 -27.13962173461914 0.5666523575782776
34.89638137817383 -27.497539520263672 0.5456709861755371
34.896629333496094 -27.846717834472656 0.525769829750061
34.777503967285156 -28.102874755859375 0.5162760019302368
34.80710220336914 -28.481815338134766 0.4932059943675995
34.88633728027344 -28.90608787536621 0.46528783440589905
34.90052795410156 -29.281103134155273 0.44291025400161743
34.923583984375 -29.66771125793457 0.41938215494155884
34.94319534301758 -30.055700302124023 0.39582011103630066
34.901424407958984 -30.394596099853516 0.3776296079158783
34.89346694946289 -30.76643180847168 0.3559775948524475
34.9566535949707 -31.205745697021484 0.3272606134414673
34.77301788330078 -31.427600860595703 0.3216164708137512
34.96476364135742 -31.993148803710938 0.2798531651496887
34.95328140258789 -32.37919616699219 0.2570933699607849
35.082420349121094 -32.901405334472656 0.2202904373407364
34.96484375 -33.197017669677734 0.2070980817079544
32.31864929199219 30.83702278137207 1.4915845394134521
32.387725830078125 30.52584457397461 1.4954725503921509
32.32627487182617 30.095876693725586 1.5077760219573975
32.457820892333984 29.849018096923828 1.5072076320648193
32.50178909301758 29.523773193359375 1.512223720550537
32.477569580078125 29.140409469604492 1.521503210067749
32.408775329589844 28.722028732299805 1.5334722995758057
32.55778503417969 28.499670028686523 1.5311617851257324
32.55946350097656 28.15047836303711 1.5382169485092163
32.59834671020508 27.83672332763672 1.5427088737487793
32.57735061645508 27.475257873535156 1.550870656967163
32.605342864990234 27.1585693359375 1.5557301044464111
32.616798400878906 26.83115005493164 1.5614838600158691
32.63090133666992 26.509029388427734 1.5669080018997192
32.64851379394531 26.192745208740234 1.5719531774520874
32.66191864013672 25.876005172729492 1.5771105289459229
32.665592193603516 25.554550170898438 1.5827267169952393
32.702919006347656 25.262113571166992 1.586082100868225
32.70294952392578 24.943527221679688 1.5916271209716797
32.72903060913086 24.64752769470215 1.5953999757766724
32.736690521240234 24.34023094177246 1.6001790761947632
32.746646881103516 24.03731346130371 1.6046733856201172
32.555179595947266 23.59102439880371 1.6214767694473267
32.572303771972656 23.30023765563965 1.6252225637435913
32.6809196472168 23.07638168334961 1.6232075691223145
32.62086868286133 22.735570907592773 1.6314400434494019
32.71503448486328 22.504484176635742 1.6300781965255737
32.709266662597656 22.206336975097656 1.6347167491912842
32.73012161254883 21.92856788635254 1.6376007795333862
32.70298385620117 21.621084213256836 1.6432826519012451
32.728515625 21.35077667236328 1.6456327438354492
32.77128982543945 21.093400955200195 1.646820306777954
32.778411865234375 20.814891815185547 1.6500511169433594
32.770660400390625 20.529138565063477 1.6540619134902954
32.743656158447266 20.233760833740234 1.659112572669983
32.69294738769531 19.926498413085938 1.6654671430587769
32.60633087158203 19.600555419921875 1.6738537549972534
32.80474090576172 19.447031021118164 1.665006399154663
32.85160827636719 19.203611373901367 1.6651618480682373
32.87596130371094 18.948375701904297 1.6665611267089844
32.874114990234375 18.67975425720215 1.6694201231002808
32.80574035644531 18.375751495361328 1.6761380434036255
32.870391845703125 18.148109436035156 1.6748106479644775
32.97295379638672 17.941844940185547 1.6711305379867554
33.0152587890625 17.703386306762695 1.6709413528442383
33.017921447753906 17.44502067565918 1.6730077266693115
33.04788589477539 17.20250701904297 1.6733506917953491
33.0485725402832 16.946155548095703 1.6753307580947876
33.0651969909668 16.69944953918457 1.676265835762024
33.077354431152344 16.451839447021484 1.6773669719696045
33.08772277832031 16.204713821411133 1.6784754991531372
33.08641815185547 15.9533052444458 1.6801767349243164
33.10582733154297 15.713227272033691 1.6805585622787476
33.116302490234375 15.470131874084473 1.6813715696334839
33.124141693115234 15.227081298828125 1.6822466850280762
33.162086486816406 14.998919486999512 1.681254506111145
33.12002182006836 14.735955238342285 1.6848790645599365
33.13910675048828 14.501694679260254 1.6848124265670776
33.14189529418945 14.261439323425293 1.6856129169464111
33.142066955566406 14.021305084228516 1.686476230621338
33.1718864440918 13.7947416305542 1.6855077743530273
33.19186019897461 13.56494140625 1.6850285530090332
33.23435592651367 13.345087051391602 1.6831398010253906
33.093345642089844 13.053407669067383 1.691929578781128
33.133445739746094 12.835018157958984 1.6900060176849365
33.552886962890625 12.761454582214355 1.6657476425170898
33.682674407958984 12.574957847595215 1.6583956480026245
33.71392822265625 12.351624488830566 1.6567357778549194
33.73807144165039 12.126352310180664 1.6554062366485596
33.75318908691406 11.898591995239258 1.6545201539993286
33.75640106201172 11.66751480102539 1.6542465686798096
33.749542236328125 11.433961868286133 1.6544779539108276
33.76478576660156 11.208795547485352 1.6533293724060059
33.780433654785156 10.984489440917969 1.6520729064941406
33.80030822753906 10.762228012084961 1.6504851579666138
33.80443572998047 10.535680770874023 1.6497372388839722
33.80037307739258 10.307446479797363 1.6493867635726929
33.8053092956543 10.082799911499023 1.6484260559082031
33.815467834472656 9.860433578491211 1.6470768451690674
33.8289794921875 9.639689445495605 1.645448923110962
33.84009552001953 9.418883323669434 1.6438801288604736
33.85651779174805 9.20013427734375 1.641917109489441
33.8580207824707 8.977954864501953 1.6407502889633179
33.86967468261719 8.759100914001465 1.6389060020446777
33.887664794921875 8.542393684387207 1.6366078853607178
33.900390625 8.324841499328613 1.634537935256958
33.899105072021484 8.104435920715332 1.6332149505615234
33.90708541870117 7.886845588684082 1.6312659978866577
33.9068603515625 7.667920112609863 1.629722237586975
33.91984939575195 7.452507019042969 1.627317190170288
33.93538284301758 7.238054275512695 1.624683141708374
33.95249557495117 7.02429723739624 1.6218737363815308
33.9623908996582 6.809423923492432 1.61941397190094
33.96112060546875 6.5927886962890625 1.6175364255905151
33.96240234375 6.377161979675293 1.6154296398162842
33.980979919433594 6.165151596069336 1.6122156381607056
33.99528884887695 5.952635765075684 1.6091760396957397
33.99940490722656 5.7386794090271 1.6066638231277466
34.01597213745117 5.527137279510498 1.603330135345459
34.01742172241211 5.313448905944824 1.600819706916809
34.01456069946289 5.09950590133667 1.5984896421432495
34.027156829833984 4.888209342956543 1.5951564311981201
34.047340393066406 4.678171157836914 1.5912877321243286
34.06227111816406 4.4675493240356445 1.5876542329788208
34.06797409057617 4.2559285163879395 1.5844954252243042
34.0733528137207 4.044522285461426 1.5812773704528809
33.51795959472656 3.7702701091766357 1.6118043661117554
33.51736831665039 3.562173843383789 1.6088389158248901
33.57607650756836 3.3602893352508545 1.6022099256515503
33.62958526611328 3.1574435234069824 1.5958073139190674
33.65203857421875 2.951449394226074 1.5912028551101685
33.667259216308594 2.7448103427886963 1.5869555473327637
33.67723083496094 2.5377936363220215 1.5829473733901978
33.68095016479492 2.3304121494293213 1.5792412757873535
33.679405212402344 2.1228280067443848 1.5757777690887451
33.66163635253906 1.9144980907440186 1.5732297897338867
33.671485900878906 1.707931399345398 1.568913221359253
13.035459518432617 0.5808039903640747 2.8327763080596924
13.011747360229492 0.49979832768440247 2.8327372074127197
13.01247501373291 0.41991037130355835 2.8311665058135986
33.730133056640625 0.8820741176605225 1.5496504306793213
33.7456169128418 0.6753772497177124 1.54457688331604
12.82109546661377 0.17766666412353516 2.8382749557495117
12.744997024536133 0.09842269867658615 2.8413801193237305
33.75651550292969 0.05432218313217163 1.531067967414856
12.660213470458984 -0.057553865015506744 2.843350410461426
12.664514541625977 -0.1352635771036148 2.841386079788208
33.7909049987793 -0.5675058960914612 1.515350341796875
12.777445793151855 -0.2932705581188202 2.8308074474334717
33.81477737426758 -0.9829844236373901 1.5043878555297852
33.820804595947266 -1.1908411979675293 1.4991501569747925
33.82355499267578 -1.3987281322479248 1.494035005569458
12.575601577758789 -0.5976141691207886 2.8362009525299072
13.004105567932129 -0.6979401707649231 2.80706787109375
12.848053932189941 -0.7686401009559631 2.8150129318237305
12.885815620422363 -0.8502593636512756 2.810596227645874
33.86689376831055 -2.442725658416748 1.4652875661849976
12.540912628173828 -0.9821827411651611 2.82861328125
33.90641403198242 -2.8641397953033447 1.4517425298690796
33.903831481933594 -3.0735080242156982 1.4462716579437256
12.762775421142578 -1.2362477779388428 2.8080062866210938
33.91859817504883 -3.4949238300323486 1.4337738752365112
13.376373291015625 -1.4615315198898315 2.7636942863464355
13.798274040222168 -1.5933361053466797 2.7338197231292725
33.93882369995117 -4.1295485496521 1.414462685585022
33.93830490112305 -4.340940952301025 1.4083164930343628
33.96712112426758 -4.5565972328186035 1.4001485109329224
33.970855712890625 -4.769442081451416 1.393532156944275
33.97917556762695 -4.98337459564209 1.3865176439285278
33.98713684082031 -5.19774055480957 1.3794294595718384
33.99374008178711 -5.412393569946289 1.3723336458206177
34.011783599853516 -5.6294426918029785 1.364376187324524
34.00483703613281 -5.842862606048584 1.357987403869629
29.248807907104492 -5.210671901702881 1.6702759265899658
34.036964416503906 -6.279311656951904 1.341827154159546
34.0484733581543 -6.49769926071167 1.3338961601257324
34.022361755371094 -6.709323883056641 1.3284099102020264
33.962669372558594 -6.914305686950684 1.3251162767410278
33.93103790283203 -7.124960899353027 1.3198333978652954
33.93125534057617 -7.34266471862793 1.3122836351394653
33.95052719116211 -7.565196990966797 1.3033220767974854
33.99556350708008 -7.7944865226745605 1.2924723625183105
34.039066314697266 -8.024613380432129 1.2816033363342285
34.07326126098633 -8.253690719604492 1.2712515592575073
34.06041717529297 -8.47217082977295 1.2640496492385864
34.08290100097656 -8.70018196105957 1.2542775869369507
34.11448669433594 -8.93156909942627 1.2437466382980347
34.11174392700195 -9.154878616333008 1.235501766204834
34.12582015991211 -9.383519172668457 1.2259589433670044
34.11436462402344 -9.605916023254395 1.2181034088134766
34.12350845336914 -9.834882736206055 1.2086753845214844
34.12825012207031 -10.063477516174316 1.1994383335113525
34.12955856323242 -10.291924476623535 1.190328598022461
34.174156188964844 -10.534581184387207 1.177986741065979
34.16851806640625 -10.762886047363281 1.1691254377365112
34.15946578979492 -10.9909086227417 1.1603906154632568
34.15363311767578 -11.220783233642578 1.151303768157959
34.140586853027344 -11.449097633361816 1.142621397972107
34.165672302246094 -11.691240310668945 1.1310280561447144
34.17021942138672 -11.927546501159668 1.120802402496338
34.17033004760742 -12.163346290588379 1.1107717752456665
34.13413619995117 -12.387006759643555 1.1033012866973877
34.29201889038086 -12.683002471923828 1.0812751054763794
34.311256408691406 -12.93004322052002 1.0693793296813965
34.32223129272461 -13.175293922424316 1.0579558610916138
34.32869338989258 -13.42007827758789 1.0467263460159302
34.327877044677734 -13.663223266601562 1.0359036922454834
34.3521728515625 -13.91772747039795 1.0230300426483154
34.34696960449219 -14.161636352539062 1.0122488737106323
34.366737365722656 -14.417197227478027 0.9994102120399475
34.36079788208008 -14.66335391998291 0.9883897304534912
34.38423538208008 -14.923483848571777 0.9749510288238525
29.522619247436523 -13.029409408569336 1.340732455253601
34.41810607910156 -15.442981719970703 0.9485816955566406
34.42130661010742 -15.698921203613281 0.9362218976020813
34.433502197265625 -15.960515022277832 0.9229913949966431
34.435665130615234 -16.219024658203125 0.9103855490684509
34.4521369934082 -16.485912322998047 0.8964765667915344
34.46572494506836 -16.753175735473633 0.8826189637184143
34.488059997558594 -17.02652359008789 0.8678823113441467
34.476226806640625 -17.284683227539062 0.8557097911834717
34.41007614135742 -17.516643524169922 0.8477702736854553
34.35123825073242 -17.753021240234375 0.8391105532646179
34.44093704223633 -18.06810760498047 0.8181763887405396
34.40567398071289 -18.31980323791504 0.8072534203529358
34.41161346435547 -18.594980239868164 0.7927737236022949
34.40235137939453 -18.863725662231445 0.779363214969635
30.809833526611328 -17.140716552734375 1.0645501613616943
34.567996978759766 -19.51031494140625 0.7365564703941345
34.58577346801758 -19.801265716552734 0.7202327251434326
34.540035247802734 -20.05760955810547 0.7090706825256348
34.580963134765625 -20.366268157958984 0.6903681755065918
34.616825103759766 -20.67464256286621 0.6718554496765137
34.606685638427734 -20.95787811279297 0.6570569276809692
34.562923431396484 -21.22245979309082 0.6449598073959351
34.56123733520508 -21.514699935913086 0.6290277242660522
34.60195541381836 -21.835922241210938 0.6091691255569458
34.54173278808594 -22.095579147338867 0.5979170799255371
34.62354278564453 -22.448633193969727 0.5739426612854004
34.623138427734375 -22.751493453979492 0.5569605827331543
34.57548141479492 -23.025344848632812 0.5439634323120117
34.68861389160156 -23.40935516357422 0.5163232684135437
34.7431640625 -23.757905960083008 0.4936163127422333
34.74226760864258 -24.0716552734375 0.47564050555229187
34.75433349609375 -24.397174835205078 0.4562242925167084
34.81082534790039 -24.75726318359375 0.4324484169483185
34.79866409301758 -25.071746826171875 0.4146958291530609
34.81052780151367 -25.406408309936523 0.39445048570632935
34.83882522583008 -25.756383895874023 0.37237635254859924
34.83539581298828 -26.086143493652344 0.3529770076274872
34.84987258911133 -26.4324951171875 0.3315972089767456
34.85349655151367 -26.773929595947266 0.3109426200389862
34.82353210449219 -27.09252166748047 0.29320693016052246
34.84892272949219 -27.457414627075195 0.2698594033718109
34.822811126708984 -27.78508186340332 0.25117334723472595
34.75132369995117 -28.078990936279297 0.23663818836212158
34.738502502441406 -28.422950744628906 0.21610009670257568
34.90626525878906 -28.91983985900879 0.1773681342601776
34.92865753173828 -29.30194091796875 0.1525706797838211
34.90966796875 -29.653121948242188 0.13155271112918854
34.89976501464844 -30.01557159423828 0.10929084569215775
30.327375411987305 -28.79161834716797 0.3975718915462494
32.3377571105957 30.856754302978516 1.2244230508804321
32.38007736206055 30.52014923095703 1.2312747240066528
32.31279754638672 30.0848445892334 1.246020793914795
32.44792938232422 29.841463088989258 1.245604157447815
32.49482345581055 29.518997192382812 1.2515132427215576
32.4438591003418 29.11172103881836 1.2643767595291138
32.40034484863281 28.716121673583984 1.2764577865600586
32.5447883605957 28.48987579345703 1.2746816873550415
32.568336486816406 28.159748077392578 1.2815077304840088
32.57160568237305 27.81549072265625 1.2896045446395874
32.57341384887695 27.473543167114258 1.2976088523864746
32.584529876708984 27.14284896850586 1.3047542572021484
32.60979080200195 26.82701301574707 1.3107061386108398
32.640933990478516 26.518817901611328 1.3160649538040161
32.63993453979492 26.1875057220459 1.323528528213501
32.64862823486328 25.867128372192383 1.3301256895065308
32.671146392822266 25.5605525970459 1.3355767726898193
32.67532730102539 25.242467880249023 1.342147946357727
32.70146179199219 24.944068908691406 1.3470150232315063
32.7020378112793 24.628881454467773 1.353503942489624
32.72802734375 24.335477828979492 1.358059048652649
32.745216369628906 24.037960052490234 1.3630716800689697
32.532012939453125 23.5759220123291 1.3838614225387573
32.59210205078125 23.316089630126953 1.385566234588623
32.68122100830078 23.078298568725586 1.3851383924484253
32.687564849853516 22.783767700195312 1.3902695178985596
32.71538543701172 22.506437301635742 1.3937807083129883
32.6691780090332 22.18083381652832 1.4022090435028076
32.7238883972168 21.926116943359375 1.4035981893539429
32.70842361450195 21.626407623291016 1.4096320867538452
32.732322692871094 21.354991912841797 1.412847638130188
32.76252746582031 21.08950424194336 1.415502905845642
32.78986740112305 20.82391357421875 1.418222427368164
32.79911422729492 20.548709869384766 1.4220322370529175
18.424867630004883 11.385966300964355 2.393683671951294
18.434541702270508 11.236358642578125 2.3953750133514404
18.38745880126953 11.053625106811523 2.4007999897003174
18.366313934326172 10.888185501098633 2.404405355453491
32.8453483581543 19.201723098754883 1.4391316175460815
32.93370056152344 18.983434677124023 1.4368966817855835
32.89302062988281 18.692277908325195 1.443148136138916
32.80908203125 18.3794002532959 1.4521443843841553
32.86674880981445 18.147886276245117 1.451601266860962
32.96928787231445 17.941646575927734 1.447974443435669
33.0036735534668 17.698970794677734 1.4487602710723877
33.00631332397461 17.440690994262695 1.4515329599380493
33.01499557495117 17.18719482421875 1.4537912607192993
33.04669189453125 16.947002410888672 1.4544174671173096
33.05708312988281 16.697166442871094 1.45633864402771
33.06565856933594 16.44784164428711 1.4582690000534058
33.0688362121582 16.197280883789062 1.4604427814483643
33.08727264404297 15.955541610717773 1.4615050554275513
33.09226608276367 15.708617210388184 1.4633421897888184
33.109046936035156 15.468571662902832 1.4642995595932007
33.116878509521484 15.225576400756836 1.4657381772994995
33.153900146484375 14.997054100036621 1.4651622772216797
33.12370300292969 14.739428520202637 1.468877911567688
33.133663177490234 14.501150131225586 1.4698636531829834
33.11902618408203 14.253437995910645 1.472353219985962
33.15040588378906 14.026679039001465 1.4717376232147217
33.16182327270508 13.792403221130371 1.4723247289657593
33.193790435791016 13.56757926940918 1.4714735746383667
33.210350036621094 13.337301254272461 1.4715272188186646
33.08420944213867 13.051647186279297 1.4807703495025635
33.125213623046875 12.83367919921875 1.4790353775024414
33.53516387939453 12.756598472595215 1.4532175064086914
33.674224853515625 12.573700904846191 1.44492769241333
33.707332611083984 12.351110458374023 1.4434317350387573
33.729583740234375 12.125207901000977 1.4425448179244995
33.740928649902344 11.896177291870117 1.4422709941864014
33.756385803222656 11.669419288635254 1.4416348934173584
33.751434326171875 11.436511039733887 1.4422303438186646
33.754364013671875 11.20724868774414 1.4422187805175781
33.77284622192383 10.983935356140137 1.4411042928695679
33.78129577636719 10.75809097290039 1.440548062324524
33.795875549316406 10.534931182861328 1.439501166343689
33.798484802246094 10.308793067932129 1.4391393661499023
33.78525161743164 10.07873821258545 1.439714789390564
33.80879592895508 9.860411643981934 1.437809944152832
33.826133728027344 9.640807151794434 1.436218023300171
33.83051300048828 9.418146133422852 1.4353770017623901
33.84788513183594 9.199721336364746 1.4336012601852417
33.850341796875 8.977851867675781 1.4327045679092407
33.86488342285156 8.759798049926758 1.4309333562850952
33.8751220703125 8.541170120239258 1.4293525218963623
33.884925842285156 8.322982788085938 1.4277106523513794
33.899147033691406 8.106389045715332 1.4256929159164429
33.90518569946289 7.888348579406738 1.424119234085083
33.90690612792969 7.669875621795654 1.4227385520935059
33.917945861816406 7.454035758972168 1.4206624031066895
33.935420989990234 7.2400126457214355 1.4180777072906494
33.9447135925293 7.024639129638672 1.415940761566162
33.94969940185547 6.80883264541626 1.4139962196350098
33.95527648925781 6.59360933303833 1.4119259119033813
33.95655059814453 6.378019332885742 1.4100514650344849
33.97511672973633 6.166046619415283 1.4069561958312988
33.99039077758789 5.953741073608398 1.4039890766143799
33.99646759033203 5.740148067474365 1.401538372039795
34.009090423583984 5.527984619140625 1.3985707759857178
34.00362014770508 5.313260555267334 1.3967050313949585
34.007659912109375 5.100438594818115 1.394128680229187
34.02715301513672 4.890179634094238 1.3904469013214111
34.04534912109375 4.679872035980225 1.386762261390686
34.0543327331543 4.468484401702881 1.383597731590271
34.05704879760742 4.256541728973389 1.380760669708252
34.062416076660156 4.04520320892334 1.3776624202728271
33.51911926269531 3.7723374366760254 1.4108608961105347
33.50761413574219 3.56307315826416 1.4087568521499634
33.570255279541016 3.361649513244629 1.401639699935913
33.624725341796875 3.1589362621307373 1.394970178604126
33.64517593383789 2.952799081802368 1.3904746770858765
33.661373138427734 2.7462847232818604 1.3861738443374634
33.67033004760742 2.5392305850982666 1.3822686672210693
33.68001174926758 2.332306385040283 1.378228783607483
33.6605339050293 2.1235969066619873 1.3760560750961304
33.660682678222656 1.9164044857025146 1.3724836111068726
33.66254806518555 1.7094401121139526 1.3687103986740112
33.669124603271484 1.5027904510498047 1.3645325899124146
33.66545104980469 1.2957768440246582 1.3609588146209717
19.2639217376709 0.6226224303245544 2.3309295177459717
12.997736930847168 0.33989521861076355 2.753126859664917
33.7306022644043 0.677051842212677 1.3445552587509155
12.4171142578125 0.17226339876651764 2.7894163131713867
33.74375915527344 0.26327067613601685 1.3352183103561401
33.74644088745117 0.05628727003931999 1.3306819200515747
12.729135513305664 -0.05762871727347374 2.763275623321533
33.77592468261719 -0.35804101824760437 1.3196884393692017
33.7747917175293 -0.5652466416358948 1.315142035484314
12.818349838256836 -0.293962687253952 2.7519102096557617
33.80460739135742 -0.9806942939758301 1.3035701513290405
33.80961608886719 -1.188450813293457 1.2983256578445435
33.812355041503906 -1.396266222000122 1.2931466102600098
33.734100341796875 -1.600382924079895 1.293494701385498
12.856547355651855 -0.6897741556167603 2.7397947311401367
12.899761199951172 -0.7714763283729553 2.734781503677368
12.857842445373535 -0.8481622338294983 2.7356648445129395
12.82840633392334 -0.9252952933311462 2.735652446746826
12.519046783447266 -0.9802459478378296 2.755253791809082
33.87519836425781 -2.8594863414764404 1.251215934753418
12.80191421508789 -1.1605603694915771 2.7311010360717773
12.70508098602295 -1.2304192781448364 2.7357370853424072
12.808317184448242 -1.3197687864303589 2.726196765899658
13.983869552612305 -1.5275379419326782 2.640422821044922
12.29249382019043 -1.4192969799041748 2.758326292037964
33.94124984741211 -4.127809047698975 1.2105860710144043
12.656850814819336 -1.618929147720337 2.7276904582977295
12.6396484375 -1.6956069469451904 2.7265236377716064
12.624942779541016 -1.77255117893219 2.7251458168029785
12.601875305175781 -1.8482224941253662 2.724339723587036
12.59117317199707 -1.925637125968933 2.7226102352142334
12.52581787109375 -1.9943701028823853 2.7248120307922363
12.487648010253906 -2.066932439804077 2.7250242233276367
34.008975982666016 -5.841516017913818 1.1520881652832031
29.235151290893555 -5.20658540725708 1.4942511320114136
34.02925109863281 -6.275824069976807 1.1361452341079712
34.03779983520508 -6.493594646453857 1.1281242370605469
34.016571044921875 -6.706113815307617 1.1221890449523926
33.94221878051758 -6.908078670501709 1.1200883388519287
33.90864181518555 -7.118194580078125 1.1148821115493774
33.933223724365234 -7.34102201461792 1.1052464246749878
33.94953155517578 -7.562903881072998 1.0961074829101562
33.977996826171875 -7.788381576538086 1.0859345197677612
34.04865646362305 -8.024787902832031 1.0724612474441528
34.064369201660156 -8.249446868896484 1.0629836320877075
34.05634689331055 -8.469067573547363 1.0551784038543701
34.101016998291016 -8.702709197998047 1.0432568788528442
34.11226272583008 -8.928886413574219 1.0337411165237427
34.10948944091797 -9.15217113494873 1.0251718759536743
34.10910415649414 -9.376816749572754 1.0162981748580933
34.11300277709961 -9.603423118591309 1.0069719552993774
34.13648223876953 -9.836506843566895 0.9960067868232727
34.13637924194336 -10.063756942749023 0.9867314100265503
34.12903594970703 -10.289648056030273 0.9778922200202942
34.16785430908203 -10.53051471710205 0.9653229117393494
34.15458297729492 -10.756370544433594 0.9566851258277893
34.14646911621094 -10.984598159790039 0.9475170373916626
34.14915466308594 -11.217179298400879 0.9373676180839539
34.16633605957031 -11.455594062805176 0.9259335994720459
34.17054748535156 -11.69076919555664 0.91538405418396
34.162803649902344 -11.922815322875977 0.9056492447853088
34.13939666748047 -12.150193214416504 0.8970356583595276
34.13136291503906 -12.383853912353516 0.8870577812194824
34.24799346923828 -12.66456127166748 0.8668702840805054
34.2794075012207 -12.915876388549805 0.8533754944801331
34.27364730834961 -13.1544771194458 0.8427401185035706
34.312679290771484 -13.411643981933594 0.8282977938652039
34.322044372558594 -13.658723831176758 0.8161141276359558
34.33797836303711 -13.90979290008545 0.803228497505188
34.346588134765625 -14.159293174743652 0.7907834649085999
34.376407623291016 -14.41906452178955 0.7764124870300293
34.34379959106445 -14.653909683227539 0.7670723795890808
34.35716247558594 -14.909537315368652 0.7537394165992737
29.504838943481445 -13.019798278808594 1.1498355865478516
34.427452087402344 -15.444963455200195 0.7228679656982422
34.41151428222656 -15.692243576049805 0.7114806175231934
34.41011047363281 -15.947456359863281 0.6986925005912781
34.4366340637207 -16.217262268066406 0.6833400130271912
34.42875671386719 -16.472501754760742 0.670751690864563
34.448631286621094 -16.742637634277344 0.6555918455123901
34.47362518310547 -17.01716423034668 0.6397897005081177
34.471588134765625 -17.280120849609375 0.6261424422264099
34.38943099975586 -17.50389862060547 0.6193326711654663
34.34389877319336 -17.746997833251953 0.6091747879981995
34.44765090942383 -18.069385528564453 0.5856546759605408
34.39560317993164 -18.31219482421875 0.5757030844688416
34.39537048339844 -18.583953857421875 0.5609682202339172
34.4131965637207 -18.867420196533203 0.5444119572639465
30.80375862121582 -17.135417938232422 0.8548439741134644
34.57423400878906 -19.511560440063477 0.49926745891571045
34.60662078857422 -19.81092071533203 0.4806565046310425
34.56507110595703 -20.069866180419922 0.4685700237751007
34.5594367980957 -20.351303100585938 0.4529978036880493
34.624393463134766 -20.67687225341797 0.43067845702171326
34.60137176513672 -20.95236587524414 0.4162502586841583
34.617042541503906 -21.253389358520508 0.3979983925819397
34.5854606628418 -21.527477264404297 0.38393735885620117
34.560237884521484 -21.807292938232422 0.36906784772872925
34.605934143066406 -22.134336471557617 0.3472467362880707
34.62800216674805 -22.44920539855957 0.32738950848579407
34.59834289550781 -22.73288345336914 0.3122248351573944
34.42462158203125 -22.92257308959961 0.3107411861419678
30.292821884155273 -20.441024780273438 0.6933570504188538
34.66902160644531 -23.704875946044922 0.24978618323802948
34.634769439697266 -23.994842529296875 0.23406432569026947
34.75163269042969 -24.392934799194336 0.2031891942024231
29.973167419433594 -21.314910888671875 0.6579028964042664
29.970863342285156 -21.591569900512695 0.6409091949462891
29.75694465637207 -21.71623992919922 0.6449214816093445
29.629192352294922 -21.903091430664062 0.6402256488800049
29.61276626586914 -22.17342185974121 0.6241114735603333
29.576658248901367 -22.43112564086914 0.6097679734230042
29.544029235839844 -22.693470001220703 0.5948435664176941
30.31100845336914 -28.774120330810547 0.14990448951721191
32.39028549194336 30.864965438842773 0.9710021018981934
