# .PCD v0.7 - Point Cloud Data file format
VERSION 0.7
FIELDS x y z
SIZE 4 4 4
TYPE F F F
COUNT 1 1 1
WIDTH 852
HEIGHT 1
VIEWPOINT 0 0 0 1 0 0 0
POINTS 852
DATA ascii
14.367300987243652 8.931703567504883 0.4009980261325836
14.002750396728516 8.58671760559082 0.4931489825248718
14.044672012329102 8.494583129882812 0.4936436116695404
14.08261775970459 8.400242805480957 0.4948861002922058
14.130093574523926 8.311729431152344 0.4938655197620392
14.177013397216797 8.222947120666504 0.49283888936042786
14.208028793334961 8.12512493133545 0.49519771337509155
14.280299186706543 8.050860404968262 0.48831498622894287
14.29725170135498 7.94548225402832 0.4934934377670288
14.717398643493652 8.061445236206055 0.41014042496681213
14.862942695617676 8.023279190063477 0.38712745904922485
15.108264923095703 8.036657333374023 0.34234920144081116
15.744391441345215 0.5592670440673828 0.4550812840461731
12.884743690490723 -0.6493250727653503 1.0066300630569458
12.852787971496582 -0.7267827987670898 1.0105392932891846
12.854596138000488 -0.8060221076011658 1.0074571371078491
16.040815353393555 -1.600321888923645 0.3329754173755646
15.996174812316895 -1.6950528621673584 0.3379000723361969
15.966552734375 -1.7910467386245728 0.33961907029151917
15.821572303771973 -1.873151421546936 0.36507338285446167
15.933780670166016 -1.9856536388397217 0.3372374176979065
15.784903526306152 -2.0655391216278076 0.363333523273468
16.024789810180664 -2.197035789489746 0.3086703419685364
15.788556098937988 -2.2634363174438477 0.3527325391769409
15.755546569824219 -2.35746693611145 0.35448870062828064
15.755849838256836 -2.4564619064331055 0.349185049533844
15.606648445129395 -2.531400203704834 0.3749866485595703
15.633864402770996 -2.6343882083892822 0.36383548378944397
16.075220108032227 -2.8103373050689697 0.2657061517238617
15.989574432373047 -2.9980850219726562 0.27179786562919617
16.00409507751465 -3.102612018585205 0.2625969350337982
16.06209945678711 -3.2162773609161377 0.24406176805496216
16.056015014648438 -3.3176944255828857 0.23889847099781036
16.046415328979492 -3.4185478687286377 0.23434233665466309
16.064870834350586 -3.5257081985473633 0.2236904799938202
16.068286895751953 -3.6299893856048584 0.21607977151870728
16.062440872192383 -3.732452869415283 0.21029454469680786
12.666149139404297 12.740975379943848 0.1552656590938568
12.67676830291748 12.596632957458496 0.17197753489017487
12.661581039428711 12.428570747375488 0.19535815715789795
12.656094551086426 12.272102355957031 0.21570353209972382
12.98875904083252 11.845952033996582 0.2171662151813507
13.048345565795898 11.754908561706543 0.2188085913658142
13.061841011047363 11.62312126159668 0.23229087889194489
13.080113410949707 11.496793746948242 0.24424795806407928
13.11660385131836 11.387408256530762 0.25123557448387146
13.144052505493164 11.270979881286621 0.2603265345096588
13.184800148010254 11.166691780090332 0.26578107476234436
13.191640853881836 11.034618377685547 0.27966025471687317
13.240493774414062 10.938511848449707 0.2826223075389862
13.277256965637207 10.832913398742676 0.2884554862976074
13.303291320800781 10.719266891479492 0.29677996039390564
13.336882591247559 10.61242961883545 0.3029945194721222
13.36966609954834 10.505581855773926 0.3092077076435089
13.407846450805664 10.40354061126709 0.3138827979564667
13.439048767089844 10.296651840209961 0.3200927972793579
13.472577095031738 10.192137718200684 0.32553282380104065
13.508475303649902 10.089944839477539 0.3302018344402313
13.548368453979492 9.991189956665039 0.3337136209011078
13.583593368530273 9.889435768127441 0.33818483352661133
13.623661041259766 9.791630744934082 0.3413054645061493
13.670241355895996 9.698814392089844 0.34268718957901
13.703338623046875 9.596787452697754 0.3471500277519226
13.733280181884766 9.493042945861816 0.3521899878978729
13.78682804107666 9.282794952392578 0.36323246359825134
13.842275619506836 9.197529792785645 0.36169761419296265
13.887349128723145 9.105474472045898 0.3624759018421173
13.899689674377441 8.992425918579102 0.3707955777645111
13.950037002563477 8.904376029968262 0.3700185716152191
13.978242874145508 8.802453994750977 0.3742714524269104
14.041557312011719 8.7227783203125 0.3701889216899872
14.029974937438965 8.597034454345703 0.38335496187210083
14.079512596130371 8.50931167602539 0.38217201828956604
14.125130653381348 8.419291496276855 0.38175874948501587
14.169327735900879 8.328532218933105 0.38153403997421265
14.209548950195312 8.235578536987305 0.38208118081092834
14.249163627624512 8.142441749572754 0.38262319564819336
14.340291023254395 7.9632568359375 0.3805796205997467
14.643129348754883 8.014561653137207 0.3211170434951782
15.746408462524414 0.5544639229774475 0.3543936610221863
12.863405227661133 -0.6523787975311279 0.9288949370384216
12.858813285827637 -0.7312545776367188 0.9272118210792542
12.868388175964355 -0.8110233545303345 0.922439455986023
16.19521713256836 -1.6207534074783325 0.1973292976617813
16.015243530273438 -1.7020577192306519 0.23119351267814636
15.822257041931152 -1.7797975540161133 0.267793208360672
15.752317428588867 -1.869879961013794 0.278140664100647
15.878933906555176 -1.983788251876831 0.24643898010253906
15.827231407165527 -2.0760433673858643 0.2526458501815796
16.01824951171875 -2.201162338256836 0.20678822696208954
15.934288024902344 -2.289341688156128 0.21962901949882507
15.844049453735352 -2.3757076263427734 0.23373550176620483
15.744658470153809 -2.4596967697143555 0.24973368644714355
16.00689125061035 -2.6013882160186768 0.18776173889636993
16.043231964111328 -2.708458423614502 0.17420747876167297
16.064407348632812 -2.8135437965393066 0.1637643575668335
16.172462463378906 -2.9348831176757812 0.13435113430023193
16.019132614135742 -3.008737325668335 0.161407932639122
15.985525131225586 -3.1041252613067627 0.16242395341396332
15.98491096496582 -3.205946683883667 0.15613995492458344
15.99705696105957 -3.3106541633605957 0.14692826569080353
15.976951599121094 -3.4089009761810303 0.14460736513137817
12.676297187805176 12.291596412658691 0.10469673573970795
13.767012596130371 9.641538619995117 0.2312755584716797
13.799663543701172 9.53909683227539 0.23590964078903198
13.794472694396973 9.288115501403809 0.26187434792518616
13.828718185424805 9.188700675964355 0.26551660895347595
13.866363525390625 9.091900825500488 0.26816171407699585
13.913215637207031 9.001371383666992 0.26841312646865845
13.941307067871094 8.899005889892578 0.2730426490306854
14.074675559997559 8.624650001525879 0.2741522789001465
14.129401206970215 8.539694786071777 0.2717827558517456
14.179405212402344 8.451882362365723 0.2704039216041565
14.221261978149414 8.359304428100586 0.2708171010017395
14.259125709533691 8.264565467834473 0.27202510833740234
14.28530502319336 8.163351058959961 0.27583029866218567
16.22024154663086 0.7709636092185974 0.1607261300086975
15.747781753540039 0.5550143718719482 0.25938430428504944
12.851839065551758 -0.7305902242660522 0.8512572646141052
12.860414505004883 -0.8102519512176514 0.8466130495071411
15.834175109863281 -1.977668285369873 0.15994872152805328
15.757357597351074 -2.0663576126098633 0.17192424833774567
15.82137393951416 -2.1735851764678955 0.152804434299469
15.820833206176758 -2.272515058517456 0.14773841202259064
15.821602821350098 -2.371812343597412 0.14224353432655334
15.893179893493652 -2.4823575019836426 0.12094733864068985
15.771997451782227 -2.6621475219726562 0.13642819225788116
13.79284954071045 9.280108451843262 0.1692698746919632
13.844993591308594 9.192643165588379 0.1685621589422226
13.876935958862305 9.092005729675293 0.17275215685367584
13.897479057312012 8.984410285949707 0.17959782481193542
13.94115924835205 8.892172813415527 0.18051238358020782
13.950267791748047 8.778356552124023 0.18981267511844635
14.063865661621094 8.260308265686035 0.2166740596294403
15.742112159729004 0.5497073531150818 0.1713465005159378
12.849964141845703 -0.7348042726516724 0.7785986661911011
12.858487129211426 -0.8144564032554626 0.7738805413246155
15.658276557922363 -1.8633474111557007 0.11363750696182251
15.665462493896484 -1.9617615938186646 0.1072177067399025
15.613006591796875 -2.0525848865509033 0.11410802602767944
12.848336219787598 -0.7198691368103027 0.69933021068573
12.855949401855469 -0.799436092376709 0.6947540044784546
12.840546607971191 -0.7257854342460632 0.6182112693786621
12.84518051147461 -0.8051255345344543 0.6142444610595703
12.834263801574707 -0.7228525280952454 0.5392705798149109
12.86120891571045 -0.8035420775413513 0.5298565030097961
12.83034610748291 -0.7247378826141357 0.46892184019088745
12.847538948059082 -0.8047980666160583 0.4617350399494171
12.835801124572754 -0.7147353887557983 0.38937896490097046
12.848176002502441 -0.7945135831832886 0.38328826427459717
12.836392402648926 -0.7165603041648865 0.3031943142414093
12.842918395996094 -0.7959820032119751 0.298500657081604
12.818148612976074 -0.7130002975463867 0.22907857596874237
12.879656791687012 -0.7956966161727905 0.20968906581401825
12.808182716369629 -0.7168222665786743 0.16202755272388458
12.887870788574219 -0.8006036877632141 0.13733166456222534
13.599288940429688 13.775989532470703 0.15079155564308167
12.666656494140625 12.746559143066406 1.2901724576950073
12.675786972045898 12.66721248626709 1.2953966856002808
12.770425796508789 12.76209545135498 0.37465569376945496
12.702131271362305 12.605430603027344 1.29756760597229
12.800658226013184 12.703585624694824 0.3771788477897644
12.71406364440918 12.52968978881836 1.3021824359893799
12.697288513183594 12.513618469238281 0.41214755177497864
12.741581916809082 12.469635963439941 1.3040461540222168
12.730083465576172 12.458909034729004 0.41382285952568054
12.756754875183105 12.393484115600586 1.3083112239837646
12.781899452209473 12.331674575805664 1.310479760169983
12.803187370300293 12.266406059265137 1.3132597208023071
31.065650939941406 29.572982788085938 0.33060982823371887
12.820257186889648 12.201664924621582 1.3163899183273315
31.050655364990234 29.353078842163086 0.34041914343833923
12.849967956542969 12.14493179321289 1.3176376819610596
31.058137893676758 29.155824661254883 0.3478389084339142
12.870394706726074 12.07965087890625 1.3204158544540405
12.891545295715332 12.1004056930542 0.43110790848731995
32.36560821533203 30.17013931274414 2.398738384246826
31.104745864868164 28.996273040771484 0.3512018918991089
12.885077476501465 12.009298324584961 1.3241139650344849
12.922650337219238 12.045283317565918 0.43277236819267273
32.415592193603516 30.006080627441406 2.3983395099639893
31.075603485107422 28.76731300354004 0.36213892698287964
12.906708717346191 11.945731163024902 1.326585292816162
12.944487571716309 11.981721878051758 0.43657514452934265
32.48657989501953 29.851591110229492 2.397263526916504
31.23563003540039 28.703872680664062 0.35430416464805603
12.935601234436035 11.884941101074219 1.3280903100967407
12.96448040008545 11.912559509277344 0.4411886930465698
32.54616165161133 29.697616577148438 2.3964855670928955
31.307748794555664 28.569496154785156 0.35488906502723694
12.956669807434082 11.821342468261719 1.330560326576233
12.987544059753418 11.850658416748047 0.4445623457431793
32.538394927978516 29.483173370361328 2.3979625701904297
13.037137031555176 11.814971923828125 2.193575382232666
12.971932411193848 11.7527437210083 1.3339513540267944
13.006684303283691 11.785431861877441 0.4487922191619873
32.505374908447266 29.247419357299805 2.400264024734497
13.048530578613281 11.74272632598877 2.195624589920044
12.999788284301758 11.695796966552734 1.3351918458938599
13.027359008789062 11.721863746643066 0.4525933265686035
32.434364318847656 28.989606857299805 2.4037606716156006
13.061267852783203 11.676146507263184 2.197349786758423
13.016135215759277 11.632806777954102 1.3380134105682373
13.049399375915527 11.663850784301758 0.45558246970176697
32.46608352661133 28.814863204956055 2.403815507888794
13.086915969848633 11.617259979248047 2.197916269302368
13.037927627563477 11.570855140686035 1.3401745557785034
13.067686080932617 11.598634719848633 0.45981156826019287
32.511985778808594 28.653474807739258 2.4033660888671875
13.106704711914062 11.55339241027832 2.1990387439727783
13.0557222366333 11.505611419677734 1.3429502248764038
13.093070983886719 11.539949417114258 0.4623244106769562
32.56279373168945 28.497051239013672 2.4027276039123535
13.128076553344727 11.491168022155762 2.1999752521514893
13.076956748962402 11.443653106689453 1.345110297203064
13.116349220275879 11.479602813720703 0.4652657210826874
32.594757080078125 28.3348331451416 2.4026453495025635
13.15095329284668 11.434502601623535 2.200585126876831
13.094069480895996 11.382342338562012 1.3476238250732422
13.135527610778809 11.419910430908203 0.46868130564689636
32.622596740722656 28.149904251098633 2.4027810096740723
13.164342880249023 11.361812591552734 2.202404499053955
13.116729736328125 11.318090438842773 1.3497370481491089
13.162124633789062 11.358843803405762 0.47114548087120056
32.58009719848633 27.91556167602539 2.405200958251953
13.190559387207031 11.304451942443848 2.2027809619903564
13.140909194946289 11.259343147277832 1.3512794971466064
13.18088150024414 11.2952299118042 0.4749431908130646
32.61061096191406 27.745019912719727 2.405141592025757
13.208942413330078 11.240585327148438 2.203901767730713
13.166728973388672 11.202173233032227 1.352512240409851
13.197480201721191 11.230026245117188 0.47917017340660095
32.62696838378906 27.563312530517578 2.4055323600769043
13.23465347290039 11.1831636428833 2.2042763233184814
13.186624526977539 11.140156745910645 1.3546693325042725
13.221307754516602 11.1712007522583 0.4816782474517822
32.65393829345703 27.391469955444336 2.4055418968200684
13.250578880310059 11.117687225341797 2.205582857131958
13.210046768188477 11.08132553100586 1.3562090396881104
13.239225387573242 11.107595443725586 0.4854751527309418
32.645545959472656 27.19097900390625 2.4067111015319824
13.275785446166992 11.060215950012207 2.205955743789673
13.225595474243164 11.016115188598633 1.3589824438095093
13.272002220153809 11.056611061096191 0.4858317971229553
32.67852020263672 27.025928497314453 2.4064695835113525
13.291146278381348 10.994754791259766 2.207261800765991
13.242762565612793 10.952512741088867 1.3614475727081299
13.287504196166992 10.991405487060547 0.49005743861198425
32.67485809326172 26.82196807861328 2.407468795776367
13.319676399230957 10.936495780944824 2.207399368286133
13.267293930053711 10.89133358001709 1.362938642501831
13.317933082580566 10.934844970703125 0.4912242293357849
32.680992126464844 26.636728286743164 2.4080734252929688
13.33640193939209 10.872624397277832 2.2085177898406982
13.2896728515625 10.832438468933105 1.364475131034851
13.334783554077148 10.871200561523438 0.4950188100337982
32.692073822021484 26.45649528503418 2.408489227294922
13.362537384033203 10.81661319732666 2.2086997032165527
13.313730239868164 10.775081634521484 1.3657019138336182
13.359012603759766 10.813766479492188 0.49709099531173706
32.68280792236328 26.260852813720703 2.409557342529297
13.384552955627441 10.757426261901855 2.2092552185058594
13.329815864562988 10.711471557617188 1.3681652545928955
13.375322341918945 10.75012493133545 0.5008850693702698
32.68820571899414 26.078065872192383 2.4101126194000244
13.404373168945312 10.69666576385498 2.2099974155426025
13.35531234741211 10.655614852905273 1.369080662727356
13.395203590393066 10.689573287963867 0.5038174390792847
32.715633392333984 25.922992706298828 2.409874200820923
13.420125961303711 10.636689186096191 2.2109742164611816
13.36707592010498 10.592801094055176 1.3719003200531006
13.412981986999512 10.631353378295898 0.5067964792251587
32.71152877807617 25.734500885009766 2.410698890686035
13.441390991210938 10.577466011047363 2.2115278244018555
13.395998001098633 10.539962768554688 1.3721944093704224
13.430419921875 10.569266319274902 0.510158896446228
32.73211669921875 25.566347122192383 2.410677671432495
13.454543113708496 10.512081146240234 2.2128326892852783
13.411029815673828 10.476362228393555 1.3746565580368042
13.453410148620605 10.511734008789062 0.5122273564338684
32.732177734375 25.383054733276367 2.411315679550171
13.481194496154785 10.457430839538574 2.2128212451934814
13.427740097045898 10.41430377960205 1.376808762550354
13.466434478759766 10.446623802185059 0.5164517760276794
32.74522399902344 25.21074104309082 2.4114990234375
13.501704216003418 10.39815902709961 2.2133729457855225
13.448113441467285 10.355284690856934 1.3783400058746338
13.48697280883789 10.387557029724121 0.5189507007598877
32.74951934814453 25.032577514648438 2.4119486808776855
13.523943901062012 10.340386390686035 2.213735580444336
13.470209121704102 10.297754287719727 1.3795605897903442
13.5053071975708 10.326982498168945 0.5218803286552429
32.7569580078125 24.857717514038086 2.4122722148895264
13.545945167541504 10.282583236694336 2.214097261428833
13.49799633026123 10.244694709777832 1.3798487186431885
13.527308464050293 10.269381523132324 0.523946225643158
32.767879486083984 24.677383422851562 2.4124834537506104
13.571477890014648 10.223884582519531 2.214221239089966
13.515458106994629 10.180253028869629 1.3819509744644165
13.5508394241333 10.209385871887207 0.5259630084037781
32.76163864135742 24.49405288696289 2.413212299346924
13.591002464294434 10.16452407836914 2.2147698402404785
13.534844398498535 10.1211519241333 1.3834794759750366
13.586158752441406 10.16204833984375 0.5250025391578674
32.72620391845703 24.298900604248047 2.414862871170044
13.602513313293457 10.103066444396973 2.215932846069336
13.558212280273438 10.068839073181152 1.384122610092163
13.595837593078613 10.099345207214355 0.5292739868164062
32.56930160522461 24.006620407104492 2.420536756515503
13.629559516906738 10.049623489379883 2.215724468231201
13.573135375976562 10.006752967834473 1.3862717151641846
13.63869857788086 10.057696342468262 0.526580274105072
32.43698501586914 23.73491668701172 2.425370931625366
13.644330978393555 9.987282752990723 2.2166495323181152
13.599802017211914 9.953474044799805 1.3865537643432617
13.621828079223633 9.97223949432373 0.536857008934021
32.456851959228516 23.576051712036133 2.425143003463745
13.66487979888916 9.929352760314941 2.2170069217681885
13.62225341796875 9.897216796875 1.3874566555023193
13.642374992370605 9.914522171020508 0.5389182567596436
32.47600173950195 23.417333602905273 2.424917221069336
13.695304870605469 9.878695487976074 2.2164156436920166
13.640449523925781 9.838019371032715 1.388981819152832
13.656695365905762 9.852461814880371 0.5422771573066711
32.50867462158203 23.268951416015625 2.4242238998413086
13.713376998901367 9.81923770904541 2.2169601917266846
13.66445255279541 9.783148765563965 1.3895710706710815
13.662744522094727 9.784689903259277 0.5473678708076477
32.58347702026367 23.15102195739746 2.42211651802063
13.72917366027832 9.758332252502441 2.217694044113159
13.676103591918945 9.71960735321045 1.392030119895935
13.680522918701172 9.725550651550293 0.5498616099357605
32.57004165649414 22.970922470092773 2.422905445098877
13.752507209777832 9.699344635009766 2.2178094387054443
13.703348159790039 9.663722038269043 1.3922570943832397
13.691688537597656 9.658340454101562 0.5540390014648438
32.59850311279297 22.804187774658203 2.422320604324341
13.773551940917969 9.638888359069824 2.218113422393799
13.722235679626465 9.602078437805176 1.3937312364578247
13.714649200439453 9.599649429321289 0.5556169152259827
32.59773635864258 22.634702682495117 2.4226458072662354
13.792672157287598 9.580815315246582 2.218465566635132
13.749385833740234 9.549897193908691 1.393691897392273
13.741772651672363 9.547530174255371 0.5559417605400085
32.58384323120117 22.45699691772461 2.42338490486145
13.811556816101074 9.522726058959961 2.2188172340393066
13.774298667907715 9.496234893798828 1.39396333694458
13.764647483825684 9.492539405822754 0.5571323037147522
32.57529830932617 22.283893585205078 2.4239256381988525
13.830199241638184 9.464619636535645 2.219167947769165
13.78876781463623 9.435511589050293 1.3957958221435547
13.933601379394531 9.537626266479492 0.5270905494689941
32.522804260253906 22.09012794494629 2.425884962081909
13.851099014282227 9.411720275878906 2.2191860675811768
13.813663482666016 9.385575294494629 1.395801305770874
14.180787086486816 9.63807201385498 0.4801549017429352
32.54365921020508 21.938785552978516 2.4254157543182373
13.877555847167969 9.359149932861328 2.2187724113464355
13.827661514282227 9.324840545654297 1.39763343334198
14.21206283569336 9.587162017822266 0.47957947850227356
32.58670425415039 21.802846908569336 2.4241936206817627
13.889314651489258 9.296804428100586 2.219693660736084
13.8558349609375 9.273778915405273 1.3972742557525635
32.56088638305664 21.629709243774414 2.425215244293213
13.915811538696289 9.24795150756836 2.2191357612609863
13.867754936218262 9.215445518493652 1.3991544246673584
13.888993263244629 9.232695579528809 0.5596914291381836
32.46290588378906 21.40178871154785 2.4286060333251953
13.937494277954102 9.192475318908691 2.2191002368927
13.893455505371094 9.162907600402832 1.3991056680679321
13.931180000305176 9.190959930419922 0.5565289258956909
32.42229461669922 21.213125228881836 2.430084228515625
13.954788208007812 9.134232521057129 2.2194466590881348
13.910656929016113 9.10486888885498 1.4003088474273682
13.958824157714844 9.139603614807129 0.5564053058624268
32.458309173583984 21.07535743713379 2.42901611328125
13.980204582214355 9.08141040802002 2.2190258502960205
13.938023567199707 9.05357551574707 1.3999440670013428
13.957377433776855 9.069389343261719 0.5623658299446106
32.45804977416992 20.914587020874023 2.4291253089904785
13.9928560256958 9.020419120788574 2.2197539806365967
13.950611114501953 8.992796897888184 1.4017729759216309
13.9907865524292 9.021971702575684 0.5609356760978699
32.522335052490234 20.79580307006836 2.42708683013916
14.017848014831543 8.967508316040039 2.2193310260772705
13.979654312133789 8.942729949951172 1.4010913372039795
13.99293041229248 8.954529762268066 0.5660279989242554
32.57352066040039 20.66879653930664 2.42546010017395
14.03632926940918 8.910526275634766 2.219482421875
13.995957374572754 8.88459587097168 1.4022912979125977
14.009320259094238 8.896419525146484 0.5680758357048035
32.593955993652344 20.51469612121582 2.4248311519622803
14.066668510437012 8.857710838317871 2.2186222076416016
14.019852638244629 8.827975273132324 1.4024986028671265
14.010345458984375 8.825361251831055 0.5735560059547424
32.63559341430664 20.382295608520508 2.4234814643859863
14.091050148010254 8.804609298706055 2.2181944847106934
14.044102668762207 8.775062561035156 1.402440071105957
32.54074478149414 20.165611267089844 2.4266114234924316
14.102523803710938 8.743570327758789 2.2189197540283203
14.066047668457031 8.720780372619629 1.4026944637298584
14.412175178527832 8.938855171203613 0.5005382895469666
32.50012969970703 19.98387336730957 2.427934408187866
14.126480102539062 8.690387725830078 2.218489646911621
14.08355712890625 8.66385269165039 1.4035767316818237
14.390637397766113 8.856267929077148 0.5104038119316101
32.465049743652344 19.806564331054688 2.4290573596954346
14.150237083435059 8.637146949768066 2.2180581092834473
14.1093111038208 8.612077713012695 1.403199315071106
14.278353691101074 8.718782424926758 0.5390205383300781
32.54328536987305 19.706594467163086 2.42642879486084
14.17869758605957 8.590192794799805 2.217097043991089
14.124902725219727 8.557552337646484 1.404130220413208
14.13853931427002 8.569351196289062 0.5729394555091858
32.508949279785156 19.531137466430664 2.427490711212158
14.19139575958252 8.530393600463867 2.2176270484924316
14.150269508361816 8.505663871765137 1.403749942779541
14.1913423538208 8.533924102783203 0.5671291351318359
32.40938186645508 19.317779541015625 2.430685043334961
14.218836784362793 8.479545593261719 2.2168049812316895
14.177572250366211 8.454968452453613 1.4030526876449585
14.186986923217773 8.464183807373047 0.5730961561203003
32.41413116455078 19.167675018310547 2.430422306060791
14.241805076599121 8.42607307434082 2.216367244720459
14.191889762878418 8.396612167358398 1.4042452573776245
14.16325569152832 8.383294105529785 0.5829949378967285
32.417236328125 19.009592056274414 2.4301891326904297
14.268176078796387 8.371313095092773 2.215683698654175
14.213834762573242 8.339542388916016 1.4044405221939087
14.210626602172852 8.341320991516113 0.5784364938735962
32.45953369140625 18.882532119750977 2.428651809692383
14.288585662841797 8.316459655761719 2.2154364585876465
14.229828834533691 8.282414436340332 1.4053164720535278
14.233044624328613 8.287975311279297 0.578729510307312
32.50349426269531 18.756650924682617 2.4270403385162354
14.323895454406738 8.270289421081543 2.213831663131714
14.254186630249023 8.230234146118164 1.4049288034439087
14.24673843383789 8.229650497436523 0.5807689428329468
32.596866607666016 18.65924835205078 2.423780679702759
14.339590072631836 8.212825775146484 2.2139692306518555
14.271900177001953 8.174286842346191 1.405487060546875
14.281554222106934 8.183565139770508 0.5784367322921753
32.682373046875 18.564655303955078 2.4207725524902344
14.360138893127441 8.161551475524902 2.2135751247406006
14.300925254821777 8.128161430358887 1.4041991233825684
14.308396339416504 8.136185646057129 0.5774643421173096
32.716392517089844 18.433319091796875 2.419435501098633
14.399290084838867 8.117512702941895 2.211574077606201
14.333359718322754 8.080648422241211 1.4025412797927856
14.302175521850586 8.066873550415039 0.5834380984306335
32.765159606933594 18.310503005981445 2.4175922870635986
14.425253868103027 8.066001892089844 2.21073579788208
14.350488662719727 8.024537086486816 1.4030956029891968
14.34290599822998 8.024134635925293 0.579786479473114
32.80156707763672 18.18844985961914 2.416153907775879
14.385534286499023 7.981738567352295 1.4008513689041138
14.364912986755371 7.974163055419922 0.5796844959259033
32.88227081298828 18.083505630493164 2.413221597671509
14.420461654663086 7.939425945281982 0.5729607939720154
32.94947814941406 17.971038818359375 2.4107158184051514
14.929495811462402 8.147479057312012 2.170058488845825
33.03700256347656 17.862070083618164 2.407506227493286
14.920686721801758 8.072417259216309 1.3320668935775757
33.0307731628418 17.71006965637207 2.4073901176452637
33.06801986694336 17.581790924072266 2.4058194160461426
33.06497573852539 17.432491302490234 2.4055635929107666
27.778295516967773 14.652593612670898 1.0360075235366821
33.07902145385742 17.292692184448242 2.404726028442383
27.79594612121582 14.538249969482422 1.0369462966918945
33.09248352050781 17.153003692626953 2.4038891792297363
27.80207061767578 14.41822338104248 1.0388654470443726
33.09278869628906 16.99966049194336 2.403451442718506
27.83678436279297 14.307148933410645 1.0383340120315552
33.09544372558594 16.862632751464844 2.4029600620269775
27.846134185791016 14.195552825927734 1.039766788482666
33.10560989379883 16.715351104736328 2.4021599292755127
33.116722106933594 16.57623291015625 2.4013326168060303
33.13399124145508 16.440574645996094 2.400284767150879
33.13725662231445 16.298377990722656 2.3996846675872803
33.14610290527344 16.166526794433594 2.3989083766937256
33.15048599243164 16.025745391845703 2.39823842048645
33.16105270385742 15.888370513916016 2.397346258163452
32.637535095214844 15.646330833435059 0.6345847249031067
33.16654586791992 15.748974800109863 2.3966064453125
32.635440826416016 15.505614280700684 0.6371684074401855
33.16920852661133 15.608665466308594 2.3959450721740723
32.736480712890625 15.413930892944336 0.6306644678115845
33.17129898071289 15.468534469604492 2.3952863216400146
32.99989318847656 15.397597312927246 0.6099081039428711
33.18229675292969 15.325932502746582 2.3942837715148926
33.1124267578125 15.302720069885254 0.6024585366249084
33.19004440307617 15.18924617767334 2.3934037685394287
33.14274215698242 15.176708221435547 0.6020508408546448
33.19041442871094 15.049600601196289 2.3927526473999023
33.19074630737305 15.058905601501465 0.6000543236732483
33.199012756347656 14.921046257019043 2.3918442726135254
33.205142974853516 14.784775733947754 2.3909707069396973
33.208431243896484 14.64763355255127 2.3901751041412354
33.21340560913086 14.659106254577637 0.6043023467063904
33.213462829589844 14.511651039123535 2.3893063068389893
33.197914123535156 14.514172554016113 0.6076720356941223
33.220245361328125 14.376803398132324 2.388362407684326
33.186405181884766 14.371506690979004 0.6106481552124023
33.23337173461914 14.245036125183105 2.387190103530884
33.178871154785156 14.231060981750488 0.6132314205169678
33.23448944091797 14.108474731445312 2.386404037475586
33.20746994018555 14.106429100036621 0.6126269102096558
33.248878479003906 13.977885246276855 2.385158061981201
33.175880432128906 13.95665168762207 0.6172112822532654
33.24441146850586 13.832924842834473 2.384488582611084
33.1966552734375 13.822553634643555 0.6172882318496704
33.253116607666016 13.700648307800293 2.3834009170532227
33.23065185546875 13.700933456420898 0.6160848736763
33.27055740356445 13.572253227233887 2.3820035457611084
33.26650619506836 13.580184936523438 0.6146802306175232
33.248104095458984 13.434736251831055 2.3819727897644043
33.241825103759766 13.44180965423584 0.6184006333351135
33.243648529052734 13.298212051391602 2.381281614303589
33.25823974609375 13.313694953918457 0.6185983419418335
33.22471237182617 13.156365394592285 2.3810625076293945
33.209285736083984 13.159926414489746 0.6244139075279236
33.15866470336914 12.996578216552734 2.3824164867401123
33.1527214050293 13.003931045532227 0.630842387676239
33.17110824584961 12.868135452270508 2.3811123371124268
33.15586853027344 12.871938705444336 0.6320556998252869
33.232059478759766 12.75856876373291 2.3781566619873047
33.186405181884766 12.750800132751465 0.630859375
33.39352798461914 12.696907043457031 0.6143625974655151
33.51438522338867 12.609257698059082 0.6052935719490051
33.72361755371094 12.547196388244629 0.5886256098747253
33.76750946044922 12.419585227966309 2.3562278747558594
33.75294876098633 12.424281120300293 0.5873895287513733
33.782379150390625 12.291421890258789 2.354731798171997
33.77714157104492 12.299604415893555 0.5865551829338074
33.79228591918945 12.168353080749512 2.353437662124634
33.79408264160156 12.179120063781738 0.5862469673156738
33.80150604248047 12.038619995117188 2.352102041244507
33.782169342041016 12.04188346862793 0.5884451866149902
33.79136657714844 11.902329444885254 2.3514084815979004
33.7838134765625 11.909846305847168 0.5894339084625244
33.80664825439453 11.775294303894043 2.3498356342315674
33.80141830444336 11.783684730529785 0.5890055298805237
33.80964279174805 11.644231796264648 2.3486649990081787
33.79500198364258 11.649428367614746 0.5906059741973877
33.81450271606445 11.514097213745117 2.3474161624908447
33.81635284423828 11.525002479553223 0.5897728800773621
33.81175994873047 11.381678581237793 2.3464109897613525
33.80891799926758 11.391021728515625 0.5913777351379395
33.83457946777344 11.258094787597656 2.3445191383361816
33.815147399902344 11.261957168579102 0.5917646884918213
33.828033447265625 11.118444442749023 2.3435566425323486
33.81808090209961 11.125528335571289 0.5924384593963623
33.83326721191406 10.989521026611328 2.3422327041625977
33.83515167236328 11.00052261352539 0.5918110013008118
33.845149993896484 10.862988471984863 2.340665817260742
33.8422737121582 10.87248420715332 0.5919988751411438
33.8475456237793 10.740147590637207 2.339468240737915
33.85416793823242 10.752696990966797 0.5916985273361206
33.856117248535156 10.612995147705078 2.3379852771759033
33.86273956298828 10.625548362731934 0.5916840434074402
33.849891662597656 10.481484413146973 2.3369948863983154
33.86131286621094 10.495519638061523 0.5924882888793945
33.86407470703125 10.350079536437988 2.3352272510528564
33.85165786743164 10.356807708740234 0.5939892530441284
33.864017486572266 10.221013069152832 2.3339946269989014
33.8587532043457 10.229975700378418 0.5939791202545166
33.873046875 10.094928741455078 2.3324337005615234
33.84626770019531 10.09752082824707 0.5956093072891235
33.867225646972656 9.964672088623047 2.3313698768615723
33.85240173339844 9.970909118652344 0.5956029295921326
33.88078689575195 9.846763610839844 2.3296868801116943
33.87070846557617 9.854458808898926 0.594490110874176
33.88363265991211 9.719514846801758 2.328294515609741
33.87593078613281 9.727958679199219 0.594484269618988
33.888404846191406 9.593049049377441 2.3268213272094727
33.8902702331543 9.604257583618164 0.5936577916145325
33.885475158691406 9.464649200439453 2.325598955154419
33.889766693115234 9.47654914855957 0.5940659642219543
33.88689422607422 9.337715148925781 2.3242123126983643
33.89358901977539 9.350286483764648 0.5940638184547424
33.904720306396484 9.215472221374512 2.322240114212036
33.904151916503906 9.22607135772705 0.59344482421875
33.90279006958008 9.088044166564941 2.320939064025879
33.89741897583008 9.097378730773926 0.5942692756652832
33.91160202026367 8.957377433776855 2.319180488586426
33.90620803833008 8.966751098632812 0.5937351584434509
33.90871047973633 8.830169677734375 2.3178822994232178
33.903316497802734 8.839585304260254 0.5941518545150757
33.91744613647461 8.706195831298828 2.3161654472351074
33.933738708496094 8.721227645874023 0.5916743278503418
33.925724029541016 8.582266807556152 2.3144476413726807
33.91785430908203 8.591142654418945 0.5931277275085449
33.922386169433594 8.461889266967773 2.3131940364837646
33.93143844604492 8.475038528442383 0.5920158624649048
33.929779052734375 8.338094711303711 2.3114778995513916
33.93396759033203 8.350038528442383 0.5918153524398804
33.934288024902344 8.213763236999512 2.309847831726074
33.93362808227539 8.224535942077637 0.5918242931365967
33.96022415161133 8.09471321105957 2.3074514865875244
33.93524169921875 8.099715232849121 0.5916270017623901
33.949249267578125 7.9670233726501465 2.3063347339630127
33.94852828979492 7.977832317352295 0.5903912782669067
33.9610710144043 7.83864164352417 2.304325819015503
33.94089126586914 7.844980239868164 0.590903639793396
33.968631744384766 7.715653419494629 2.3025269508361816
33.960548400878906 7.72484016418457 0.589044451713562
33.97087478637695 7.591619491577148 2.3009002208709717
33.9627685546875 7.600849628448486 0.5886421799659729
33.98486328125 7.470344543457031 2.2988436222076416
33.97182846069336 7.478544235229492 0.5876156687736511
33.980045318603516 7.351299285888672 2.297515392303467
33.96944046020508 7.360085964202881 0.5875480771064758
33.9907341003418 7.229556560516357 2.2955451011657715
33.98981857299805 7.240468978881836 0.5854776501655579
33.993648529052734 7.106294631958008 2.293834924697876
33.98052978515625 7.114673137664795 0.585914671421051
34.00346374511719 6.984610080718994 2.291865110397339
33.98784637451172 6.992543697357178 0.5848890542984009
34.01528549194336 6.863435745239258 2.2898077964782715
33.989837646484375 6.869462490081787 0.5842832326889038
34.01314926147461 6.73341703414917 2.288148880004883
33.99744415283203 6.741489410400391 0.5831342935562134
34.01557159423828 6.616804122924805 2.2864792346954346
33.99983215332031 6.624941349029541 0.5824442505836487
34.00758361816406 6.486037731170654 2.2849979400634766
34.001625061035156 6.49611759185791 0.5817154049873352
34.007816314697266 6.363188743591309 2.283292770385742
34.00917053222656 6.374679088592529 0.5804818272590637
34.0198860168457 6.242669582366943 2.28114914894104
34.01383590698242 6.252815246582031 0.5794591307640076
34.038902282714844 6.123471260070801 2.2787396907806396
34.03032302856445 6.133204460144043 0.5773836374282837
34.039241790771484 6.007120132446289 2.2770729064941406
34.02327346801758 6.015590667724609 0.577328085899353
34.042667388916016 5.885318279266357 2.275192975997925
34.03402328491211 5.895132541656494 0.5756729245185852
34.045658111572266 5.763566493988037 2.273313522338867
34.02959442138672 5.772171497344971 0.5752841234207153
34.045745849609375 5.641456127166748 2.2715234756469727
34.04439926147461 5.652576923370361 0.5732070207595825
34.0478630065918 5.519815444946289 2.2696447372436523
34.04402542114258 5.530552387237549 0.5723966956138611
34.055423736572266 5.393069267272949 2.267463445663452
34.046600341796875 5.403048038482666 0.5712513327598572
34.05664825439453 5.271519184112549 2.2655858993530273
34.06010818481445 5.283448696136475 0.5691720247268677
34.06239318847656 5.150773525238037 2.2635302543640137
34.05841064453125 5.161580562591553 0.5683630704879761
34.06435775756836 5.035630226135254 2.2616891860961914
34.0701904296875 5.047919750213623 0.5664085149765015
34.06431579589844 4.9142303466796875 2.259812831878662
34.05532455444336 4.924370765686035 0.5666630864143372
34.07621765136719 4.794631481170654 2.2574868202209473
34.0794792175293 4.806549549102783 0.563519299030304
34.072837829589844 4.672971725463867 2.255702018737793
34.08101272583008 4.6855669021606445 0.562288224697113
34.07893371582031 4.552718162536621 2.253556251525879
34.08458709716797 4.564962387084961 0.5608440637588501
34.10442352294922 4.43505334854126 2.2506842613220215
34.10749816894531 4.446964263916016 0.5576951503753662
34.0972900390625 4.313193321228027 2.248990297317505
34.05586242675781 4.319461822509766 0.5609413981437683
34.135074615478516 4.190964698791504 2.2455332279205322
34.1058349609375 4.198915004730225 0.5553193688392639
34.11263656616211 4.0789923667907715 0.5534474849700928
34.10664749145508 3.9576377868652344 0.5526446104049683
33.54096221923828 3.649561882019043 2.2595512866973877
33.54594421386719 3.5317084789276123 2.2573540210723877
33.56542205810547 3.4153804779052734 2.2546029090881348
33.29722213745117 3.3994455337524414 0.6171523928642273
33.626766204833984 3.3031094074249268 2.2502801418304443
33.378074645996094 3.2900731563568115 0.6086840629577637
33.67032241821289 3.188803195953369 2.246596097946167
33.26762771606445 3.162041425704956 0.6167519092559814
33.694114685058594 3.066539764404297 2.2435240745544434
33.29612731933594 3.041715621948242 0.612668514251709
33.70450973510742 2.9489400386810303 2.2410364151000977
33.01849365234375 2.9002487659454346 0.6351833343505859
33.712005615234375 2.8310952186584473 2.2386410236358643
32.6385383605957 2.7521812915802 0.6665733456611633
33.70866012573242 2.7183146476745605 2.2367427349090576
32.952632904052734 2.6686816215515137 0.6377610564231873
33.71535110473633 2.6004738807678223 2.234346628189087
33.29179763793945 2.579246759414673 0.6066225171089172
33.71664047241211 2.482252597808838 2.2321367263793945
32.76633071899414 2.423593282699585 0.6506044268608093
33.717525482177734 2.364053964614868 2.229926586151123
32.973140716552734 2.3232345581054688 0.6308881044387817
33.72298049926758 2.2462105751037598 2.2275288105010986
33.16472625732422 2.2204644680023193 0.6124396324157715
33.71056365966797 2.1272575855255127 2.2257890701293945
33.07759094238281 2.0987370014190674 0.6182174682617188
33.70770263671875 2.009011745452881 2.2236745357513428
33.004940032958984 1.9785380363464355 0.6227070093154907
33.707244873046875 1.8850699663162231 2.221341133117676
15.818992614746094 0.8911951184272766 2.120021104812622
33.7010498046875 1.7667784690856934 2.2193210124969482
15.806973457336426 0.8352038860321045 2.1201536655426025
33.719093322753906 1.6556552648544312 2.216478109359741
15.821990013122559 0.7834141254425049 2.1179561614990234
12.564249992370605 0.5742485523223877 3.0204172134399414
15.829492568969727 0.7284281253814697 2.1163506507873535
12.598581314086914 0.5317646861076355 3.0182483196258545
15.834320068359375 0.6732935309410095 2.1149611473083496
12.492976188659668 0.4836585223674774 3.021421194076538
15.846416473388672 0.6184239387512207 2.112917423248291
19.303482055664062 0.7563844323158264 0.8513852953910828
12.447108268737793 0.4383964538574219 3.0223138332366943
15.840899467468262 0.5628609657287598 2.112398386001587
19.32807731628418 0.6898189783096313 0.8468971252441406
12.446024894714355 0.394879013299942 3.0214879512786865
15.845149993896484 0.5076615214347839 2.111006736755371
12.564651489257812 0.35473915934562683 3.016052484512329
15.856671333312988 0.4526509642601013 2.108959674835205
19.31963539123535 0.5545709133148193 0.8457350730895996
12.61577033996582 0.3099173605442047 3.013150453567505
15.85810661315918 0.3945508301258087 2.107726573944092
19.328752517700195 0.4839719831943512 0.8432108759880066
12.591754913330078 0.2653685510158539 3.0131795406341553
15.876705169677734 0.3395833969116211 2.1050198078155518
12.565086364746094 0.2209475040435791 3.0133087635040283
15.87270450592041 0.28409236669540405 2.104280710220337
33.79784393310547 0.4729174077510834 2.189718008041382
15.88344955444336 0.22884634137153625 2.1022274494171143
33.794132232666016 0.3608158528804779 2.1875312328338623
15.871562957763672 0.17605571448802948 2.102205276489258
33.79008483886719 0.24284793436527252 2.185218572616577
32.915977478027344 0.018368704244494438 0.5938530564308167
32.895694732666016 -0.09642984718084335 0.5931702256202698
12.753800392150879 -0.0851062759757042 2.999488353729248
32.93727111816406 -0.21149100363254547 0.586985170841217
12.770842552185059 -0.1320207267999649 2.997807741165161
32.89122009277344 -0.3317137360572815 0.5883843898773193
12.770258903503418 -0.17658555507659912 2.996859312057495
32.87469482421875 -0.4462795853614807 0.587266206741333
32.850303649902344 -0.5606070756912231 0.5868120789527893
33.73937225341797 -0.6877228617668152 0.5053806900978088
33.85252380371094 -0.8200892210006714 2.1597750186920166
33.7315559387207 -0.8053306341171265 0.5033160448074341
33.841854095458984 -0.938010036945343 2.1575560569763184
33.581443786621094 -0.919001579284668 0.5138691067695618
33.84825897216797 -1.0564132928848267 2.1546435356140137
33.017784118652344 -1.0188608169555664 0.5612188577651978
33.87421417236328 -1.1755671501159668 2.1509344577789307
33.2377815246582 -1.1417754888534546 0.5388091802597046
33.25576400756836 -1.2585984468460083 0.5343398451805115
12.926508903503418 -0.533160924911499 2.3461523056030273
12.54849910736084 -0.5657888054847717 2.9967596530914307
12.949352264404297 -0.5793803930282593 2.3429677486419678
12.681026458740234 -0.6183556318283081 2.9903724193573
33.26715087890625 -1.6137804985046387 0.5243471264839172
13.005535125732422 -0.6797347068786621 2.976288080215454
13.136161804199219 -0.6819650530815125 2.323847532272339
13.010519981384277 -0.725533664226532 2.9750185012817383
13.131120681762695 -0.7276601195335388 2.323092460632324
12.951622009277344 -0.7152779698371887 1.6952992677688599
12.938800811767578 -0.709712028503418 1.0450823307037354
12.82583236694336 -0.7601143717765808 2.9813992977142334
12.959380149841309 -0.7634909152984619 2.337280750274658
12.94149112701416 -0.7600273489952087 1.6953694820404053
12.923796653747559 -0.7541329860687256 1.0464481115341187
12.909582138061523 -0.7527113556861877 0.3861164450645447
12.823198318481445 -0.8026297092437744 2.9804916381835938
12.911955833435059 -0.8036549687385559 2.340381383895874
12.911581993103027 -0.8012294173240662 1.6982488632202148
12.916142463684082 -0.7966614961624146 1.0464658737182617
12.884805679321289 -0.7963915467262268 0.3904277980327606
11.997747421264648 -0.792876660823822 3.012880325317383
12.879162788391113 -0.8467402458190918 2.342100143432617
12.925862312316895 -0.8474118113517761 1.6948708295822144
12.908191680908203 -0.8413999676704407 1.0464359521865845
12.913238525390625 -0.8434019088745117 0.3818490505218506
11.979910850524902 -0.8336964845657349 3.0125937461853027
12.933170318603516 -0.8956411480903625 2.33599853515625
12.131343841552734 -0.8868139386177063 3.005413293838501
12.912487983703613 -0.939497172832489 2.3366010189056396
12.22526741027832 -0.9366003274917603 3.00054669380188
12.904072761535645 -0.9841688871383667 2.3360865116119385
12.440816879272461 -0.9990195631980896 2.9906318187713623
12.890353202819824 -1.030645728111267 2.335972785949707
12.506905555725098 -1.0482804775238037 2.9868485927581787
12.898990631103516 -1.0766565799713135 2.3338897228240967
12.448382377624512 -1.087128758430481 2.988163709640503
12.422078132629395 -1.128524661064148 2.9881558418273926
33.69028854370117 -3.1649410724639893 0.4439378082752228
12.776981353759766 -1.2485531568527222 2.9713523387908936
33.60941696166992 -3.2757139205932617 0.4477250277996063
12.802322387695312 -1.296156644821167 2.9691638946533203
33.61488342285156 -3.394723892211914 0.4436396062374115
12.80512809753418 -1.3416062593460083 2.9678986072540283
33.733848571777344 -3.5257248878479004 0.42918190360069275
13.237383842468262 -1.4336869716644287 2.9487669467926025
33.78050994873047 -3.6498372554779053 0.42124858498573303
15.952966690063477 -1.713577151298523 0.4414644241333008
13.366299629211426 -1.4948840141296387 2.9421916007995605
33.89599609375 -3.7820537090301514 0.40698400139808655
15.934454917907715 -1.7678701877593994 0.4426150321960449
13.363161087036133 -1.5441367626190186 2.9410393238067627
33.87425231933594 -3.9053637981414795 0.40500256419181824
15.939821243286133 -1.827632188796997 0.43902161717414856
13.223708152770996 -1.5747891664505005 2.945647716522217
33.73161315917969 -4.0082573890686035 0.41423213481903076
15.864829063415527 -1.8751548528671265 0.4509609639644623
12.610672950744629 -1.5463451147079468 2.970144510269165
33.77402114868164 -4.132894992828369 0.40650486946105957
15.904271125793457 -1.9361388683319092 0.4408614933490753
12.563302040100098 -1.582828164100647 2.971020221710205
33.71544647216797 -4.2392377853393555 0.40818357467651367
16.099773406982422 -2.0141685009002686 0.4007808268070221
33.984432220458984 -4.40566873550415 2.067173957824707
33.60144805908203 -4.344085216522217 0.4147314727306366
15.917060852050781 -2.047745943069458 0.43337926268577576
33.98854446411133 -4.526875019073486 2.063796043395996
33.74379348754883 -4.482298374176025 0.3976970314979553
15.873065948486328 -2.0984349250793457 0.4392338693141937
33.98975372314453 -4.647825717926025 2.0605196952819824
33.883113861083984 -4.621222496032715 0.3808663487434387
15.838647842407227 -2.150165557861328 0.4432145655155182
33.97321319580078 -4.7664103507995605 2.0579771995544434
33.95530700683594 -4.751853942871094 0.3701491355895996
15.82352066040039 -2.204394817352295 0.4434395134449005
34.03289794921875 -4.895965099334717 2.052175760269165
33.98017501831055 -4.876323223114014 0.3637411892414093
16.051271438598633 -2.293304204940796 0.39664575457572937
34.003135681152344 -5.012876033782959 2.050154447555542
33.955318450927734 -4.993777275085449 0.36188071966171265
15.906885147094727 -2.329352378845215 0.42178642749786377
34.023929595947266 -5.1434102058410645 2.045793056488037
33.978389739990234 -5.124466896057129 0.35533827543258667
15.859148025512695 -2.381770133972168 0.42806482315063477
34.02787399291992 -5.265549659729004 2.0422942638397217
33.984657287597656 -5.246799468994141 0.3505135178565979
15.828662872314453 -2.4337260723114014 0.4311140477657318
34.02151107788086 -5.386216163635254 2.0392160415649414
34.00033187866211 -5.370794773101807 0.34477293491363525
15.834391593933105 -2.491227626800537 0.4271029233932495
34.03047561645508 -5.503361701965332 2.035628080368042
34.006690979003906 -5.487441539764404 0.3400692939758301
15.787034034729004 -2.5374579429626465 0.43351420760154724
34.03066635131836 -5.62534236907959 2.032228469848633
34.006736755371094 -5.60931396484375 0.3356928825378418
15.809345245361328 -2.597701072692871 0.426204115152359
34.04026412963867 -5.749055862426758 2.0284008979797363
34.00880813598633 -5.731667995452881 0.331085741519928
15.75394344329834 -2.645112991333008 0.4339773952960968
34.042030334472656 -5.871631622314453 2.0248894691467285
34.01779556274414 -5.855373859405518 0.3257889747619629
15.771001815795898 -2.704629421234131 0.42760807275772095
34.05564880371094 -5.996456146240234 2.0208420753479004
34.02878952026367 -5.979643821716309 0.320259690284729
15.763647079467773 -2.7600600719451904 0.42595434188842773
34.076194763183594 -6.122774124145508 2.0164694786071777
