# .PCD v0.7 - Point Cloud Data file format
VERSION 0.7
FIELDS x y z
SIZE 4 4 4
TYPE F F F
COUNT 1 1 1
WIDTH 854
HEIGHT 1
VIEWPOINT 0 0 0 1 0 0 0
POINTS 854
DATA ascii
12.725259780883789 -1.0125088691711426 3.520754814147949
13.349458694458008 -1.144647479057312 3.5134565830230713
46.15736770629883 -4.244162559509277 3.2142863273620605
11.987915992736816 -1.1761863231658936 3.522343397140503
12.007319450378418 -1.2525054216384888 3.5205202102661133
11.915913581848145 -1.3169101476669312 3.5197348594665527
12.694219589233398 -1.4818331003189087 3.510608673095703
12.273003578186035 -1.5090210437774658 3.5129575729370117
12.273420333862305 -1.5855621099472046 3.511246681213379
43.06063461303711 -5.83268928527832 3.200744390487671
13.623259544372559 -1.9302042722702026 3.4940853118896484
43.083656311035156 -6.375035285949707 3.1884119510650635
12.57172679901123 -1.9388103485107422 3.501234531402588
12.711628913879395 -2.0403037071228027 3.4979684352874756
12.589380264282227 -2.09997820854187 3.497469663619995
43.17515563964844 -7.475395202636719 3.162912368774414
43.181575775146484 -7.749647617340088 3.1566367149353027
29.4276065826416 -5.467687606811523 3.3040010929107666
12.751029014587402 -2.449934720993042 3.4883878231048584
12.720054626464844 -2.5249931812286377 3.4868850708007812
12.709209442138672 -2.6039795875549316 3.485149621963501
12.668523788452148 -2.6767256259918213 3.4837591648101807
12.615699768066406 -2.7465178966522217 3.482516050338745
12.61713695526123 -2.828011989593506 3.480625867843628
12.726202964782715 -2.9345703125 3.4774131774902344
12.73421573638916 -3.0188114643096924 3.4754064083099365
34.24916458129883 -8.342191696166992 3.2046010494232178
43.5281867980957 -10.885741233825684 3.0820419788360596
43.542842864990234 -11.173681259155273 3.075226068496704
43.5759162902832 -11.46755599975586 3.068131923675537
43.653350830078125 -11.77475643157959 3.060410261154175
43.65251159667969 -12.062295913696289 3.053666353225708
43.680572509765625 -12.358980178833008 3.0464975833892822
43.70086669921875 -12.654792785644531 3.0393881797790527
43.72300720214844 -12.952454566955566 3.03220796585083
43.75079345703125 -13.253183364868164 3.0249016284942627
43.59695816040039 -13.49913501739502 3.0200998783111572
34.498531341552734 -10.91423511505127 3.142408609390259
34.28815460205078 -11.079537391662598 3.1398754119873047
34.21568298339844 -11.288413047790527 3.13537335395813
34.10213851928711 -11.483413696289062 3.1314632892608643
34.085838317871094 -11.711237907409668 3.126112222671509
34.25864028930664 -12.006098747253418 3.1178886890411377
34.23418426513672 -12.233861923217773 3.112569808959961
44.018409729003906 -16.03568458557129 2.9565742015838623
44.10660171508789 -16.375011444091797 2.947798252105713
44.06321716308594 -16.667203903198242 2.9410083293914795
44.16812515258789 -17.017356872558594 2.9318320751190186
44.13448715209961 -17.31610107421875 2.924790143966675
44.11927032470703 -17.623233795166016 2.9174094200134277
44.21586608886719 -17.977149963378906 2.9081501960754395
44.2469482421875 -18.306917190551758 2.899888038635254
44.279327392578125 -18.63929557800293 2.891538381576538
44.31572341918945 -18.97551155090332 2.8830549716949463
29.68390655517578 -12.926239013671875 3.1252329349517822
29.636903762817383 -13.122661590576172 3.120692729949951
44.438316345214844 -20.003686904907227 2.856943368911743
44.45105743408203 -20.338314056396484 2.848588228225708
44.49036407470703 -20.687339782714844 2.839693307876587
44.478240966796875 -21.014543533325195 2.8316471576690674
44.39075469970703 -21.307327270507812 2.8249125480651855
34.648136138916016 -16.893136978149414 2.995651960372925
34.56438446044922 -17.115568161010742 2.9906198978424072
34.211219787597656 -17.202850341796875 2.9906229972839355
34.092498779296875 -17.406023025512695 2.98626446723938
34.04624938964844 -17.64657974243164 2.980510950088501
34.1576042175293 -17.97102165222168 2.9716711044311523
34.55906677246094 -18.453853607177734 2.9570603370666504
34.51018142700195 -18.700754165649414 2.9511263370513916
34.365814208984375 -18.896202087402344 2.9470584392547607
30.51642417907715 -17.02420425415039 3.0176548957824707
30.309534072875977 -17.153461456298828 3.0156166553497314
34.57041931152344 -19.845985412597656 2.9217333793640137
34.479042053222656 -20.075788497924805 2.9164254665374756
34.62376022338867 -20.445537567138672 2.906137466430664
42.818199157714844 -25.640161514282227 2.725109815597534
34.845306396484375 -21.15730094909668 2.88663387298584
34.55810546875 -21.274208068847656 2.885314702987671
34.551536560058594 -21.563615798950195 2.877920150756836
34.547786712646484 -21.856948852539062 2.8703954219818115
34.564449310302734 -22.165618896484375 2.8623454570770264
34.579463958740234 -22.475854873657227 2.8542513847351074
34.4583740234375 -22.69910430908203 2.849169969558716
34.38240432739258 -22.95279884338379 2.843031167984009
34.355140686035156 -23.240591049194336 2.835719585418701
43.23612976074219 -29.636882781982422 2.619619846343994
43.270992279052734 -30.052690505981445 2.6086037158966064
30.10367202758789 -21.182470321655273 2.9130499362945557
43.351417541503906 -30.90397834777832 2.5859479904174805
43.4064826965332 -31.346689224243164 2.5740671157836914
43.43272399902344 -31.772932052612305 2.5627589225769043
43.474632263183594 -32.214962005615234 2.5509347915649414
43.52793502807617 -32.67009353637695 2.5386862754821777
43.576480865478516 -33.12648010253906 2.526413679122925
43.58699417114258 -33.55846405029297 2.5149712562561035
43.64665603637695 -34.03300476074219 2.502126693725586
35.078121185302734 -27.699417114257812 2.7148704528808594
34.86447525024414 -27.879730224609375 2.7112176418304443
34.65616226196289 -28.06350326538086 2.7074313163757324
34.5953369140625 -28.36748695373535 2.6996729373931885
34.759765625 -28.860824584960938 2.685702323913574
34.76254653930664 -29.225343704223633 2.6759767532348633
34.68906784057617 -29.528766632080078 2.6682558059692383
34.87898254394531 -30.06148910522461 2.653061866760254
34.93183135986328 -30.482601165771484 2.641528844833374
34.93810272216797 -30.86775779724121 2.631176710128784
34.83663558959961 -31.16081428527832 2.6238152980804443
34.8936882019043 -31.599416732788086 2.6117477416992188
34.86634063720703 -31.966236114501953 2.6020102500915527
34.83285903930664 -32.3311882019043 2.592337131500244
34.79402160644531 -32.69486999511719 2.582709550857544
32.46517562866211 23.192623138427734 3.5763070583343506
32.81032943725586 23.136526107788086 3.5718698501586914
32.898292541503906 22.89768409729004 3.56787109375
32.675636291503906 19.6119327545166 3.526987075805664
32.79273986816406 19.409589767456055 3.5228822231292725
32.89822769165039 19.20049476623535 3.518796443939209
45.378623962402344 25.74347686767578 3.4653027057647705
45.05302810668945 25.194705963134766 3.461414098739624
45.06571960449219 24.840139389038086 3.456279754638672
44.97646713256836 24.432424545288086 3.4515597820281982
44.74285888671875 23.95123291015625 3.4474618434906006
44.642154693603516 23.5461483001709 3.442856550216675
44.48670196533203 23.1164608001709 3.438516139984131
44.36149597167969 22.706886291503906 3.434080123901367
44.24455642700195 22.30557632446289 3.429638147354126
44.00972366333008 21.849641799926758 3.425778865814209
43.958740234375 21.489219665527344 3.4210894107818604
43.73019027709961 21.04612159729004 3.4172892570495605
43.662349700927734 20.684558868408203 3.4127326011657715
43.49837112426758 20.281103134155273 3.408687114715576
43.36381530761719 19.895450592041016 3.404524564743042
43.23985290527344 19.518388748168945 3.400336503982544
43.101932525634766 19.13873291015625 3.396252393722534
42.95273971557617 18.757904052734375 3.3922629356384277
42.847373962402344 18.39975357055664 3.3880555629730225
42.718971252441406 18.035049438476562 3.384005546569824
42.59510040283203 17.675682067871094 3.3799564838409424
42.50362014770508 17.332866668701172 3.3757364749908447
42.33064651489258 16.960227966308594 3.3720386028289795
42.2496223449707 16.627723693847656 3.367799997329712
42.08310317993164 16.264766693115234 3.3641233444213867
41.98945999145508 15.933222770690918 3.3600075244903564
41.897090911865234 15.604835510253906 3.3559012413024902
41.75343704223633 15.260333061218262 3.352156400680542
41.673038482666016 14.94180965423584 3.3480091094970703
41.540306091308594 14.607267379760742 3.344238519668579
41.388031005859375 14.269052505493164 3.3406310081481934
41.281494140625 13.9495849609375 3.3367254734039307
41.177345275878906 13.633535385131836 3.332822322845459
41.0784912109375 13.321758270263672 3.328897476196289
40.913509368896484 12.991433143615723 3.3254857063293457
40.841522216796875 12.693312644958496 3.321396827697754
40.73011016845703 12.385222434997559 3.3176233768463135
40.59154510498047 12.071565628051758 3.3140814304351807
40.555335998535156 11.790508270263672 3.309748888015747
40.402740478515625 11.477829933166504 3.3063583374023438
40.35865020751953 11.19821548461914 3.30210542678833
40.18911361694336 10.88611125946045 3.2988975048065186
40.34984588623047 10.664409637451172 3.2929396629333496
40.888938903808594 10.538984298706055 3.2837061882019043
41.33295440673828 10.383464813232422 3.275163412094116
41.77852249145508 10.223365783691406 3.2664949893951416
42.233402252197266 10.060504913330078 3.25763201713562
42.709259033203125 9.897409439086914 3.2484641075134277
43.183719635009766 9.728631973266602 3.239189386367798
43.65476989746094 9.553759574890137 3.229825258255005
44.15364456176758 9.379497528076172 3.2200798988342285
44.688236236572266 9.20693588256836 3.209867477416992
44.9085693359375 8.965517044067383 3.2025299072265625
44.929290771484375 8.6834077835083 3.1970627307891846
44.96986389160156 8.405424118041992 3.1913833618164062
44.84242248535156 8.09723949432373 3.1873481273651123
45.008426666259766 7.842432022094727 3.1803808212280273
45.03985595703125 7.563534259796143 3.174729585647583
45.06560516357422 7.283908367156982 3.1691136360168457
45.10247039794922 7.0062456130981445 3.1633617877960205
45.13267135620117 6.727666854858398 3.157655954360962
45.15719985961914 6.448416709899902 3.151986837387085
45.18000030517578 6.169117450714111 3.146315336227417
45.2080078125 5.89068603515625 3.1405651569366455
45.242244720458984 5.613127708435059 3.1347219944000244
45.27775192260742 5.335721492767334 3.1288397312164307
45.304603576660156 5.057314395904541 3.1230294704437256
45.31880187988281 4.77762508392334 3.117338180541992
45.34321212768555 4.499135971069336 3.1115078926086426
45.374874114990234 4.22136116027832 3.1055684089660645
45.4028434753418 3.9431934356689453 3.0996460914611816
45.42411422729492 3.6644389629364014 3.093775510787964
45.454654693603516 3.3863892555236816 3.087769031524658
12.49984359741211 0.8538761138916016 3.481304407119751
45.516597747802734 2.829960823059082 3.07566237449646
45.537025451660156 2.5509142875671387 3.0696964263916016
45.566734313964844 2.2722713947296143 3.063586473464966
13.073393821716309 0.5712628960609436 3.4677798748016357
13.035669326782227 0.48951485753059387 3.4666006565093994
13.234296798706055 0.4156985282897949 3.4623823165893555
13.298555374145508 0.33607420325279236 3.459853172302246
12.379597663879395 0.23684284090995789 3.470207929611206
45.72803497314453 0.5953818559646606 3.0265235900878906
45.74575424194336 0.31496039032936096 3.0203611850738525
12.613787651062012 0.009166178293526173 3.4622302055358887
12.312623023986816 -0.06659440696239471 3.4646918773651123
45.81956100463867 -0.5277901887893677 3.0014092922210693
12.327840805053711 -0.2179475575685501 3.4612412452697754
12.031367301940918 -0.28655415773391724 3.4637720584869385
12.940865516662598 -0.38762757182121277 3.449279546737671
13.436848640441895 -0.48498648405075073 3.440453052520752
13.343690872192383 -0.5636094808578491 3.4399948120117188
12.895528793334961 -0.6239643692970276 3.4447288513183594
13.41660213470459 -0.7316827178001404 3.435314416885376
12.774083137512207 -0.7752856612205505 3.4430289268493652
12.87581729888916 -0.860765278339386 3.439756393432617
12.786507606506348 -0.9336206912994385 3.4393372535705566
12.793478012084961 -1.0130661725997925 3.4374639987945557
46.17173385620117 -3.9402339458465576 2.921621322631836
13.373491287231445 -1.2242549657821655 3.4248881340026855
11.730693817138672 -1.1465264558792114 3.448772668838501
11.993929862976074 -1.2465711832046509 3.442953109741211
12.124185562133789 -1.3353335857391357 3.439173698425293
12.730521202087402 -1.4811917543411255 3.4276797771453857
12.747969627380371 -1.5625412464141846 3.425571918487549
12.757954597473145 -1.6432667970657349 3.423571825027466
13.68795394897461 -1.8484553098678589 3.4063427448272705
13.598118782043457 -1.9213390350341797 3.4058477878570557
12.709661483764648 -1.8754278421401978 3.418809413909912
43.111942291259766 -6.6310505867004395 2.900763988494873
43.101959228515625 -6.900447845458984 2.894547462463379
12.752817153930664 -2.122288227081299 3.41241455078125
12.757267951965332 -2.2035415172576904 3.4104256629943848
12.761202812194824 -2.2849292755126953 3.408432960510254
12.731191635131836 -2.360252618789673 3.407029390335083
12.7576904296875 -2.4462125301361084 3.4046130180358887
12.775766372680664 -2.5310323238372803 3.4023287296295166
12.763893127441406 -2.610157012939453 3.400571346282959
12.77794361114502 -2.6948015689849854 3.398329496383667
33.935543060302734 -7.373870849609375 3.004915475845337
12.752649307250977 -2.8533291816711426 3.394792318344116
33.7653923034668 -7.771936416625977 2.997400999069214
33.92424392700195 -8.027958869934082 2.989003896713257
33.98794937133789 -8.263545036315918 2.9823412895202637
34.028690338134766 -8.494887351989746 2.9760658740997314
34.097896575927734 -8.734732627868652 2.969186782836914
34.06389617919922 -8.94906997680664 2.964272975921631
34.13378143310547 -9.191656112670898 2.9572770595550537
34.23280715942383 -9.443943977355957 2.9496378898620605
34.33001708984375 -9.697792053222656 2.9419639110565186
34.04696273803711 -9.843777656555176 2.9419314861297607
34.376060485839844 -10.167860984802246 2.929431438446045
34.00863265991211 -10.286500930786133 2.9311468601226807
34.026947021484375 -10.520322799682617 2.9249231815338135
33.99028396606445 -10.737893104553223 2.9198031425476074
33.984580993652344 -10.96584701538086 2.913998603820801
33.984004974365234 -11.196325302124023 2.9080443382263184
33.97050094604492 -11.423383712768555 2.902323007583618
33.984806060791016 -11.66075611114502 2.8959579467773438
34.00407409667969 -11.901046752929688 2.889434576034546
33.951995849609375 -12.117142677307129 2.884430170059204
34.02725601196289 -12.379878044128418 2.8765676021575928
33.999324798583984 -12.606451988220215 2.8709423542022705
44.11004638671875 -16.66377830505371 2.6362357139587402
44.1486930847168 -16.988624572753906 2.627122640609741
44.137535095214844 -17.29596710205078 2.6190738677978516
44.215267181396484 -17.640117645263672 2.608905076980591
44.20613098144531 -17.95163917541504 2.6006667613983154
44.2548942565918 -18.288532257080078 2.5909993648529053
44.2891960144043 -18.621660232543945 2.5815865993499756
44.315555572509766 -18.953535079956055 2.5722784996032715
29.727785110473633 -12.930879592895508 2.915483236312866
29.661523818969727 -13.119060516357422 2.911172389984131
44.45306396484375 -19.98802947998047 2.542418956756592
44.45768356323242 -20.31893539428711 2.5332963466644287
44.488922119140625 -20.664127349853516 2.5234291553497314
44.48413848876953 -20.99467658996582 2.5143775939941406
34.44718551635742 -16.516923904418945 2.7595441341400146
34.352294921875 -16.73142433166504 2.7547404766082764
34.39406967163086 -17.01364517211914 2.7463901042938232
34.27107620239258 -17.21533203125 2.7422373294830322
34.15580368041992 -17.420696258544922 2.737868309020996
34.106773376464844 -17.660226821899414 2.73173189163208
34.13573455810547 -17.94167137145996 2.7234699726104736
34.42978286743164 -18.36670684814453 2.708005905151367
34.36997604370117 -18.606595993041992 2.7019214630126953
34.248939514160156 -18.813711166381836 2.697463035583496
30.570789337158203 -17.038267135620117 2.79093337059021
30.319387435913086 -17.1428165435791 2.790874719619751
34.33537292480469 -19.692432403564453 2.671382427215576
34.42205810546875 -20.023826599121094 2.6608731746673584
34.39144515991211 -20.289464950561523 2.6535823345184326
34.50127029418945 -20.640676498413086 2.6421921253204346
34.445674896240234 -20.895479202270508 2.6354544162750244
34.42060089111328 -21.170278549194336 2.6277682781219482
34.44858932495117 -21.479936599731445 2.618445873260498
34.31520080566406 -21.69031524658203 2.6138124465942383
34.433048248291016 -22.06165313720703 2.6016340255737305
34.50905227661133 -22.410207748413086 2.5905680656433105
34.455970764160156 -22.67753028869629 2.5833001136779785
34.41836929321289 -22.956693649291992 2.5754899978637695
34.4051399230957 -23.254159927368164 2.566847324371338
34.68976593017578 -23.757932662963867 2.5488061904907227
34.74034881591797 -24.107059478759766 2.5378873348236084
30.11838722229004 -21.174808502197266 2.6753623485565186
34.80402755737305 -24.789522171020508 2.5168557167053223
34.854637145996094 -25.149368286132812 2.5055456161499023
34.83757019042969 -25.463573455810547 2.496304750442505
34.843658447265625 -25.797544479370117 2.486199378967285
34.8741455078125 -26.152936935424805 2.4751648902893066
34.8928108215332 -26.503019332885742 2.4643917083740234
34.894229888916016 -26.843339920043945 2.454071044921875
34.918800354003906 -27.20494270324707 2.442837953567505
34.850772857666016 -27.49726676940918 2.4346487522125244
34.815608978271484 -27.817855834960938 2.4252333641052246
34.68922424316406 -28.067367553710938 2.4189019203186035
34.65387725830078 -28.392398834228516 2.4093031883239746
34.85663986206055 -28.91781997680664 2.3911101818084717
34.85524368286133 -29.27961540222168 2.3799872398376465
34.87278747558594 -29.661264419555664 2.368037223815918
34.899070739746094 -30.054656982421875 2.3556108474731445
34.886417388916016 -30.418607711791992 2.3444571495056152
34.93879699707031 -30.84372901916504 2.330737829208374
34.8560905456543 -31.15339469909668 2.321908712387085
34.90727233886719 -31.586606979370117 2.307896137237549
34.90874099731445 -31.979747772216797 2.2955923080444336
34.82167434692383 -32.29524230957031 2.286543846130371
34.86977005004883 -32.74018478393555 2.2721149921417236
32.326297760009766 23.988168716430664 3.3489441871643066
32.53250503540039 23.833145141601562 3.3443799018859863
32.47631072998047 23.487211227416992 3.342123031616211
32.48546600341797 23.191675186157227 3.339277744293213
32.62545394897461 22.99080467224121 3.335231065750122
32.70674133300781 22.749122619628906 3.3316938877105713
32.75990676879883 22.48919677734375 3.328396797180176
32.656307220458984 22.124588012695312 3.3265535831451416
32.56611251831055 21.77322006225586 3.3245925903320312
32.61222457885742 21.515764236450195 3.3213396072387695
32.78211212158203 21.34039878845215 3.3168768882751465
33.05455780029297 21.230228424072266 3.3113791942596436
32.656227111816406 20.692527770996094 3.312408208847046
33.127620697021484 20.707542419433594 3.304889440536499
32.869266510009766 20.266706466674805 3.3045666217803955
32.679386138916016 19.873992919921875 3.30359148979187
32.79207229614258 19.668006896972656 3.2995662689208984
32.63407897949219 19.30204200744629 3.2982873916625977
32.74491882324219 19.097455978393555 3.294248580932617
32.79553985595703 18.858341217041016 3.29080867767334
32.68091583251953 18.526607513427734 3.289088487625122
32.905643463134766 18.388221740722656 3.283780336380005
32.756778717041016 18.042245864868164 3.282419443130493
33.4626350402832 18.16442108154297 3.2718563079833984
44.67424774169922 23.897201538085938 3.1468846797943115
44.65010070800781 23.533178329467773 3.1431009769439697
44.51491165161133 23.114133834838867 3.140536069869995
44.327308654785156 22.672597885131836 3.1385672092437744
44.232418060302734 22.28282356262207 3.1355767250061035
44.01259994506836 21.834632873535156 3.1340057849884033
43.93272018432617 21.460208892822266 3.1308627128601074
43.776912689208984 21.052486419677734 3.1285946369171143
43.69097900390625 20.682144165039062 3.12553071975708
43.49248123168945 20.26255226135254 3.123785972595215
43.38956832885742 19.891605377197266 3.1209356784820557
43.22450256347656 19.49595832824707 3.1188302040100098
43.085472106933594 19.116071701049805 3.1164276599884033
42.964500427246094 18.74782371520996 3.1138198375701904
42.85901641845703 18.38966941833496 3.111030101776123
42.75260925292969 18.0342960357666 3.108258008956909
42.56032943725586 17.646453857421875 3.1065523624420166
42.48066329956055 17.308820724487305 3.1034648418426514
42.33719253540039 16.948301315307617 3.1011781692504883
42.22255325317383 16.602638244628906 3.098538875579834
42.137916564941406 16.271631240844727 3.0955233573913574
41.98255920410156 15.916410446166992 3.0934174060821533
41.90410232543945 15.59335708618164 3.090329170227051
41.71806335449219 15.233449935913086 3.088644027709961
41.64686965942383 14.918571472167969 3.08547043800354
41.46867370605469 14.56834888458252 3.083709955215454
41.40498733520508 14.261259078979492 3.0804412364959717
41.27941131591797 13.93535041809082 3.07800030708313
41.19127655029297 13.624710083007812 3.0750603675842285
41.067596435546875 13.304889678955078 3.072605848312378
40.96919250488281 12.995870590209961 3.0698115825653076
40.81984329223633 12.673439025878906 3.0677244663238525
40.743675231933594 12.37629222869873 3.0646305084228516
40.59638977050781 12.060054779052734 3.0625319480895996
40.52070236206055 11.767566680908203 3.059433698654175
40.41313934326172 11.467998504638672 3.0567872524261475
40.34872055053711 11.182748794555664 3.0535244941711426
40.195465087890625 10.875216484069824 3.051541805267334
40.462440490722656 10.68152904510498 3.0434510707855225
40.898963928222656 10.528849601745605 3.0327985286712646
41.31282043457031 10.365615844726562 3.022369623184204
41.76408004760742 10.20695686340332 3.0112767219543457
42.243133544921875 10.049860000610352 2.999650716781616
42.70428466796875 9.883206367492676 2.9881722927093506
43.166908264160156 9.711709022521973 2.9765515327453613
43.63292694091797 9.535757064819336 2.964756488800049
44.153167724609375 9.366069793701172 2.952003002166748
44.670013427734375 9.189749717712402 2.9391660690307617
44.87157440185547 8.944684028625488 2.9311232566833496
44.92845916748047 8.669824600219727 2.925290107727051
44.96891784667969 8.391853332519531 2.9196815490722656
44.831512451171875 8.081953048706055 2.9168806076049805
45.00723648071289 7.828895092010498 2.9090492725372314
45.03657150268555 7.549681663513184 2.90352463722229
45.06615447998047 7.270719528198242 2.897963285446167
45.10092544555664 6.9927520751953125 2.8922855854034424
45.12211227416992 6.712864398956299 2.8867976665496826
45.14552688598633 6.433544158935547 2.881241798400879
45.17414093017578 6.155134201049805 2.8755667209625244
45.202030181884766 5.876743793487549 2.869870662689209
45.23416519165039 5.5989789962768555 2.864068031311035
45.25266647338867 5.319639682769775 2.858464479446411
45.29130935668945 5.042718410491943 2.852480411529541
45.32029724121094 4.76468563079834 2.846627712249756
45.3455924987793 4.486289978027344 2.8408031463623047
45.379127502441406 4.208686351776123 2.83479905128479
45.39702224731445 3.9296317100524902 2.829033851623535
45.34941482543945 3.6453866958618164 2.824401617050171
45.444610595703125 3.3726065158843994 2.817188262939453
12.51297664642334 0.8505961894989014 3.406700611114502
12.555855751037598 0.7761690020561218 3.4043848514556885
45.52961349487305 2.5374855995178223 2.7988975048065186
45.54022979736328 2.2579455375671387 2.793050527572632
45.57908630371094 1.9796723127365112 2.786644697189331
19.49099349975586 0.726105272769928 3.2685134410858154
19.228214263916016 0.5982087850570679 3.270996332168579
13.009547233581543 0.32447415590286255 3.3863577842712402
12.959284782409668 0.2436804473400116 3.3856542110443115
45.723793029785156 0.5823221802711487 2.754918098449707
12.563325881958008 0.08203428238630295 3.3899669647216797
12.610557556152344 0.004987999796867371 3.38741397857666
12.250398635864258 -0.07033928483724594 3.39281964302063
12.316692352294922 -0.14627502858638763 3.389899969100952
12.316535949707031 -0.22184516489505768 3.3882720470428467
12.129007339477539 -0.2929239869117737 3.3903791904449463
12.065997123718262 -0.3654818534851074 3.3900210857391357
11.879658699035645 -0.4328131675720215 3.3921680450439453
11.970650672912598 -0.5096670389175415 3.388700008392334
13.436226844787598 -0.6545110940933228 3.3569791316986084
13.128446578979492 -0.7202991843223572 3.36149263381958
12.822375297546387 -0.7824582457542419 3.366044282913208
46.05930709838867 -3.0911827087402344 2.668165445327759
12.772862434387207 -0.9368612766265869 3.363506555557251
46.11534118652344 -3.66378116607666 2.654027223587036
12.882871627807617 -1.103981614112854 3.35754132270813
13.318861961364746 -1.2236508131027222 3.346322774887085
11.818565368652344 -1.1591087579727173 3.3768935203552246
12.084660530090332 -1.2600711584091187 3.36938214302063
12.515900611877441 -1.3826576471328735 3.3581573963165283
11.774293899536133 -1.373966932296753 3.3727030754089355
12.821422576904297 -1.575831651687622 3.347676992416382
42.9411735534668 -5.542431354522705 2.671480178833008
12.801060676574707 -1.7330116033554077 3.3443081378936768
12.762438774108887 -1.8075820207595825 3.3432536125183105
12.78766918182373 -1.8912454843521118 3.3407390117645264
13.555392265319824 -2.089768648147583 3.321131467819214
13.537345886230469 -2.172091007232666 3.3194613456726074
13.520771026611328 -2.2545998096466064 3.3177473545074463
13.622892379760742 -2.3576042652130127 3.313239336013794
29.392107009887695 -5.271125793457031 2.938704013824463
13.571244239807129 -2.5205438137054443 3.310164213180542
13.012557029724121 -2.499509811401367 3.321368455886841
29.60366439819336 -5.873348712921143 2.919527292251587
33.72356414794922 -6.905858993530273 2.814797878265381
33.709808349609375 -7.118795394897461 2.80962872505188
33.740623474121094 -7.3418121337890625 2.8033275604248047
33.76313400268555 -7.5639448165893555 2.7971792221069336
12.701127052307129 -2.928156852722168 3.316333293914795
33.755130767822266 -7.998334884643555 2.7860617637634277
33.8626823425293 -8.243549346923828 2.7776241302490234
33.880226135253906 -8.468327522277832 2.7713916301727295
33.83915328979492 -8.67897891998291 2.7666091918945312
33.852848052978516 -8.904192924499512 2.7603845596313477
34.05519104003906 -9.181158065795898 2.749213695526123
34.041481018066406 -9.401864051818848 2.7435672283172607
34.000370025634766 -9.61540412902832 2.7385990619659424
33.94639587402344 -9.825457572937012 2.7339367866516113
33.92371368408203 -10.04486083984375 2.7284109592437744
33.949363708496094 -10.279419898986816 2.721546173095703
33.91802215576172 -10.497529029846191 2.716160774230957
33.9310302734375 -10.730107307434082 2.709529399871826
33.99097442626953 -10.97890853881836 2.701554298400879
34.00166702270508 -11.213193893432617 2.6948623657226562
33.942543029785156 -11.425065994262695 2.6900508403778076
34.05417251586914 -11.69572639465332 2.6804332733154297
34.02128982543945 -11.91828441619873 2.6747846603393555
33.99824905395508 -12.144913673400879 2.668813467025757
34.051673889160156 -12.400094985961914 2.660611629486084
34.164154052734375 -12.678993225097656 2.65063214302063
34.32123565673828 -12.97741413116455 2.6392571926116943
34.33507537841797 -13.223989486694336 2.6319336891174316
34.32390594482422 -13.46209716796875 2.6252779960632324
34.32781982421875 -13.70723819732666 2.6181178092956543
34.35501480102539 -13.963094711303711 2.610198497772217
34.36741638183594 -14.214449882507324 2.602647542953491
34.39185333251953 -14.472297668457031 2.5946624279022217
34.36937713623047 -14.71170711517334 2.5880255699157715
29.706653594970703 -12.93225383758545 2.723383903503418
34.4218635559082 -15.236632347106934 2.571573257446289
34.44429397583008 -15.499999046325684 2.5633432865142822
34.425697326660156 -15.746337890625 2.5563151836395264
34.41714859008789 -15.998505592346191 2.548905849456787
34.3697395324707 -16.233659744262695 2.5426602363586426
34.36850357055664 -16.49175262451172 2.5348854064941406
34.367191314697266 -16.751314163208008 2.5270369052886963
34.354122161865234 -17.006603240966797 2.519493818283081
34.28651809692383 -17.23587417602539 2.513657808303833
34.19157409667969 -17.451778411865234 2.5086731910705566
34.105918884277344 -17.672685623168945 2.5033442974090576
34.133846282958984 -17.953685760498047 2.49418568611145
34.30950164794922 -18.31570816040039 2.479966163635254
34.31324768066406 -18.589149475097656 2.4713938236236572
34.24309539794922 -18.82383918762207 2.4652516841888428
30.69692039489746 -17.12071418762207 2.578448534011841
30.2553768157959 -17.11870574951172 2.5859320163726807
34.323036193847656 -19.69904327392578 2.436380386352539
34.32406234741211 -19.980621337890625 2.4274449348449707
34.46494674682617 -20.34678840637207 2.413465738296509
34.466251373291016 -20.63380241394043 2.404289960861206
34.44140625 -20.907073974609375 2.395953416824341
34.47748565673828 -21.219579696655273 2.3853261470794678
34.387210845947266 -21.456069946289062 2.3791818618774414
34.471885681152344 -21.803913116455078 2.3665575981140137
34.41556930541992 -22.065128326416016 2.3589978218078613
34.51910400390625 -22.431581497192383 2.345400094985962
34.426597595214844 -22.673141479492188 2.3389999866485596
34.447147369384766 -22.990978240966797 2.328258752822876
34.629852294921875 -23.421342849731445 2.3112034797668457
34.679931640625 -23.766666412353516 2.2990241050720215
34.72624206542969 -24.1129150390625 2.2868402004241943
30.07154655456543 -21.155689239501953 2.4581377506256104
34.807559967041016 -24.808019638061523 2.262465000152588
34.80689239501953 -25.131057739257812 2.251690149307251
34.8382568359375 -25.480388641357422 2.239504098892212
34.84414291381836 -25.814390182495117 2.2281923294067383
34.85203552246094 -26.15301513671875 2.216661214828491
34.86264419555664 -26.49694061279297 2.2048749923706055
34.887760162353516 -26.85538673400879 2.1923422813415527
34.898746490478516 -27.20652961730957 2.180236577987671
34.88632583618164 -27.542713165283203 2.1689586639404297
34.828941345214844 -27.8460636138916 2.1594414710998535
34.7054328918457 -28.098176956176758 2.1526315212249756
34.71540832519531 -28.46070671081543 2.140012502670288
34.814510345458984 -28.901016235351562 2.123363494873047
34.61341857910156 -29.094738006591797 2.1196048259735107
34.846614837646484 -29.6575927734375 2.096681594848633
34.78269958496094 -29.973217010498047 2.0866262912750244
34.931602478027344 -30.477081298828125 2.0669045448303223
34.913822174072266 -30.840974807739258 2.0544278621673584
34.77293395996094 -31.098529815673828 2.0473954677581787
34.89765930175781 -31.597671508789062 2.0280752182006836
34.99028778076172 -32.07451248168945 2.0099549293518066
34.87617492675781 -32.36604690551758 2.0012388229370117
34.92660140991211 -32.8140869140625 1.9846527576446533
36.90564727783203 28.78795623779297 3.043186664581299
37.077518463134766 28.557971954345703 3.0386548042297363
37.484920501708984 28.14596939086914 3.028423309326172
32.582698822021484 24.153682708740234 3.105828046798706
32.204917907714844 23.568893432617188 3.110285758972168
32.29047393798828 23.32872772216797 3.107213258743286
32.426395416259766 23.125564575195312 3.1032843589782715
32.31494903564453 22.74834632873535 3.103369951248169
32.37007141113281 22.491485595703125 3.1007044315338135
32.487579345703125 22.278919219970703 3.0969791412353516
32.423187255859375 21.94357681274414 3.096226930618286
32.47480392456055 21.689285278320312 3.093531370162964
32.485286712646484 21.40932273864746 3.0914905071258545
32.51536178588867 21.14422607421875 3.089097738265991
32.643550872802734 20.94382667541504 3.0850305557250977
32.58210372924805 20.623388290405273 3.084118604660034
32.699459075927734 20.41783332824707 3.0801680088043213
32.66567611694336 20.11931610107422 3.0787439346313477
32.49188995361328 19.738401412963867 3.079683780670166
32.6174430847168 19.541793823242188 3.075507164001465
32.677242279052734 19.306241989135742 3.0724196434020996
32.75265884399414 19.080760955810547 3.0690317153930664
32.43118667602539 18.627967834472656 3.072470188140869
32.59785461425781 18.45872688293457 3.067460775375366
32.62397384643555 18.210163116455078 3.0648529529571533
32.703460693359375 17.992340087890625 3.061285972595215
32.86940383911133 17.82189178466797 3.0561699867248535
33.27787780761719 17.78014373779297 3.0467357635498047
44.65610885620117 23.509244918823242 2.8432445526123047
44.550865173339844 23.105958938598633 2.8420095443725586
44.34708786010742 22.65617561340332 2.8425142765045166
44.237735748291016 22.25920867919922 2.8413279056549072
44.056209564208984 21.83025550842285 2.841423988342285
43.931297302246094 21.43375015258789 2.8404934406280518
43.79688262939453 21.036569595336914 2.839723825454712
43.64027786254883 20.632877349853516 2.8393471240997314
43.486724853515625 20.234851837158203 2.8389089107513428
43.374488830566406 19.85988998413086 2.8377058506011963
43.262943267822266 19.48871421813965 2.836477279663086
43.08632278442383 19.09210968017578 2.836439371109009
42.98072052001953 18.73076629638672 2.835080623626709
42.83187484741211 18.35411262512207 2.834515333175659
42.767578125 18.016876220703125 2.8323609828948975
42.56773376464844 17.62602996826172 2.832735300064087
42.458251953125 17.276384353637695 2.831406831741333
42.33959197998047 16.926149368286133 2.83024001121521
42.255470275878906 16.592641830444336 2.828406810760498
42.06623840332031 16.22123146057129 2.8285679817199707
42.01805114746094 15.907292366027832 2.826021671295166
41.881378173828125 15.562512397766113 2.825161933898926
41.737369537353516 15.218299865722656 2.824437379837036
41.65944290161133 14.90102481842041 2.822423219680786
41.48108673095703 14.550858497619629 2.822355031967163
41.41630554199219 14.243444442749023 2.8200600147247314
41.253623962402344 13.905112266540527 2.8196773529052734
41.207977294921875 13.6088285446167 2.8169760704040527
41.06608963012695 13.283160209655762 2.8161678314208984
40.955116271972656 12.97031307220459 2.8147389888763428
40.80747604370117 12.648672103881836 2.814035654067993
40.7684326171875 12.362995147705078 2.8111419677734375
40.6114387512207 12.043869972229004 2.8106136322021484
40.52888870239258 11.749415397644043 2.808570623397827
40.4163703918457 11.448522567749023 2.807126522064209
40.320960998535156 11.154786109924316 2.8053224086761475
40.198387145996094 10.855873107910156 2.804067373275757
40.429439544677734 10.652647018432617 2.795480728149414
40.89094161987305 10.506468772888184 2.782026529312134
41.31044387817383 10.344578742980957 2.7693309783935547
41.76057052612305 10.185516357421875 2.7558813095092773
42.220008850097656 10.023627281188965 2.742116689682007
42.69557571411133 9.860304832458496 2.727888345718384
43.17168426513672 9.691740036010742 2.71352219581604
43.616050720214844 9.510884284973145 2.6997084617614746
44.184024810791016 9.351232528686523 2.6831154823303223
44.65666961669922 9.1654634475708 2.6684329509735107
44.90509796142578 8.929776191711426 2.65848445892334
44.926517486572266 8.647908210754395 2.653400182723999
44.965824127197266 8.369772911071777 2.6478843688964844
44.89713668823242 8.072368621826172 2.6447019577026367
45.008731842041016 7.807742118835449 2.63751220703125
45.031002044677734 7.5273756980896 2.632246971130371
45.062381744384766 7.248776435852051 2.626737356185913
45.096988677978516 6.97083854675293 2.6211133003234863
45.122947692871094 6.691720962524414 2.6156396865844727
45.145206451416016 6.412265300750732 2.610206365585327
45.17168045043945 6.1335954666137695 2.6046361923217773
45.201385498046875 5.8554840087890625 2.5989480018615723
45.21846389770508 5.575891017913818 2.593505859375
45.24671936035156 5.297820568084717 2.5877630710601807
33.40324783325195 3.7030038833618164 2.8575403690338135
33.41429901123047 3.496882915496826 2.8534655570983887
33.430049896240234 3.291353464126587 2.8492491245269775
45.371517181396484 4.186933517456055 2.5640645027160645
45.39820861816406 3.9087040424346924 2.5581297874450684
45.368377685546875 3.625920534133911 2.553492546081543
45.46440887451172 3.353067398071289 2.5458130836486816
45.486976623535156 3.0743143558502197 2.539835214614868
45.49286651611328 2.794489622116089 2.534213066101074
12.591023445129395 0.6944530010223389 3.3272788524627686
45.55040740966797 2.237482786178589 2.5217227935791016
45.57012939453125 1.9583218097686768 2.5156261920928955
19.45782470703125 0.7154576182365417 3.153414249420166
12.04456615447998 0.3681279122829437 3.3345813751220703
12.028576850891113 0.2937934398651123 3.333460569381714
12.273000717163086 0.22448383271694183 3.3258168697357178
12.598983764648438 0.15319614112377167 3.316046953201294
12.653632164001465 0.07624118775129318 3.313040018081665
45.75213623046875 0.00034855687408708036 2.470463514328003
12.787495613098145 -0.07981861382722855 3.3063182830810547
12.955659866333008 -0.1603233367204666 3.3003125190734863
12.959390640258789 -0.23988592624664307 3.298491954803467
12.650832176208496 -0.31186458468437195 3.3047571182250977
12.74856185913086 -0.3925231099128723 3.3004989624023438
12.475152015686035 -0.4607645571231842 3.3059279918670654
12.124493598937988 -0.5223667621612549 3.3134536743164062
12.939751625061035 -0.6369008421897888 3.290184497833252
12.910608291625977 -0.7148873805999756 3.2891554832458496
12.82112979888916 -0.7888666391372681 3.289735794067383
12.836955070495605 -0.868914783000946 3.2874934673309326
12.851282119750977 -0.9491134881973267 3.2852725982666016
46.11198425292969 -3.6847784519195557 2.3789799213409424
13.235971450805664 -1.1408973932266235 3.2710413932800293
11.977461814880371 -1.106675386428833 3.303694248199463
12.017167091369629 -1.1847293376922607 3.3008313179016113
12.151803970336914 -1.273296594619751 3.295304775238037
12.71202564239502 -1.4107939004898071 3.2778375148773193
33.95372772216797 -3.9757866859436035 2.679433822631836
11.677767753601074 -1.44142484664917 3.3031814098358154
12.725421905517578 -1.6498714685440063 3.271649122238159
12.797231674194336 -1.739060640335083 3.267630100250244
13.801681518554688 -1.9617022275924683 3.2368078231811523
12.681901931762695 -1.8821508884429932 3.266947031021118
14.063950538635254 -2.1752986907958984 3.224837064743042
14.196354866027832 -2.2850184440612793 3.218724489212036
13.324280738830566 -2.2287206649780273 3.242016553878784
13.245308876037598 -2.299140453338623 3.242178440093994
13.243699073791504 -2.382646322250366 3.240053415298462
13.213064193725586 -2.460916042327881 3.238776445388794
12.783455848693848 -2.462207555770874 3.249457597732544
12.692577362060547 -2.5255699157714844 3.2500479221343994
12.619030952453613 -2.5915274620056152 3.250124931335449
33.73040771484375 -7.139551639556885 2.6040163040161133
33.729793548583984 -7.3559088706970215 2.5982136726379395
33.79119110107422 -7.586757659912109 2.590446949005127
33.75653839111328 -7.7968220710754395 2.585587739944458
33.878135681152344 -8.044145584106445 2.5758140087127686
33.92803955078125 -8.276204109191895 2.5681943893432617
33.914310455322266 -8.49363899230957 2.5625112056732178
33.668785095214844 -8.652022361755371 2.564136505126953
33.895233154296875 -8.932239532470703 2.5507285594940186
34.03941345214844 -9.193931579589844 2.5398244857788086
34.030399322509766 -9.415888786315918 2.5337579250335693
34.032447814941406 -9.641623497009277 2.527278423309326
34.03107833862305 -9.867179870605469 2.5208511352539062
34.00138854980469 -10.085125923156738 2.5152969360351562
33.90239715576172 -10.282486915588379 2.5119853019714355
33.93209457397461 -10.519257545471191 2.5043718814849854
34.055450439453125 -10.78695297241211 2.493553400039673
34.036041259765625 -11.01103401184082 2.487427234649658
34.04933166503906 -11.246564865112305 2.480140209197998
34.010807037353516 -11.465754508972168 2.4745471477508545
34.079566955566406 -11.722273826599121 2.4652295112609863
34.044593811035156 -11.944337844848633 2.4593942165374756
34.035465240478516 -12.176176071166992 2.4526093006134033
34.06139373779297 -12.421704292297363 2.4445383548736572
34.16990280151367 -12.6993408203125 2.433488607406616
34.34170150756836 -13.003543853759766 2.4200875759124756
34.31428909301758 -13.234455108642578 2.41361927986145
34.29928207397461 -13.470999717712402 2.406647205352783
34.345767974853516 -13.733086585998535 2.397395610809326
34.337554931640625 -13.974778175354004 2.390029191970825
34.33967208862305 -14.221856117248535 2.382213830947876
34.36122512817383 -14.478410720825195 2.3736088275909424
34.35152053833008 -14.723164558410645 2.3660671710968018
34.36667251586914 -14.979925155639648 2.357530355453491
34.39458465576172 -15.243903160095215 2.3484280109405518
34.41962814331055 -15.508376121520996 2.3393380641937256
34.4290885925293 -15.767486572265625 2.3307435512542725
34.405845642089844 -16.01296043395996 2.323303699493408
34.426971435546875 -16.280527114868164 2.314089298248291
34.39474105834961 -16.5242919921875 2.3068337440490723
34.3563346862793 -16.766080856323242 2.299746513366699
34.329673767089844 -17.014673233032227 2.292128801345825
34.292327880859375 -17.259082794189453 2.28485369682312
34.174957275390625 -17.463655471801758 2.280669927597046
34.07322311401367 -17.676183700561523 2.2758307456970215
34.18416213989258 -18.00079345703125 2.262423515319824
34.268592834472656 -18.31471061706543 2.249929904937744
34.364501953125 -18.63796043395996 2.236825704574585
34.233585357666016 -18.83973503112793 2.232844829559326
30.657413482666016 -17.117830276489258 2.370676279067993
30.247316360473633 -17.13319206237793 2.3791604042053223
34.18730163574219 -19.642719268798828 2.206254720687866
34.37596130371094 -20.03268051147461 2.188621997833252
34.46904754638672 -20.371288299560547 2.1748132705688477
34.335533142089844 -20.577720642089844 2.170490026473999
34.451011657714844 -20.93532943725586 2.155451774597168
34.45022201538086 -21.22540855407715 2.145249605178833
34.42936706542969 -21.50514793395996 2.1358025074005127
34.35401916503906 -21.752288818359375 2.1286327838897705
34.556148529052734 -22.17850112915039 2.109151601791382
34.510562896728516 -22.449445724487305 2.100419521331787
34.45793533325195 -22.71736717224121 2.091902732849121
34.440711975097656 -23.010465621948242 2.081695079803467
34.62557601928711 -23.44257164001465 2.062199592590332
34.70670700073242 -23.809410095214844 2.047187566757202
34.70667266845703 -24.123939514160156 2.035719156265259
30.03792953491211 -21.153676986694336 2.2405169010162354
34.80711364746094 -24.83284568786621 2.0076632499694824
34.784305572509766 -25.140121459960938 1.9968003034591675
34.817901611328125 -25.49114418029785 1.983129858970642
34.830020904541016 -25.82982635498047 1.9703091382980347
34.83049774169922 -26.163015365600586 1.9578837156295776
34.839324951171875 -26.505645751953125 1.9448941946029663
34.87374496459961 -26.871320724487305 1.9304866790771484
34.845890045166016 -27.19230842590332 1.918951153755188
34.88753890991211 -27.570960998535156 1.9038238525390625
34.84859848022461 -27.889333724975586 1.8925163745880127
34.6937141418457 -28.116413116455078 1.8868976831436157
34.67948532104492 -28.459270477294922 1.874086856842041
34.82143783569336 -28.935195922851562 1.8531221151351929
34.82655715942383 -29.302637100219727 1.8389065265655518
34.842166900634766 -29.68288803100586 1.8239513635635376
34.8377571105957 -30.05006980895996 1.809834361076355
34.89337158203125 -30.473520278930664 1.7923568487167358
34.90391540527344 -30.86237335205078 1.7770254611968994
34.857383728027344 -31.20451545715332 1.7645347118377686
34.89384460449219 -31.625080108642578 1.7473870515823364
34.96620559692383 -32.083736419677734 1.7280341386795044
34.94784927368164 -32.4642219543457 1.7133768796920776
34.94651412963867 -32.86484909057617 1.6975650787353516
32.3565788269043 30.1005916595459 2.8650152683258057
32.52359390258789 29.88597869873047 2.861424446105957
32.84244918823242 29.809553146362305 2.8541784286499023
32.3486213684082 29.00150489807129 2.8661458492279053
32.424774169921875 28.713041305541992 2.8645412921905518
32.72062683105469 28.61891746520996 2.8576762676239014
36.65574264526367 28.6507511138916 2.7632501125335693
37.00166702270508 28.55730438232422 2.7546281814575195
37.368492126464844 28.4764347076416 2.7454464435577393
32.71514892578125 24.614791870117188 2.855510950088501
32.342132568359375 24.024927139282227 2.863875389099121
32.21387481689453 23.624460220336914 2.866381883621216
32.21556091308594 23.32321548461914 2.865753650665283
32.353057861328125 23.12166976928711 2.861844301223755
32.3013801574707 22.786760330200195 2.8623993396759033
32.421592712402344 22.57504653930664 2.858808994293213
32.340187072753906 22.22511100769043 2.859989881515503
32.32357406616211 21.923049926757812 2.8595831394195557
32.35100555419922 21.653175354003906 2.8580806255340576
32.398868560791016 21.398664474487305 2.8560452461242676
32.285682678222656 21.040674209594727 2.8578338623046875
32.41994094848633 20.84600830078125 2.853640079498291
32.50405502319336 20.61943244934082 2.8506059646606445
32.5484733581543 20.368738174438477 2.848482847213745
32.557865142822266 20.097797393798828 2.8471643924713135
32.413150787353516 19.734962463378906 2.8495304584503174
32.2763671875 19.381357192993164 2.851677179336548
32.241432189941406 19.09232521057129 2.8513259887695312
32.39756393432617 18.917375564575195 2.8463006019592285
32.41933059692383 18.664411544799805 2.8444936275482178
32.47486114501953 18.432126998901367 2.841825008392334
32.381309509277344 18.117366790771484 2.8427541255950928
32.53639602661133 17.943010330200195 2.837575674057007
32.7669792175293 17.80896759033203 2.830498695373535
33.00947189331055 17.67937660217285 2.8230724334716797
33.10040283203125 17.467689514160156 2.819312810897827
44.492733001708984 23.13167953491211 2.5371530055999756
44.356910705566406 22.716583251953125 2.5383541584014893
44.15876770019531 22.274316787719727 2.5410616397857666
44.074180603027344 21.893604278564453 2.5409271717071533
43.9210319519043 21.482704162597656 2.5424580574035645
43.832069396972656 21.10704231262207 2.542360305786133
43.623619079589844 20.67804527282715 2.5452048778533936
43.50941848754883 20.298051834106445 2.545671224594116
43.35858917236328 19.904808044433594 2.5470211505889893
43.25469970703125 19.536815643310547 2.547166109085083
43.07301712036133 19.137563705444336 2.549234628677368
42.921966552734375 18.756093978881836 2.550507068634033
42.84227752685547 18.409168243408203 2.549949884414673
33.2034797668457 14.026920318603516 2.7915995121002197
33.215858459472656 13.79269027709961 2.789227247238159
33.22846603393555 13.559590339660645 2.786813497543335
33.25524139404297 13.333181381225586 2.7840027809143066
33.09538650512695 13.034055709838867 2.7859315872192383
33.14384460449219 12.81889533996582 2.782503366470337
41.9593391418457 15.933141708374023 2.553471326828003
41.8491325378418 15.598289489746094 2.5534579753875732
41.72513961791992 15.261271476745605 2.5537753105163574
41.66916275024414 14.95168685913086 2.5523037910461426
41.511009216308594 14.608187675476074 2.5534563064575195
41.4163703918457 14.290017127990723 2.5529325008392334
41.25405502319336 13.95146369934082 2.5541510581970215
41.166019439697266 13.640908241271973 2.5534048080444336
41.05005645751953 13.323628425598145 2.5533645153045654
40.95939254760742 13.017067909240723 2.5526340007781982
40.86555862426758 12.711822509765625 2.551959753036499
40.74849319458008 12.401817321777344 2.551875591278076
40.62150573730469 12.091447830200195 2.5520341396331787
33.83945083618164 9.84723949432373 2.729804515838623
33.858726501464844 9.62799072265625 2.726545810699463
