# .PCD v0.7 - Point Cloud Data file format
VERSION 0.7
FIELDS x y z
SIZE 4 4 4
TYPE F F F
COUNT 1 1 1
WIDTH 852
HEIGHT 1
VIEWPOINT 0 0 0 1 0 0 0
POINTS 852
DATA ascii
34.91421127319336 -30.405733108520508 0.3764362335205078
34.859046936035156 -30.736085891723633 0.359209805727005
34.934329986572266 -31.185815811157227 0.32937175035476685
34.70049285888672 -31.362051010131836 0.3285236358642578
34.96329116821289 -31.99180030822754 0.27999454736709595
34.964256286621094 -32.38936233520508 0.25603291392326355
35.05331802368164 -32.87411117553711 0.22312182188034058
34.97352600097656 -33.205257415771484 0.206247016787529
32.29985809326172 30.819095611572266 1.4928299188613892
32.38263702392578 30.52104949951172 1.4958080053329468
32.32261657714844 30.092472076416016 1.5080171823501587
32.45487976074219 29.8463134765625 1.507400393486023
32.50844192504883 29.529815673828125 1.5117899179458618
32.45303726196289 29.118398666381836 1.5230984687805176
32.41325759887695 28.726003646850586 1.5331820249557495
32.54050064086914 28.48453712463379 1.5322781801223755
32.579105377197266 28.167465209960938 1.5369527339935303
32.577842712402344 27.819211959838867 1.5440244674682617
32.588802337646484 27.48491668701172 1.5501388311386108
32.616092681884766 27.167518615722656 1.5550456047058105
32.59443283081055 26.8127498626709 1.5629045963287354
32.653385162353516 26.527292251586914 1.5654840469360352
32.6633186340332 26.204620361328125 1.5710190534591675
32.6666145324707 25.87972640991211 1.576815128326416
32.676605224609375 25.56316566467285 1.582034945487976
32.687110900878906 25.249900817871094 1.5870715379714966
32.71485900878906 24.952613830566406 1.590883493423462
32.69871520996094 24.624696731567383 1.5972883701324463
32.72627258300781 24.332481384277344 1.6008261442184448
32.749061584472656 24.039087295532227 1.604522943496704
32.530914306640625 23.573442459106445 1.6229761838912964
32.57555389404297 23.302562713623047 1.6250218152999878
32.660526275634766 23.061979293823242 1.6244620084762573
32.62004852294922 22.735002517700195 1.631489872932434
32.70927810668945 22.500520706176758 1.630431056022644
32.71092224121094 22.207456588745117 1.6346157789230347
32.73012161254883 21.92856788635254 1.6376007795333862
32.70048522949219 21.61943244934082 1.6434345245361328
32.714298248291016 21.34149932861328 1.6464965343475342
32.768768310546875 21.091779708862305 1.6469727754592896
32.780941009521484 20.816497802734375 1.6498982906341553
32.792667388916016 20.54292106628418 1.6527330875396729
32.75385284423828 20.240060806274414 1.6584980487823486
32.689537048339844 19.924419403076172 1.6656724214553833
32.61146545410156 19.6036434173584 1.673545479774475
32.80474090576172 19.447031021118164 1.665006399154663
32.85247039794922 19.20411491394043 1.665110468864441
32.85606384277344 18.936904907226562 1.6677519083023071
32.86369323730469 18.673831939697266 1.6700416803359985
32.810096740722656 18.378192901611328 1.6758776903152466
32.877384185791016 18.1519718170166 1.6743943691253662
32.98347854614258 17.947572708129883 1.6705039739608765
33.01350021362305 17.702442169189453 1.6710460186004639
33.017921447753906 17.44502067565918 1.6730077266693115
33.038143157958984 17.19743537902832 1.6739290952682495
33.04057693481445 16.942054748535156 1.6758040189743042
33.050045013427734 16.691795349121094 1.677162528038025
33.075565338134766 16.450950622558594 1.6774723529815674
33.07606506347656 16.19900131225586 1.6791645288467407
33.09091567993164 15.955471992492676 1.679911494255066
33.10943603515625 15.714940071105957 1.680345058441162
33.106353759765625 15.465482711791992 1.6819581985473633
33.13230514526367 15.2308349609375 1.6817653179168701
33.14752960205078 14.99233627319336 1.6821116209030151
33.10633850097656 14.729866027832031 1.6856839656829834
33.115325927734375 14.491286277770996 1.6862108707427979
33.130889892578125 14.25670337677002 1.6862599849700928
33.146663665771484 14.023250579833984 1.6862057447433472
33.18848419189453 13.801643371582031 1.6845327615737915
33.19186019897461 13.56494140625 1.6850285530090332
33.215824127197266 13.337644577026367 1.6842273473739624
33.102638244628906 13.057072639465332 1.6913846731185913
33.12041091918945 12.829968452453613 1.6907703876495361
33.5454216003418 12.758614540100098 1.6661856174468994
33.66303253173828 12.56762409210205 1.6595476865768433
33.712989807128906 12.351280212402344 1.656791090965271
33.72773361206055 12.122637748718262 1.656013011932373
33.74848175048828 11.896932601928711 1.6547963619232178
33.77056121826172 11.672408103942871 1.6534167528152466
33.7542724609375 11.435564041137695 1.6542013883590698
33.76667785644531 11.20942497253418 1.6532187461853027
33.780433654785156 10.984489440917969 1.6520729064941406
33.79555130004883 10.760713577270508 1.6507635116577148
33.805389404296875 10.535978317260742 1.6496806144714355
33.81373977661133 10.311524391174316 1.6486023664474487
33.799564361572266 10.081087112426758 1.6487631797790527
33.82984924316406 9.864625930786133 1.6462324857711792
33.839542388916016 9.6427001953125 1.64482843875885
33.839134216308594 9.418615341186523 1.6439363956451416
33.85555648803711 9.199872016906738 1.6419732570648193
33.85319519042969 8.976675033569336 1.641034483909607
33.86581039428711 8.758101463317871 1.6391336917877197
33.880889892578125 8.540685653686523 1.6370068788528442
33.89360427856445 8.323175430297852 1.6349387168884277
33.88648223876953 8.101417541503906 1.6339608430862427
33.90027618408203 7.885262489318848 1.6316677331924438
33.904911041259766 7.667479991912842 1.629837155342102
33.927650451660156 7.454220771789551 1.6268560886383057
33.93830871582031 7.238678932189941 1.6245099306106567
33.94955825805664 7.023690700531006 1.622048020362854
33.95945358276367 6.808835029602051 1.6195883750915527
33.97288131713867 6.595071792602539 1.616837978363037
33.96927261352539 6.378451347351074 1.6150211095809937
33.986873626708984 6.166220664978027 1.6118650436401367
34.01200485229492 5.955563068389893 1.6081804037094116
34.00432586669922 5.739510536193848 1.6063703298568726
34.017940521240234 5.527457237243652 1.6032122373580933
34.020381927490234 5.313911437988281 1.6006429195404053
34.020484924316406 5.100393772125244 1.5981354713439941
34.03802490234375 4.8897705078125 1.594504714012146
34.056243896484375 4.679394721984863 1.5907539129257202
34.0602912902832 4.467289447784424 1.5877734422683716
34.06500244140625 4.255557537078857 1.5846738815307617
34.07632827758789 4.044875144958496 1.5810976028442383
33.55168533325195 3.774064302444458 1.6097700595855713
33.51736831665039 3.562173843383789 1.6088389158248901
33.571109771728516 3.3597922325134277 1.60250985622406
33.62660598754883 3.157163619995117 1.5959885120391846
33.6480598449707 2.9511005878448486 1.5914441347122192
33.66228485107422 2.7444045543670654 1.587257981300354
33.6722526550293 2.5374186038970947 1.583250641822815
33.67796325683594 2.330205202102661 1.5794228315353394
33.67143630981445 2.1223254203796387 1.5762643814086914
33.66263198852539 1.9145547151565552 1.573168396949768
33.66450881958008 1.7075772285461426 1.5693416595458984
13.035459518432617 0.5808039903640747 2.8327763080596924
13.02271842956543 0.5002200603485107 2.832062005996704
13.020455360412598 0.4201681911945343 2.830674409866333
33.714168548583984 0.881656289100647 1.5506370067596436
33.734642028808594 0.6751574277877808 1.5452567338943481
33.74187088012695 0.4682725667953491 1.540613055229187
12.7589693069458 0.098531074821949 2.8405117988586426
33.75851058959961 0.054325420409440994 1.5309439897537231
12.679176330566406 -0.05763942748308182 2.8421666622161865
12.667508125305176 -0.13529545068740845 2.8411989212036133
33.79389953613281 -0.5675562024116516 1.5151633024215698
12.787424087524414 -0.293499231338501 2.8301806449890137
33.81378173828125 -0.9829555153846741 1.504451036453247
33.810829162597656 -1.1904902458190918 1.4997799396514893
33.82255935668945 -1.3986868858337402 1.494098424911499
12.584573745727539 -0.5980402231216431 2.835632085800171
13.004105567932129 -0.6979401707649231 2.80706787109375
12.848053932189941 -0.7686401009559631 2.8150129318237305
12.884819030761719 -0.8501936793327332 2.810659646987915
33.8818244934082 -2.4438023567199707 1.464331865310669
12.539917945861816 -0.9821048378944397 2.82867693901062
33.9034309387207 -2.8638880252838135 1.4519344568252563
33.8948860168457 -3.072697401046753 1.4468481540679932
12.74191665649414 -1.2342281341552734 2.8093554973602295
33.90668487548828 -3.4936962127685547 1.4345461130142212
13.348596572875977 -1.458497405052185 2.765500545501709
13.774481773376465 -1.5905894041061401 2.7353711128234863
33.9497184753418 -4.1308746337890625 1.413751244544983
13.19742202758789 -1.6883049011230469 2.7682271003723145
33.958221435546875 -4.555403232574463 1.4007339477539062
33.960975646972656 -4.768054962158203 1.3941841125488281
33.972267150878906 -4.98236083984375 1.3869743347167969
34.00883865356445 -5.201059341430664 1.377990484237671
33.99472427368164 -5.412550449371338 1.3722680807113647
34.003902435302734 -5.628139019012451 1.3649019002914429
34.00090026855469 -5.84218692779541 1.3582502603530884
29.266490936279297 -5.2138214111328125 1.6690890789031982
34.021263122558594 -6.2764153480529785 1.3428841829299927
34.05239486694336 -6.498447895050049 1.3336316347122192
34.02334213256836 -6.709517002105713 1.3283430337905884
33.95680236816406 -6.913111209869385 1.3255141973495483
33.9329948425293 -7.125370502471924 1.3197003602981567
33.93125534057617 -7.34266471862793 1.3122836351394653
33.9320182800293 -7.5610737800598145 1.3045916557312012
34.022796630859375 -7.800729274749756 1.290597677230835
34.03421401977539 -8.023468971252441 1.281938910484314
34.06938171386719 -8.252751350402832 1.2715208530426025
34.069129943847656 -8.474337577819824 1.2634432315826416
34.110939025878906 -8.707338333129883 1.2523201704025269
34.09711456298828 -8.927021026611328 1.2449636459350586
34.11848831176758 -9.156689643859863 1.235027551651001
34.1229362487793 -9.382725715637207 1.226163387298584
34.12012481689453 -9.607538223266602 1.2176960706710815
34.13117980957031 -9.837093353271484 1.2081295251846313
34.137821197509766 -10.066299438476562 1.198756217956543
34.1209602355957 -10.289332389831543 1.1909438371658325
34.1569938659668 -10.529291152954102 1.1792206764221191
34.16756820678711 -10.76258659362793 1.1691930294036865
34.15756607055664 -10.990297317504883 1.160528540611267
34.145103454589844 -11.21798038482666 1.1519241333007812
34.15477752685547 -11.453855514526367 1.1415870189666748
34.17416763305664 -11.694147109985352 1.1304062604904175
34.18057632446289 -11.93116283416748 1.1200401782989502
34.17127227783203 -12.163680076599121 1.1107025146484375
34.1397590637207 -12.38904857635498 1.1028848886489868
34.255531311035156 -12.669506072998047 1.0839908123016357
34.29912185668945 -12.925470352172852 1.070286512374878
34.30826187133789 -13.169931411743164 1.059003472328186
34.32218933105469 -13.417535781860352 1.0472166538238525
34.32416915893555 -13.661747932434082 1.0361840724945068
34.332759857177734 -13.90986156463623 1.024505376815796
34.34143829345703 -14.159355163574219 1.0126705169677734
34.37593460083008 -14.421056747436523 0.998705267906189
34.3580436706543 -14.662179946899414 0.9886017441749573
34.354957580566406 -14.910776138305664 0.9772151112556458
29.545433044433594 -13.039477348327637 1.3389610052108765
34.42811965942383 -15.447473526000977 0.9478008151054382
34.40406036376953 -15.691057205200195 0.9375730752944946
34.4353141784668 -15.961355209350586 0.922848641872406
34.4194221496582 -16.211376190185547 0.9116694927215576
34.44763946533203 -16.483760833740234 0.8968333005905151
34.47380065917969 -16.757099151611328 0.8819747567176819
34.488059997558594 -17.02652359008789 0.8678823113441467
34.46463394165039 -17.278871536254883 0.8566442131996155
34.41985321044922 -17.52161979675293 0.8469781279563904
34.35832595825195 -17.756683349609375 0.8385338187217712
34.445350646972656 -18.070423126220703 0.8178150653839111
34.424163818359375 -18.329647064208984 0.8057350516319275
34.42653274536133 -18.603038787841797 0.7915422320365906
30.83252716064453 -16.90633773803711 1.0755327939987183
30.823776245117188 -17.148475646972656 1.0633878707885742
34.57581329345703 -19.514726638793945 0.7359016537666321
34.5978889465332 -19.808204650878906 0.7192122936248779
34.56245803833008 -20.07063102722168 0.7071714401245117
34.56291580200195 -20.35563850402832 0.6919040679931641
34.60740661621094 -20.66901969909668 0.6726620197296143
34.606685638427734 -20.95787811279297 0.6570569276809692
34.57652282714844 -21.230810165405273 0.643783688545227
34.5697021484375 -21.519969940185547 0.628291130065918
34.59520721435547 -21.8316650390625 0.6097584962844849
34.55937576293945 -22.10686492919922 0.5963671803474426
34.60011672973633 -22.433443069458008 0.5760131478309631
34.61813735961914 -22.748207092285156 0.5574052929878235
34.54975509643555 -23.008209228515625 0.5462631583213806
34.739036560058594 -23.443384170532227 0.5117920637130737
34.76703643798828 -23.77423095703125 0.4914587140083313
34.74882507324219 -24.076200485229492 0.47504353523254395
34.75106430053711 -24.394882202148438 0.45652294158935547
34.8140754699707 -24.75957489013672 0.4321492910385132
34.7938117980957 -25.06825065612793 0.41514429450035095
34.826637268066406 -25.41816520690918 0.39295148849487305
34.80033493041992 -25.727930068969727 0.37597882747650146
34.83380126953125 -26.08494758605957 0.35312700271606445
34.84749221801758 -26.430686950683594 0.33182305097579956
34.86298370361328 -26.781217575073242 0.3100382089614868
34.84714126586914 -27.110889434814453 0.2909424901008606
34.794883728027344 -27.414833068847656 0.275076299905777
34.839962005615234 -27.798763275146484 0.24950751662254333
34.76295852661133 -28.088390350341797 0.2355014532804489
34.75625228881836 -28.43747329711914 0.21435365080833435
34.87401580810547 -28.89312171936035 0.18056099116802216
34.898868560791016 -29.276947021484375 0.15554016828536987
34.893707275390625 -29.63956642150879 0.13315407931804657
34.91790771484375 -30.03117561340332 0.10745926946401596
30.309297561645508 -28.774457931518555 0.3995007574558258
32.342811584472656 30.86157989501953 1.224045991897583
32.37281036376953 30.5132999420166 1.2318141460418701
32.320106506347656 30.09164810180664 1.245481014251709
32.443519592285156 29.837406158447266 1.2459288835525513
32.49260711669922 29.516983032226562 1.2516752481460571
32.44683074951172 29.114389419555664 1.26416015625
32.405574798583984 28.72075843811035 1.2760767936706543
32.55305480957031 28.49711036682129 1.2740826606750488
32.56078338623047 28.153217315673828 1.2820534706115723
32.57540512084961 27.8187313079834 1.289331078529358
32.58028030395508 27.47933578491211 1.2971162796020508
32.60908126831055 27.163301467895508 1.3029990196228027
32.611331939697266 26.82828140258789 1.3105963468551636
32.626983642578125 26.507482528686523 1.3170548677444458
32.64616394042969 26.1925048828125 1.3230866193771362
32.66349792480469 25.878910064697266 1.3290765285491943
32.681365966796875 25.56855010986328 1.3348580598831177
32.685604095458984 25.250402450561523 1.3414278030395508
32.70304870605469 24.945280075073242 1.3469038009643555
32.7108154296875 24.635488510131836 1.3528921604156494
32.71120071411133 24.322967529296875 1.3592292070388794
32.75246047973633 24.043277740478516 1.3625693321228027
32.52716064453125 23.572404861450195 1.3841968774795532
32.59859848022461 23.320737838745117 1.385117769241333
32.667354583740234 23.06850814819336 1.3860924243927002
32.67609786987305 22.775774002075195 1.3910562992095947
32.69317626953125 22.49115753173828 1.3953014612197876
32.684043884277344 22.190929412841797 1.4011934995651245
32.70647048950195 21.914443969726562 1.40478515625
32.71591567993164 21.631362915039062 1.409122347831726
32.73065185546875 21.35390281677246 1.4129611253738403
32.75749206542969 21.086261749267578 1.415844440460205
32.782283782958984 20.8190975189209 1.4187343120574951
32.81349563598633 20.557720184326172 1.4210624694824219
18.425718307495117 11.386491775512695 2.3936269283294678
18.415786743164062 11.224925994873047 2.396634817123413
18.40713882446289 11.06545639038086 2.3994805812835693
18.366313934326172 10.888185501098633 2.404405355453491
32.82725143432617 19.19114112854004 1.440340518951416
32.91294479370117 18.97146987915039 1.4382808208465576
32.88347625732422 18.686851501464844 1.4437838792800903
32.81256866455078 18.3813533782959 1.4519132375717163
32.87112045288086 18.150297164916992 1.4513109922409058
32.973670959472656 17.94403076171875 1.447684407234192
32.99135208129883 17.692365646362305 1.4495760202407837
33.01955032348633 17.447689056396484 1.450657606124878
33.02119445800781 17.19042205810547 1.4533816576004028
33.04846954345703 16.947914123535156 1.4543002843856812
33.06153869628906 16.699417114257812 1.456045150756836
33.070125579833984 16.450063705444336 1.457974910736084
33.07152557373047 16.198598861694336 1.4602652788162231
33.10075759887695 15.962045669555664 1.4606198072433472
33.09947967529297 15.712043762207031 1.4628692865371704
33.09638595581055 15.462656021118164 1.4651296138763428
33.12232208251953 15.22807788848877 1.4653822183609009
33.157535552978516 14.998700141906738 1.4649238586425781
33.113670349121094 14.734964370727539 1.4695332050323486
33.1190299987793 14.494746208190918 1.4708198308944702
33.139198303222656 14.262120246887207 1.4710370302200317
33.13937759399414 14.022010803222656 1.4724571704864502
33.176570892333984 13.79853630065918 1.4713633060455322
33.16884231567383 13.557381629943848 1.4730985164642334
33.20294189453125 13.334324836730957 1.4720103740692139
33.07585144042969 13.04835033416748 1.4813144207000732
33.11125183105469 12.828269004821777 1.4799429178237915
33.51557540893555 12.749144554138184 1.4544914960861206
33.65739440917969 12.567415237426758 1.4460220336914062
33.69983673095703 12.348362922668457 1.4439185857772827
33.72770690917969 12.124532699584961 1.4426671266555786
33.74657440185547 11.89816951751709 1.4419046640396118
33.746009826660156 11.66583251953125 1.4423089027404785
33.744815826416016 11.434268951416016 1.4426599740982056
33.754364013671875 11.20724868774414 1.4422187805175781
33.77000045776367 10.983009338378906 1.4412888288497925
33.77939224243164 10.757484436035156 1.4406718015670776
33.799686431884766 10.53611946105957 1.439253807067871
33.80898666381836 10.311997413635254 1.4384567737579346
33.804378509521484 10.084444999694824 1.4384725093841553
33.81645965576172 9.862648010253906 1.437312126159668
33.83381271362305 9.64299488067627 1.4357192516326904
33.833396911621094 9.418949127197266 1.4351887702941895
33.84114456176758 9.197888374328613 1.434038758277893
33.8513069152832 8.978107452392578 1.4326421022415161
33.861019134521484 8.758797645568848 1.4311847686767578
33.87899398803711 8.542145729064941 1.4291008710861206
33.88395690917969 8.322744369506836 1.4277743101119995
33.88943862915039 8.104066848754883 1.426324725151062
33.900325775146484 7.887216567993164 1.424435019493103
33.90496063232422 7.669435501098633 1.4228651523590088
33.92379379272461 7.455321311950684 1.4202805757522583
33.936397552490234 7.24022102355957 1.4180147647857666
33.94275665283203 7.024234294891357 1.4160680770874023
33.95752716064453 6.810402870178223 1.4134845733642578
33.96311569213867 6.5951313972473145 1.4114131927490234
33.96439743041992 6.379493236541748 1.4095368385314941
33.979042053222656 6.166759490966797 1.4066994190216064
33.99628829956055 5.954773902893066 1.4036026000976562
34.006309509277344 5.741809844970703 1.4008920192718506
34.01598358154297 5.529105186462402 1.3981173038482666
34.016441345214844 5.315263748168945 1.3958616256713867
34.01851272583008 5.102066993713379 1.3934139013290405
34.03011703491211 4.890605449676514 1.3902513980865479
34.04336929321289 4.679599761962891 1.3868924379348755
34.05235290527344 4.46822452545166 1.3837289810180664
34.0620002746582 4.257160663604736 1.380433201789856
34.076290130615234 4.04685115814209 1.376744031906128
33.530025482177734 3.7735650539398193 1.4101370573043823
33.50761413574219 3.56307315826416 1.4087568521499634
33.58018493652344 3.3626439571380615 1.4009796380996704
33.622737884521484 3.158749580383301 1.395102620124817
33.641197204589844 2.9524500370025635 1.3907403945922852
33.65043258666992 2.745391845703125 1.3869048357009888
33.65839385986328 2.538329839706421 1.3830676078796387
33.6630859375 2.3311338424682617 1.3793617486953735
33.6605339050293 2.1235969066619873 1.3760560750961304
33.65271759033203 1.9159504175186157 1.3730193376541138
33.65457534790039 1.7090349197387695 1.369246244430542
33.6671257019043 1.5027012825012207 1.3646671772003174
33.688385009765625 1.2966604232788086 1.3594111204147339
19.26890754699707 0.6227839589118958 2.330592393875122
12.998734474182129 0.33992138504981995 2.753059148788452
33.731597900390625 0.6770718693733215 1.3444875478744507
12.406140327453613 0.17211005091667175 2.7901625633239746
33.75373458862305 0.26334893703460693 1.3345394134521484
33.75442123413086 0.05630090832710266 1.3301377296447754
12.73911190032959 -0.057672906666994095 2.7625932693481445
33.77791976928711 -0.35806211829185486 1.3195524215698242
33.7737922668457 -0.5652300119400024 1.3152111768722534
12.819347381591797 -0.2939854562282562 2.7518415451049805
33.80759811401367 -0.9807809591293335 1.3033636808395386
33.80363464355469 -1.1882407665252686 1.298738956451416
33.80438232421875 -1.3959373235702515 1.2936991453170776
33.71815490722656 -1.599627137184143 1.2946007251739502
12.699151992797852 -0.6813449859619141 2.750737190246582
12.89378547668457 -0.7711195945739746 2.7351980209350586
12.876754760742188 -0.8494078516960144 2.734344005584717
12.826416015625 -0.9251519441604614 2.7357916831970215
12.510095596313477 -0.9795460104942322 2.7558817863464355
33.869232177734375 -2.858983039855957 1.251634955406189
12.7889986038208 -1.1593908071517944 2.732011556625366
12.739832878112793 -1.233781337738037 2.733281135559082
12.774579048156738 -1.3162956237792969 2.7285869121551514
13.946187019348145 -1.5234251022338867 2.643099069595337
12.287538528442383 -1.4187254905700684 2.758679151535034
12.469606399536133 -1.517304539680481 2.743422031402588
12.661798477172852 -1.6195615530014038 2.7273364067077637
12.638659477233887 -1.6954745054244995 2.7265944480895996
12.627906799316406 -1.7729671001434326 2.7249326705932617
12.604836463928223 -1.848656415939331 2.724126100540161
12.581313133239746 -1.9241303205490112 2.7233235836029053
12.529757499694824 -1.9949971437454224 2.7245261669158936
12.50044059753418 -2.0690488815307617 2.724093437194824
34.00209045410156 -5.840334415435791 1.1525899171829224
29.254791259765625 -5.210082530975342 1.4928137063980103
34.01845932006836 -6.273834705352783 1.1369372606277466
34.04759979248047 -6.495462894439697 1.127402901649475
34.01461410522461 -6.705728054046631 1.122333288192749
33.944175720214844 -6.908475875854492 1.1199430227279663
33.89399719238281 -7.115121364593506 1.1159697771072388
33.9302978515625 -7.340389728546143 1.1054648160934448
33.95245361328125 -7.563553810119629 1.0958889722824097
33.9984130859375 -7.793059825897217 1.0844038724899292
34.043800354003906 -8.02364444732666 1.0728257894515991
34.06146240234375 -8.248743057250977 1.0632025003433228
34.074737548828125 -8.473639488220215 1.0537859201431274
34.11068344116211 -8.705175399780273 1.04252290725708
34.10261917114258 -8.926361083984375 1.0344767570495605
34.11238098144531 -9.152946472167969 1.024950623512268
34.116798400878906 -9.378931045532227 1.0157084465026855
34.11204528808594 -9.603153228759766 1.0070464611053467
34.13168716430664 -9.835126876831055 0.9963765740394592
34.13637924194336 -10.063756942749023 0.9867314100265503
34.11662292480469 -10.285905838012695 0.9788579344749451
34.15641784667969 -10.52699089050293 0.966215968132019
34.14411926269531 -10.75307559967041 0.9575046896934509
34.14646911621094 -10.984598159790039 0.9475170373916626
34.15957260131836 -11.220601081848145 0.9365443587303162
34.1540412902832 -11.451473236083984 0.9269076585769653
34.165828704833984 -11.689155578613281 0.9157593250274658
34.17692565917969 -11.927743911743164 0.9045219421386719
34.13939666748047 -12.150193214416504 0.8970356583595276
34.148231506347656 -12.389975547790527 0.8857002258300781
34.23676681518555 -12.660411834716797 0.8677775859832764
34.28593826293945 -12.918336868286133 0.8528459072113037
34.286678314208984 -13.159478187561035 0.8416788578033447
34.327537536621094 -13.417450904846191 0.8270829319953918
34.31555938720703 -13.656144142150879 0.8166463971138
34.32134246826172 -13.903055191040039 0.8046001195907593
34.333683013916016 -14.153973579406738 0.7918521165847778
34.368133544921875 -14.415593147277832 0.777100682258606
34.345638275146484 -14.654691696166992 0.7669191956520081
34.365394592285156 -14.913108825683594 0.7530496716499329
29.523082733154297 -13.027848243713379 1.1482996940612793
34.42926788330078 -15.445778846740723 0.7227147221565247
34.41423416137695 -15.693485260009766 0.7112489938735962
34.418251037597656 -15.9512300491333 0.6979983448982239
34.4393424987793 -16.218536376953125 0.6831086277961731
34.4476432800293 -16.481536865234375 0.6691266298294067
34.4531135559082 -16.744813919067383 0.6552039980888367
34.45485305786133 -17.007898330688477 0.6414205431938171
34.45554733276367 -17.272079467773438 0.6275426745414734
34.39564895629883 -17.507062911987305 0.6187875270843506
34.34389877319336 -17.746997833251953 0.6091747879981995
34.43970489501953 -18.065217971801758 0.5863580703735352
34.39032745361328 -18.309383392333984 0.5761719942092896
34.41554260253906 -18.594852447509766 0.5591662526130676
30.819490432739258 -16.89727020263672 0.8670095801353455
30.809858322143555 -17.138811111450195 0.8542937636375427
34.568153381347656 -19.50813102722168 0.4998183250427246
34.59883499145508 -19.80646514892578 0.4813656508922577
34.57024383544922 -20.07286834716797 0.46809637546539307
34.562870025634766 -20.35332679748535 0.4526810944080353
34.61155319213867 -20.669206619262695 0.43186572194099426
34.596256256103516 -20.949268341064453 0.41672664880752563
34.62808609008789 -21.260168075561523 0.3969665765762329
34.576148986816406 -21.521682739257812 0.3848115801811218
34.56782531738281 -21.812082290649414 0.3683512508869171
34.594181060791016 -22.12681770324707 0.3483639657497406
34.65560531616211 -22.467100143432617 0.32475483417510986
34.58584976196289 -22.724674224853516 0.31342411041259766
34.4146614074707 -22.915943145751953 0.31170201301574707
30.291996002197266 -20.440467834472656 0.6934370994567871
34.71180725097656 -23.734128952026367 0.2456098198890686
34.62002182006836 -23.98462677001953 0.23551155626773834
34.749183654785156 -24.391218185424805 0.20343022048473358
29.83426284790039 -21.216136932373047 0.6716938018798828
29.95387840270996 -21.579336166381836 0.6426052451133728
29.737621307373047 -21.702138900756836 0.6468619704246521
29.67087173461914 -21.93389892578125 0.6360149383544922
29.630319595336914 -22.186565399169922 0.6223281621932983
29.576658248901367 -22.43112564086914 0.6097679734230042
29.52663803100586 -22.68011474609375 0.5966325998306274
32.364994049072266 30.840862274169922 0.9730811715126038
32.37080001831055 30.470020294189453 0.9840275049209595
32.31845474243164 30.049293518066406 0.9994606971740723
32.457000732421875 29.809303283691406 0.9991135597229004
32.49919128417969 29.482887268066406 1.0064020156860352
32.44939422607422 29.077138900756836 1.0208829641342163
32.41230392456055 28.687667846679688 1.034076452255249
32.55352783203125 28.45875358581543 1.0327680110931396
32.57002258300781 28.122844696044922 1.0412462949752808
32.59273910522461 27.795574188232422 1.049015998840332
32.605804443359375 27.46330451965332 1.0573415756225586
32.6144905090332 27.130643844604492 1.0658037662506104
32.63267135620117 26.809053421020508 1.0733126401901245
32.641944885253906 26.48322868347168 1.081321120262146
32.65702438354492 26.165170669555664 1.0886766910552979
32.660823822021484 25.84111213684082 1.096714735031128
32.687843322753906 25.538270950317383 1.102759838104248
32.67997741699219 25.211078643798828 1.1113166809082031
32.70665740966797 24.913373947143555 1.117019772529602
32.72454071044922 24.611492156982422 1.1232233047485352
32.730342864990234 24.30318832397461 1.1301748752593994
32.7569465637207 24.01285743713379 1.1353602409362793
32.549163818359375 23.555164337158203 1.158204197883606
32.63588333129883 23.314451217651367 1.1584484577178955
32.687435150146484 23.049976348876953 1.161217212677002
32.70503234863281 22.763511657714844 1.1663974523544312
32.724456787109375 22.48052406311035 1.1712807416915894
32.76313018798828 22.212718963623047 1.174560546875
32.743343353271484 21.907541275024414 1.182070016860962
32.76519775390625 21.632591247558594 1.1863012313842773
32.764015197753906 21.344579696655273 1.1920993328094482
32.829376220703125 21.101652145385742 1.1927937269210815
32.808712005615234 20.80527114868164 1.1997390985488892
32.82626724243164 20.535348892211914 1.203696846961975
18.406009674072266 11.357000350952148 2.274057626724243
18.406108856201172 11.201851844787598 2.2768332958221436
18.406709671020508 11.048157691955566 2.2794907093048096
18.38808822631836 10.884201049804688 2.283479690551758
32.871917724609375 19.18802261352539 1.2244542837142944
32.92728805541992 18.950679779052734 1.2248042821884155
32.924564361572266 18.681365966796875 1.2292734384536743
32.82833480834961 18.36163902282715 1.2404227256774902
32.876251220703125 18.124752044677734 1.240923523902893
32.975990295410156 17.917034149169922 1.2375367879867554
33.004913330078125 17.671554565429688 1.2391787767410278
33.03472137451172 17.427791595458984 1.2406346797943115
33.02381896972656 17.16407585144043 1.2449116706848145
33.04557800292969 16.918888092041016 1.2467012405395508
33.06111526489258 16.67183494567871 1.2488175630569458
33.07755661010742 16.426555633544922 1.2507485151290894
33.084163665771484 16.177759170532227 1.2532660961151123
33.092567443847656 15.93122673034668 1.2555341720581055
33.11091613769531 15.69075870513916 1.2569695711135864
33.11399841308594 15.4443359375 1.2593834400177002
33.12800598144531 15.204294204711914 1.2608966827392578
33.16669464111328 14.976572036743164 1.260529637336731
33.10899353027344 14.706811904907227 1.2669423818588257
33.114158630371094 14.466690063476562 1.2687424421310425
33.12863540649414 14.231786727905273 1.2697664499282837
33.149749755859375 14.00074291229248 1.2702057361602783
33.160064697265625 13.766148567199707 1.2713054418563843
33.213096618652344 13.550047874450684 1.2692548036575317
33.17581558227539 13.29817008972168 1.2735244035720825
33.06892395019531 13.020566940307617 1.2826308012008667
33.11623001098633 12.805243492126465 1.280664086341858
33.50728988647461 12.720881462097168 1.2541825771331787
33.66666793823242 12.545777320861816 1.2440682649612427
33.702396392822266 12.324295043945312 1.242629885673523
33.73479461669922 12.1021728515625 1.2413239479064941
33.73750305175781 11.87017822265625 1.2420189380645752
33.73863983154297 11.638604164123535 1.2427210807800293
33.74671173095703 11.410340309143066 1.2428276538848877
33.77220153808594 11.188690185546875 1.241597294807434
33.787696838378906 10.964383125305176 1.2409727573394775
33.76844024658203 10.729728698730469 1.2427068948745728
33.8018798828125 10.512614250183105 1.240609049797058
33.813880920410156 10.28939151763916 1.2399277687072754
33.80816650390625 10.061576843261719 1.240401268005371
33.820091247558594 9.839794158935547 1.2395257949829102
33.83344650268555 9.619061470031738 1.238449215888977
33.82518005371094 9.392927169799805 1.2388038635253906
33.83563995361328 9.172735214233398 1.2377359867095947
33.85431671142578 8.955321311950684 1.2359869480133057
33.85517501831055 8.733784675598145 1.2354018688201904
33.865238189697266 8.515249252319336 1.2340682744979858
33.88164520263672 8.298816680908203 1.2321871519088745
33.89958572387695 8.083194732666016 1.2301002740859985
33.911293029785156 7.866537570953369 1.2283583879470825
33.902164459228516 7.645648002624512 1.2279995679855347
33.92278289794922 7.431999206542969 1.2254327535629272
33.93522644042969 7.216930389404297 1.2233511209487915
33.94630813598633 7.001986503601074 1.2212696075439453
33.955055236816406 6.786981582641602 1.2192593812942505
33.95558547973633 6.570804119110107 1.2177379131317139
33.95376205444336 6.354690074920654 1.2162896394729614
33.9711799621582 6.142573356628418 1.2133772373199463
33.9931755065918 5.931508541107178 1.2100428342819214
34.008934020996094 5.719575881958008 1.207057237625122
34.0145149230957 5.506236553192139 1.2047024965286255
34.01974105834961 5.2931952476501465 1.2022786140441895
34.01278305053711 5.078674793243408 1.2006330490112305
34.016326904296875 4.866132736206055 1.1981430053710938
34.03435516357422 4.655900955200195 1.1945208311080933
34.05207061767578 4.4457573890686035 1.1908258199691772
34.06651306152344 4.235324382781982 1.1872702836990356
34.07767105102539 4.024645805358887 1.1838550567626953
33.521514892578125 3.7506234645843506 1.2211734056472778
33.50688552856445 3.5410544872283936 1.2194730043411255
33.558433532714844 3.3385229110717773 1.2129087448120117
33.616703033447266 3.1362318992614746 1.205758810043335
33.63996887207031 2.9304046630859375 1.2010371685028076
33.6500358581543 2.7234420776367188 1.197174310684204
33.657840728759766 2.5163896083831787 1.1933820247650146
33.667354583740234 2.309547185897827 1.1893713474273682
33.66863250732422 2.1022450923919678 1.1858646869659424
33.681575775146484 1.8957418203353882 1.1814152002334595
33.69125747680664 1.6890572309494019 1.1771082878112793
33.6956901550293 1.4821476936340332 1.1730895042419434
15.723734855651855 0.5939255356788635 2.483710527420044
19.263681411743164 0.60980224609375 2.2225899696350098
33.708335876464844 0.861672580242157 1.1605123281478882
33.726627349853516 0.6551652550697327 1.1550945043563843
13.01259708404541 0.17167632281780243 2.675776481628418
33.7464485168457 0.24148322641849518 1.1451992988586426
33.755950927734375 0.03449166938662529 1.1401355266571045
33.76517868041992 -0.17261433601379395 1.134993314743042
12.838897705078125 -0.1456717550754547 2.6818506717681885
12.765851974487305 -0.223177969455719 2.685506820678711
11.714314460754395 -0.2768520712852478 2.7619616985321045
12.817734718322754 -0.38141828775405884 2.6780099868774414
33.80119323730469 -1.2100162506103516 1.1085560321807861
33.792808532714844 -1.417325735092163 1.1041369438171387
33.71342849731445 -1.6212313175201416 1.104947566986084
12.719401359558105 -0.691174328327179 2.6776695251464844
12.864109992980957 -0.7781886458396912 2.6647589206695557
12.855986595153809 -0.8568825721740723 2.663300037384033
33.86111068725586 -2.462280511856079 1.072257399559021
12.523178100585938 -0.9892187118530273 2.684274673461914
33.8743896484375 -2.8814537525177 1.0598362684249878
12.765067100524902 -1.166042685508728 2.6615569591522217
13.07909870147705 -1.2756304740905762 2.635338544845581
13.103632926940918 -1.3592218160629272 2.6311182975769043
13.115736961364746 -1.4418572187423706 2.6278018951416016
33.9080810546875 -3.9350240230560303 1.0269029140472412
33.92552947998047 -4.148138523101807 1.0191692113876343
33.90800857543945 -4.357297897338867 1.0140235424041748
33.955406188964844 -4.575316905975342 1.0037504434585571
33.94906997680664 -4.786708354949951 0.9975215792655945
12.924800872802734 -1.9045884609222412 2.627462387084961
12.846718788146973 -1.9736980199813843 2.630915403366089
13.030167579650879 -2.08376145362854 2.6138906478881836
13.111433029174805 -2.1793265342712402 2.6047651767730713
33.98503875732422 -5.860020160675049 0.9594470262527466
13.441679000854492 -2.4040191173553467 2.573045492172241
34.0059700012207 -6.294262886047363 0.9428906440734863
34.025123596191406 -6.513975620269775 0.9337444305419922
12.598649024963379 -2.493511199951172 2.631087303161621
33.91654968261719 -6.9257001876831055 0.9267973303794861
33.900394439697266 -7.139359474182129 0.9201328754425049
33.89653015136719 -7.356041431427002 0.9123701453208923
33.94868469238281 -7.585770130157471 0.8999786376953125
33.980831146240234 -7.812174320220947 0.8890569806098938
34.03960418701172 -8.045907974243164 0.875839114189148
34.06190872192383 -8.272189140319824 0.8654325008392334
34.04402160644531 -8.48940372467041 0.8581652641296387
34.083656311035156 -8.721782684326172 0.8460756540298462
34.094722747802734 -8.947885513305664 0.8361825942993164
34.11872863769531 -9.178337097167969 0.8250892162322998
34.109474182128906 -9.400681495666504 0.8165996670722961
34.10356521606445 -9.624613761901855 0.8077054023742676
34.12109375 -9.856019973754883 0.7967328429222107
34.139923095703125 -10.088851928710938 0.7855071425437927
34.12569046020508 -10.312772750854492 0.7769020199775696
34.15760803222656 -10.551607131958008 0.7642907500267029
34.158409118652344 -10.781923294067383 0.7541450262069702
34.156715393066406 -11.01234245300293 0.744068443775177
34.15157699584961 -11.242523193359375 0.7341423630714417
34.16379928588867 -11.47940731048584 0.7225961089134216
34.15742111206055 -11.711045265197754 0.7124872207641602
34.18523025512695 -11.955541610717773 0.6993005275726318
34.13246536254883 -12.172700881958008 0.692888617515564
34.118595123291016 -12.404306411743164 0.6829963326454163
34.2452278137207 -12.688830375671387 0.6607622504234314
34.29037857055664 -12.945456504821777 0.6453902721405029
34.275054931640625 -13.180580139160156 0.635120689868927
34.31010437011719 -13.43635368347168 0.6202785968780518
34.31737518310547 -13.682719230651855 0.6077003479003906
34.316444396972656 -13.927059173583984 0.595678448677063
34.33498764038086 -14.180651664733887 0.5817606449127197
34.35538101196289 -14.436540603637695 0.567496657371521
34.323509216308594 -14.671670913696289 0.5577301979064941
34.348541259765625 -14.932381629943848 0.5426947474479675
29.493120193481445 -13.037710189819336 0.9684897065162659
34.39558029174805 -15.457594871520996 0.5123137831687927
34.382198333740234 -15.705955505371094 0.5001905560493469
34.40502166748047 -15.972355842590332 0.4845815896987915
34.41865539550781 -16.23622703552246 0.46961352229118347
34.42404556274414 -16.497852325439453 0.4552079737186432
34.43647384643555 -16.76451873779297 0.4399542510509491
34.428157806396484 -17.022682189941406 0.42642953991889954
34.444679260253906 -17.294788360595703 0.4103904068470001
34.38546371459961 -17.530174255371094 0.4012586772441864
34.31049346923828 -17.758159637451172 0.39346227049827576
34.46161651611328 -18.10544776916504 0.3640764057636261
34.35563659667969 -18.319766998291016 0.3588557541370392
34.406070709228516 -18.618825912475586 0.33853879570961
30.81875228881836 -16.92320442199707 0.6680137515068054
30.78448486328125 -17.15119743347168 0.6570459008216858
34.546470642089844 -19.52573585510254 0.2770652770996094
34.52156066894531 -19.792272567749023 0.263040155172348
34.52740478515625 -20.07827377319336 0.24579165875911713
34.52760314941406 -20.36306381225586 0.22886209189891815
34.58203887939453 -20.68236541748047 0.20631955564022064
34.408912658691406 -20.86670684814453 0.20614834129810333
34.45466995239258 -21.184865951538086 0.1839933842420578
34.46736526489258 -21.48539924621582 0.16487015783786774
34.509666442871094 -21.807106018066406 0.14248503744602203
34.54846954345703 -22.12959861755371 0.1201542317867279
34.54615783691406 -22.428434371948242 0.10172285884618759
33.86957931518555 -22.58521842956543 0.1335030049085617
30.271760940551758 -20.455961227416992 0.48823365569114685
29.780223846435547 -21.207447052001953 0.4696618616580963
30.149303436279297 -21.750486373901367 0.4121749699115753
29.764728546142578 -21.752197265625 0.434959352016449
29.658342361450195 -21.95509910583496 0.42788124084472656
29.632688522338867 -22.21906852722168 0.4118849039077759
29.591415405273438 -22.473304748535156 0.3973504900932312
29.56629180908203 -22.741840362548828 0.380808562040329
33.892024993896484 -29.91856575012207 -0.3617599904537201
33.77566909790039 -30.186946868896484 -0.37451857328414917
33.65728759765625 -30.455026626586914 -0.3872734606266022
33.65587615966797 -30.831785202026367 -0.41433602571487427
20.25511360168457 -19.019336700439453 1.1638526916503906
20.031612396240234 -19.04233741760254 1.1740962266921997
32.359710693359375 30.90696907043457 0.6813070774078369
31.4755916595459 29.69585609436035 0.774759829044342
15.540350914001465 14.483119010925293 2.228372573852539
31.63125991821289 29.118284225463867 0.7854836583137512
31.66496467590332 28.792821884155273 0.7944867014884949
32.027706146240234 28.766069412231445 0.7738704085350037
32.27634811401367 28.633970260620117 0.763405442237854
32.47954559326172 28.4604434967041 0.7568864822387695
32.53922653198242 28.162090301513672 0.7629169821739197
32.55097579956055 27.825178146362305 0.7729511857032776
32.572017669677734 27.499483108520508 0.7819331288337708
32.61022186279297 27.191192626953125 0.7891906499862671
32.628936767578125 26.86951446533203 0.7979284524917603
32.61552047729492 26.52471160888672 0.8092279434204102
32.6224479675293 26.199827194213867 0.8185338377952576
32.64226531982422 25.888263702392578 0.8265117406845093
32.669708251953125 25.585439682006836 0.8336266875267029
32.66782760620117 25.26249885559082 0.8430444598197937
32.70050048828125 24.969009399414062 0.8493054509162903
32.699737548828125 24.652645111083984 0.8582127690315247
32.73394775390625 24.365232467651367 0.8639540076255798
32.72165298461914 24.04583168029785 0.8734332323074341
32.57423400878906 23.631423950195312 0.8940712213516235
32.597373962402344 23.344621658325195 0.9001365303993225
32.69725036621094 23.11429214477539 0.8996039032936096
32.684261322021484 22.805973052978516 0.9083412289619446
32.729530334472656 22.540555953979492 0.912040114402771
32.766998291015625 22.27151870727539 0.9162217974662781
32.7485466003418 21.966745376586914 0.9248639941215515
32.797489166259766 21.709293365478516 0.9277597665786743
32.77517318725586 21.40678596496582 0.9363633990287781
32.830894470214844 21.15725326538086 0.9383775591850281
32.83848571777344 20.878402709960938 0.9441852569580078
32.824462890625 20.588062286376953 0.9515923857688904
32.85138702392578 20.325448989868164 0.955489993095398
32.891658782958984 20.072635650634766 0.958147406578064
32.85314178466797 19.773794174194336 0.9670526385307312
32.90657424926758 19.53219223022461 0.9683365821838379
32.927284240722656 19.272537231445312 0.9721264243125916
32.926177978515625 19.001893997192383 0.977526068687439
32.912593841552734 18.726070404052734 0.9837770462036133
32.80551528930664 18.399892807006836 0.9973858594894409
32.85544967651367 18.16405487060547 0.9982179999351501
32.951026916503906 17.954071044921875 0.9952621459960938
33.00132369995117 17.719999313354492 0.9958068132400513
33.00855255126953 17.464061737060547 0.9996576309204102
33.02715301513672 17.215620040893555 1.0024611949920654
33.041290283203125 16.966238021850586 1.0054831504821777
33.044715881347656 16.712827682495117 1.0092201232910156
33.05788803100586 16.465795516967773 1.012046217918396
33.06748580932617 16.218353271484375 1.0150222778320312
33.07439422607422 15.970976829528809 1.0180774927139282
33.09303283691406 15.730550765991211 1.020074486732483
33.115394592285156 15.493029594421387 1.0216491222381592
33.1234016418457 15.249985694885254 1.0242278575897217
33.150577545166016 15.01689338684082 1.025169849395752
33.129676818847656 14.763334274291992 1.0297675132751465
33.09047317504883 14.50339126586914 1.0356711149215698
33.11711883544922 14.273695945739746 1.0362781286239624
33.134849548339844 14.041106224060059 1.037462830543518
33.15741729736328 13.811519622802734 1.0381479263305664
33.18949508666992 13.586716651916504 1.0379705429077148
33.23209762573242 13.3668794631958 1.0368530750274658
33.0821647644043 13.071528434753418 1.0506542921066284
33.129783630371094 12.856093406677246 1.0489041805267334
33.492889404296875 12.761298179626465 1.0224436521530151
33.657081604003906 12.588109970092773 1.0114021301269531
33.70711898803711 12.371803283691406 1.0091484785079956
33.725738525390625 12.144542694091797 1.0092262029647827
33.74378204345703 11.91784954071045 1.009234070777893
33.73393249511719 11.68225383758545 1.0112968683242798
33.737571716308594 11.452356338500977 1.0121948719024658
33.75859451293945 11.229146003723145 1.0116292238235474
33.78099060058594 11.007035255432129 1.010844349861145
33.78673553466797 10.780220985412598 1.0112406015396118
33.79287338256836 10.554343223571777 1.0114941596984863
33.817543029785156 10.334915161132812 1.0101995468139648
33.80257797241211 10.104154586791992 1.011869192123413
33.806156158447266 9.879840850830078 1.0119901895523071
33.82072067260742 9.659422874450684 1.0111494064331055
33.837703704833984 9.440265655517578 1.0100133419036865
33.84364318847656 9.218643188476562 1.009624719619751
33.84428405761719 8.99627685546875 1.0095386505126953
33.85120391845703 8.776249885559082 1.008859634399414
33.872161865234375 8.560383796691895 1.0069843530654907
33.89368438720703 8.34506607055664 1.0049583911895752
33.89735794067383 8.125853538513184 1.004210352897644
33.903499603271484 7.907812595367432 1.003165364265442
33.88393783569336 7.684488773345947 1.0040102005004883
33.91257095336914 7.4726433753967285 1.0010086297988892
33.93013381958008 7.258647918701172 0.9987610578536987
33.94049072265625 7.0435004234313965 0.9969689846038818
33.94264221191406 6.827121734619141 0.9957095384597778
33.94439697265625 6.611169815063477 0.9943766593933105
33.95751953125 6.397851467132568 0.9920567274093628
33.9830322265625 6.187119483947754 0.9886679649353027
33.99153137207031 5.973551273345947 0.9864989519119263
33.99671936035156 5.759777545928955 0.9844846725463867
34.0045051574707 5.546804904937744 0.9821653962135315
34.0158805847168 5.334723949432373 0.9794619083404541
34.01311492919922 5.1207804679870605 0.9777595400810242
34.03466796875 4.91077184677124 0.9740546941757202
34.04010772705078 4.698644161224365 0.971505343914032
34.059051513671875 4.48858642578125 0.9677961468696594
34.07175827026367 4.27785062789917 0.9644719958305359
34.079193115234375 4.066652774810791 0.9614567160606384
33.540462493896484 3.793898820877075 1.0012080669403076
33.498329162597656 3.581207275390625 1.001923680305481
33.54115676879883 3.377864122390747 0.9958641529083252
33.62343215942383 3.177973747253418 0.9865908622741699
33.642948150634766 2.9717607498168945 0.9821497797966003
33.64927291870117 2.764446258544922 0.9786452651023865
33.664268493652344 2.55791974067688 0.9743548631668091
33.67301940917969 2.350963830947876 0.9704542756080627
33.686458587646484 2.1443750858306885 0.9660792350769043
15.759479522705078 0.9063919186592102 2.3841917514801025
15.785492897033691 0.8107819557189941 2.3804824352264404
15.794990539550781 0.7141659259796143 2.37803316116333
15.794931411743164 0.6171128749847412 2.376295328140259
15.802245140075684 0.5203487873077393 2.3739213943481445
15.83487319946289 0.42421069741249084 2.3694770336151123
15.833033561706543 0.32699185609817505 2.3677327632904053
15.810660362243652 0.22952167689800262 2.3675854206085205
33.7384033203125 0.28237271308898926 0.9275301098823547
13.010001182556152 0.029316922649741173 2.5885818004608154
33.75657272338867 -0.1315997838973999 0.9172863364219666
33.77072525024414 -0.338814377784729 0.9115949869155884
33.775638580322266 -0.5460807681083679 0.9065425992012024
33.780269622802734 -0.7534443736076355 0.9014066457748413
11.856348037719727 -0.3369767367839813 2.67309832572937
33.80961608886719 -1.1692293882369995 0.8891832232475281
33.810420989990234 -1.3769545555114746 0.8840344548225403
33.73527145385742 -1.5812349319458008 0.8849667310714722
13.025443077087402 -0.6903969049453735 2.5704479217529297
12.812887191772461 -0.7579724192619324 2.5857529640197754
12.852620124816895 -0.8394746780395508 2.58040714263916
