# .PCD v0.7 - Point Cloud Data file format
VERSION 0.7
FIELDS x y z
SIZE 4 4 4
TYPE F F F
COUNT 1 1 1
WIDTH 844
HEIGHT 1
VIEWPOINT 0 0 0 1 0 0 0
POINTS 844
DATA ascii
18.84213638305664 -7.997311592102051 0.180886909365654
18.883710861206055 -8.152189254760742 0.16154837608337402
18.857275009155273 -8.278550148010254 0.15452292561531067
16.369253158569336 -7.30658483505249 0.6032766103744507
18.904233932495117 -8.577662467956543 0.12144490331411362
16.282968521118164 -7.509289741516113 0.5978968739509583
16.19692611694336 -7.590602874755859 0.6030694246292114
16.325029373168945 -7.773289680480957 0.5679503083229065
16.156824111938477 -7.815310478210449 0.5883559584617615
16.768651962280273 -8.625916481018066 0.4246327579021454
16.56820297241211 -8.651936531066895 0.45059657096862793
16.458660125732422 -8.72383975982666 0.4591262936592102
16.229066848754883 -8.730284690856934 0.49088823795318604
16.231903076171875 -8.860823631286621 0.4775954782962799
16.213912963867188 -8.980740547180176 0.4681679308414459
16.116003036499023 -9.056349754333496 0.47424256801605225
16.112825393676758 -9.185280799865723 0.4616142809391022
16.074539184570312 -9.294779777526855 0.4557289481163025
16.009157180786133 -9.388700485229492 0.45508119463920593
15.943228721618652 -9.482171058654785 0.45444178581237793
15.870000839233398 -9.571115493774414 0.4551648497581482
12.556289672851562 12.76845932006836 0.9269130825996399
12.602644920349121 12.65968132019043 0.9321048855781555
12.639719009399414 12.542455673217773 0.9390900135040283
12.684305191040039 12.43355655670166 0.9442771673202515
12.72235107421875 12.31907844543457 0.950660228729248
12.75375747680664 12.199134826660156 0.9582420587539673
12.774114608764648 12.0697603225708 0.9679248332977295
12.830950736999512 11.975675582885742 0.9698031544685364
12.853679656982422 11.850518226623535 0.9785863161087036
12.899480819702148 11.7475004196167 0.9824110269546509
12.940093994140625 11.640398979187012 0.9871349334716797
12.967318534851074 11.522075653076172 0.9944146871566772
12.993581771850586 11.40385627746582 1.0016955137252808
13.042040824890137 11.305821418762207 1.0043063163757324
13.082280158996582 11.201190948486328 1.0084202289581299
13.116443634033203 11.092020988464355 1.0135879516601562
13.158867835998535 10.990458488464355 1.0169428586959839
13.194442749023438 10.883759498596191 1.021503210067749
13.230735778808594 10.77828311920166 1.0257595777511597
13.263154983520508 10.670292854309082 1.0306189060211182
13.297845840454102 10.564767837524414 1.0348721742630005
13.334853172302246 10.461658477783203 1.038517951965332
13.370315551757812 10.357887268066406 1.0423132181167603
13.405011177062988 10.254072189331055 1.0461065769195557
13.438936233520508 10.150219917297363 1.0498981475830078
13.479225158691406 10.051653861999512 1.0523213148117065
13.510056495666504 9.946529388427734 1.0564125776290894
13.544106483459473 9.844307899475098 1.0597426891326904
13.583836555480957 9.746651649475098 1.0618537664413452
13.61965274810791 9.646590232849121 1.0645703077316284
13.651514053344727 9.54419231414795 1.0678937435150146
13.701342582702637 9.454673767089844 1.0677094459533691
13.727715492248535 9.349325180053711 1.0717904567718506
13.767257690429688 9.253378868103027 1.0732758045196533
13.80284595489502 9.155113220214844 1.0753684043884277
13.836094856262207 9.05567455291748 1.0777640342712402
13.871133804321289 8.957780838012695 1.0796985626220703
13.912996292114258 8.864574432373047 1.0802528858184814
13.949217796325684 8.768035888671875 1.0817214250564575
13.988137245178223 8.673465728759766 1.082573413848877
14.025581359863281 8.578232765197754 1.0835752487182617
14.06322956085205 8.48337459564209 1.0844197273254395
14.101940155029297 8.389385223388672 1.0849531888961792
14.14002799987793 8.29524040222168 1.0854823589324951
14.185190200805664 8.205394744873047 1.0846234560012817
14.229782104492188 8.115304946899414 1.0837587118148804
14.256577491760254 8.015289306640625 1.085968255996704
14.4218168258667 7.992367267608643 1.063363790512085
14.703490257263184 8.031189918518066 1.0200570821762085
15.247148513793945 8.207358360290527 0.9303842186927795
14.61137580871582 7.635751724243164 1.0561940670013428
19.228652954101562 0.7762161493301392 0.4500221014022827
15.745244026184082 0.5386754870414734 1.0255417823791504
19.245769500732422 0.5405792593955994 0.4433797597885132
12.859901428222656 -0.7444101572036743 1.4755557775497437
12.847925186157227 -0.8228266835212708 1.4750306606292725
16.096343994140625 -2.733930826187134 0.858477771282196
16.265504837036133 -2.968487501144409 0.8188055157661438
16.234031677246094 -3.0658118724823 0.8188455104827881
16.261964797973633 -3.1745691299438477 0.8084632754325867
16.06595230102539 -3.2388052940368652 0.8369496464729309
16.236509323120117 -3.3770055770874023 0.8014786839485168
16.154401779174805 -3.463507652282715 0.8099541664123535
16.2354736328125 -3.585252285003662 0.789770245552063
16.219539642333984 -3.686286211013794 0.7864430546760559
16.068601608276367 -3.7558655738830566 0.8067682385444641
16.051605224609375 -3.855954885482788 0.803459644317627
19.29492950439453 -5.9080376625061035 0.1471770703792572
19.000198364257812 -5.945647239685059 0.1913197636604309
18.857803344726562 -6.028465747833252 0.20790080726146698
18.787240982055664 -6.133306980133057 0.21136941015720367
16.159494400024414 -5.385651588439941 0.682072103023529
16.167749404907227 -5.498929500579834 0.6722299456596375
16.31577491760254 -5.661272048950195 0.6365472674369812
16.40945816040039 -5.8069071769714355 0.6105783581733704
16.460254669189453 -5.9388604164123535 0.5922883152961731
16.02920913696289 -5.894867420196533 0.663133442401886
18.793214797973633 -7.042436599731445 0.14010053873062134
18.81271743774414 -7.1818013191223145 0.1257476955652237
16.060104370117188 -6.244448661804199 0.6299333572387695
18.83220100402832 -7.455514430999756 0.1001015305519104
16.301559448242188 -7.279088020324707 0.5033659934997559
16.28668975830078 -7.392765522003174 0.4953048527240753
16.366731643676758 -7.550678253173828 0.4687260687351227
16.20465660095215 -7.596988201141357 0.48886972665786743
16.144893646240234 -7.690297603607178 0.4891236424446106
16.599769592285156 -8.413402557373047 0.3519240617752075
16.56406021118164 -8.523608207702637 0.3463909327983856
16.30242156982422 -8.516073226928711 0.3857468366622925
16.46000099182129 -8.727513313293457 0.3414231240749359
16.37971305847168 -8.814298629760742 0.34443533420562744
16.146873474121094 -8.817380905151367 0.37814390659332275
16.19455909729004 -8.973023414611816 0.3552105724811554
16.333633422851562 -9.181685447692871 0.3134027421474457
16.123462677001953 -9.194387435913086 0.3424697518348694
16.153268814086914 -9.343374252319336 0.32246726751327515
16.15042495727539 -9.474642753601074 0.3089192509651184
16.121187210083008 -9.591129302978516 0.30061405897140503
12.56309986114502 12.770578384399414 0.8299627900123596
12.608778953552246 12.661087989807129 0.8355416655540466
12.64306926727295 12.541080474853516 0.8434407114982605
12.673544883728027 12.41836166381836 0.8519596457481384
12.724286079406738 12.316353797912598 0.8558273911476135
12.748553276062012 12.189610481262207 0.865276038646698
12.794011116027832 12.084062576293945 0.8699151277542114
12.835765838623047 11.975717544555664 0.8751716613769531
12.870864868164062 11.861958503723145 0.8816692233085632
12.895559310913086 11.739572525024414 0.8901876211166382
12.934663772583008 11.631200790405273 0.895440399646759
12.976619720458984 11.526069641113281 0.8999128937721252
13.020002365112305 11.422816276550293 0.9039151668548584
13.044693946838379 11.303936004638672 0.9116552472114563
13.088680267333984 11.20252513885498 0.915185809135437
13.125882148742676 11.095895767211914 0.9199614524841309
13.168334007263184 10.994296073913574 0.9234859943389893
13.184890747070312 10.87185287475586 0.9321631193161011
13.227249145507812 10.77145004272461 0.9353718757629395
13.260407447814941 10.664128303527832 0.9402978420257568
13.298935890197754 10.561715126037598 0.9439707398414612
13.342925071716309 10.464109420776367 0.9463881850242615
13.36826229095459 10.352445602416992 0.9524058103561401
13.399008750915527 10.245665550231934 0.957169771194458
13.446290016174316 10.151991844177246 0.9584807753562927
13.469966888427734 10.041000366210938 0.9643401503562927
13.502334594726562 9.937125205993652 0.9683150053024292
13.549116134643555 9.844261169433594 0.9693015813827515
13.58082389831543 9.740832328796387 0.9731144309043884
13.62628173828125 9.64765739440918 0.9740926027297974
13.694981575012207 9.446712493896484 0.9799744486808777
13.73029613494873 9.34753704071045 0.9825177192687988
13.764909744262695 9.248284339904785 0.9850584268569946
13.803763389587402 9.152230262756348 0.986649215221405
13.84195613861084 9.056045532226562 0.9882363080978394
13.881978034973145 8.961343765258789 0.9893454313278198
13.918863296508789 8.864895820617676 0.9909252524375916
13.950071334838867 8.765180587768555 0.9934516549110413
13.983098030090332 8.666973114013672 0.9955007433891296
14.027239799499512 8.575901985168457 0.9953277707099915
14.069100379943848 8.483592987060547 0.9954667091369629
14.106114387512207 8.388567924499512 0.9963943958282471
14.16122817993164 8.30439567565918 0.9938239455223083
14.238211631774902 8.11687183380127 0.9945427179336548
14.276209831237793 8.023107528686523 0.9948166012763977
14.412898063659668 7.984207630157471 0.9767675399780273
14.69433307647705 8.02295207977295 0.9320700764656067
15.211471557617188 8.184861183166504 0.8442396521568298
15.990126609802246 8.478086471557617 0.708877444267273
19.22361946105957 0.7731934785842896 0.34728536009788513
15.736344337463379 0.5359160900115967 0.9422606229782104
19.252487182617188 0.5379507541656494 0.3385680913925171
12.933587074279785 -0.671249508857727 1.3958743810653687
12.861063957214355 -0.746630072593689 1.4059479236602783
12.856938362121582 -0.8255566954612732 1.4040933847427368
16.23148536682129 -1.5427711009979248 0.8006162643432617
16.3193359375 -1.7534141540527344 0.7773159742355347
16.319650650024414 -1.854801893234253 0.7731133103370667
16.295862197875977 -1.9534505605697632 0.7730317115783691
16.304706573486328 -2.056065559387207 0.7671082615852356
16.25137710571289 -2.1507303714752197 0.7720198631286621
16.32240104675293 -2.2621140480041504 0.7549026608467102
16.303945541381836 -2.3616127967834473 0.7534450888633728
16.21378517150879 -2.450237274169922 0.7645784616470337
16.220458984375 -2.5531504154205322 0.7584754824638367
15.857098579406738 -2.5958211421966553 0.8179942965507507
16.300785064697266 -2.7712128162384033 0.7339840531349182
16.331605911254883 -2.8796792030334473 0.7231882810592651
16.19602394104004 -2.958387613296509 0.7419793009757996
16.204296112060547 -3.0627806186676025 0.7349936366081238
16.260225296020508 -3.1768243312835693 0.7193354368209839
16.130962371826172 -3.254493474960327 0.7367918491363525
16.160459518432617 -3.363792657852173 0.7256354093551636
16.220029830932617 -3.4801852703094482 0.7089086771011353
16.07587432861328 -3.5526254177093506 0.7288448810577393
16.274263381958008 -3.7013537883758545 0.6867055892944336
16.084028244018555 -3.7620913982391357 0.714848518371582
16.331439971923828 -5.4457526206970215 0.5575674772262573
16.547086715698242 -5.630765914916992 0.5081967115402222
16.310964584350586 -5.6624369621276855 0.5440627932548523
16.17623519897461 -5.727224826812744 0.5607620477676392
16.388532638549805 -5.915861129760742 0.5113096833229065
16.341371536254883 -6.012521743774414 0.5110692381858826
16.13880157470703 -6.050797939300537 0.5405263304710388
16.037534713745117 -6.1254377365112305 0.5505778193473816
16.292795181274414 -6.337823867797852 0.49180588126182556
15.942996978759766 -6.3147993087768555 0.5496687889099121
16.594812393188477 -7.291171073913574 0.35984933376312256
16.30765151977539 -7.28486967086792 0.40549740195274353
16.353633880615234 -7.426234245300293 0.38515105843544006
16.33415412902832 -7.538756370544434 0.37761542201042175
16.386070251464844 -7.685155391693115 0.35563457012176514
16.0734806060791 -7.659398555755615 0.4066098928451538
16.719755172729492 -8.477495193481445 0.22663138806819916
16.5002498626709 -8.62270450592041 0.2454337775707245
16.460512161254883 -8.731109619140625 0.24034738540649414
16.278858184814453 -8.763359069824219 0.26450115442276
16.238174438476562 -8.870573043823242 0.25943857431411743
16.312946319580078 -9.04198932647705 0.23013214766979218
16.0089168548584 -9.002541542053223 0.2798745334148407
16.114456176757812 -9.192657470703125 0.2437278926372528
16.143321990966797 -9.341057777404785 0.22338025271892548
16.19641876220703 -9.505094528198242 0.19761407375335693
16.046913146972656 -9.55042552947998 0.2147081345319748
12.542288780212402 12.76730728149414 0.7239682078361511
12.579631805419922 12.649561882019043 0.7317466735839844
12.657320022583008 12.57287311553955 0.730040967464447
12.681703567504883 12.443862915039062 0.7403859496116638
12.695063591003418 12.305408477783203 0.7529857754707336
12.744990348815918 12.203434944152832 0.7570580244064331
12.79844856262207 12.105378150939941 0.7601593136787415
12.82450008392334 11.982193946838379 0.769218921661377
12.866934776306152 11.875208854675293 0.7744099497795105
12.914375305175781 11.773472785949707 0.7783073782920837
12.933918952941895 11.647165298461914 0.7881743907928467
12.979686737060547 11.545327186584473 0.7920674681663513
13.01876449584961 11.438154220581055 0.7972499132156372
13.055526733398438 11.329642295837402 0.802753746509552
13.08395767211914 11.21468448638916 0.8098741769790649
13.116744995117188 11.104267120361328 0.8158618211746216
13.154729843139648 10.998931884765625 0.8205527067184448
13.195722579956055 10.896689414978027 0.8244310021400452
13.231369018554688 10.790613174438477 0.8292795419692993
13.280815124511719 10.696269035339355 0.8310433030128479
13.294851303100586 10.57408332824707 0.840108335018158
13.348244667053223 10.483818054199219 0.8407288193702698
13.36594295501709 10.366083145141602 0.8486582040786743
13.408556938171387 10.268321990966797 0.851222574710846
13.44575309753418 10.166854858398438 0.8547595143318176
13.490117073059082 10.071219444274902 0.8566653728485107
13.522695541381836 9.96722412109375 0.8608483076095581
13.559294700622559 9.866691589355469 0.8640516996383667
13.585555076599121 9.759174346923828 0.8692102432250977
13.619058609008789 9.657411575317383 0.8727359175682068
13.659908294677734 9.561262130737305 0.8746263384819031
13.696846008300781 9.462728500366211 0.8771669864654541
13.737980842590332 9.367436408996582 0.8787230849266052
13.76291275024414 9.261527061462402 0.8833849430084229
13.803499221801758 9.16657829284668 0.8847710490226746
13.832715034484863 9.064449310302734 0.8882836103439331
13.868654251098633 8.967127799987793 0.8903192281723022
13.913068771362305 8.87553882598877 0.8905470371246338
13.955212593078613 8.782690048217773 0.8910977840423584
13.994227409362793 8.688095092773438 0.892136812210083
14.018308639526367 8.58459186553955 0.8959664702415466
14.060222625732422 8.492339134216309 0.896176815032959
14.102380752563477 8.400397300720215 0.8962177634239197
14.146491050720215 8.309754371643066 0.8957592248916626
14.190020561218262 8.21888542175293 0.8952953219413757
14.214982032775879 8.117521286010742 0.8982892632484436
14.300257682800293 8.050509452819824 0.8895655274391174
14.4068021774292 7.994718074798584 0.8766971826553345
14.668084144592285 8.022628784179688 0.8342282772064209
15.241900444030762 8.215612411499023 0.732337236404419
16.011953353881836 8.504541397094727 0.5935736894607544
19.24164581298828 0.788114607334137 0.22675149142742157
15.726629257202148 0.5476293563842773 0.8479840755462646
19.272611618041992 0.5527207255363464 0.21755196154117584
12.891341209411621 -0.5794637203216553 1.3270407915115356
12.88233470916748 -0.6582642793655396 1.3262354135513306
12.859085083007812 -0.7361899018287659 1.3279005289077759
12.862873077392578 -0.8156018853187561 1.3246288299560547
16.223247528076172 -1.6300207376480103 0.6989352703094482
16.102962493896484 -1.7177929878234863 0.7166727781295776
16.144554138183594 -1.8224822282791138 0.7049733996391296
16.02129364013672 -1.9081918001174927 0.7231035828590393
15.995241165161133 -2.0047006607055664 0.723487377166748
16.009584426879883 -2.106356382369995 0.7164042592048645
16.03887939453125 -2.2104151248931885 0.706466794013977
15.935036659240723 -2.295828104019165 0.7207472920417786
16.012718200683594 -2.4074137210845947 0.7017140984535217
15.996298789978027 -2.5054218769073486 0.699785053730011
15.8656587600708 -2.5848073959350586 0.7187457084655762
16.341947555541992 -2.7654707431793213 0.6258966326713562
16.335914611816406 -2.867684841156006 0.6215978860855103
16.27406883239746 -2.959895133972168 0.6274958252906799
16.205909729003906 -3.0503649711608887 0.6344816088676453
16.30238914489746 -3.1722497940063477 0.6108434200286865
16.068113327026367 -3.2291364669799805 0.6484966278076172
16.08807373046875 -3.3360109329223633 0.6388397216796875
16.50752067565918 -3.5288121700286865 0.5544797778129578
16.10088539123535 -3.545358896255493 0.6241714358329773
16.126413345336914 -3.6549108028411865 0.6130533814430237
16.137786865234375 -3.761784315109253 0.6044442653656006
16.11688804626465 -3.861372947692871 0.6017696261405945
16.333816528320312 -5.432960033416748 0.45271575450897217
16.086544036865234 -5.4606451988220215 0.49220776557922363
16.09322166442871 -5.573358535766602 0.4820568561553955
16.216859817504883 -5.727952003479004 0.44876009225845337
16.263338088989258 -5.85695219039917 0.43037480115890503
16.342985153198242 -5.999276638031006 0.4052213728427887
16.048538208007812 -6.003279209136963 0.45397746562957764
16.07163429260254 -6.124698638916016 0.43978092074394226
16.047096252441406 -6.228484153747559 0.434895396232605
16.374305725097656 -7.300119400024414 0.28373655676841736
16.38697624206543 -7.4267778396606445 0.2695910632610321
16.372814178466797 -7.541941165924072 0.26077210903167725
16.30889129638672 -7.6342926025390625 0.26207736134529114
16.487932205200195 -8.730217933654785 0.12185262888669968
16.353979110717773 -8.788372039794922 0.1366734355688095
16.29758071899414 -8.887558937072754 0.1348433941602707
16.223386764526367 -8.976873397827148 0.1367289423942566
16.092161178588867 -9.033865928649902 0.15087191760540009
16.154674530029297 -9.19997787475586 0.12289697676897049
12.651713371276855 12.878918647766113 0.5723708271980286
12.723135948181152 12.794099807739258 0.5724920630455017
12.68907642364502 12.604666709899902 0.5977210998535156
12.73199462890625 12.49346923828125 0.6042029857635498
12.86534309387207 12.470734596252441 0.5890599489212036
12.778864860534668 12.236149787902832 0.6257137060165405
12.79743766784668 12.104711532592773 0.6372275352478027
12.824967384338379 11.982930183410645 0.6463947296142578
12.873945236206055 11.881989479064941 0.6503554582595825
12.910513877868652 11.770273208618164 0.6570014953613281
12.949861526489258 11.66185188293457 0.6628051996231079
12.989842414855957 11.554699897766113 0.6682707667350769
13.025294303894043 11.44424057006836 0.6745756268501282
13.067327499389648 11.340241432189941 0.6791951656341553
13.095855712890625 11.225250244140625 0.6866764426231384
13.146788597106934 11.130078315734863 0.688931405544281
13.154704093933105 10.99929428100586 0.7006285190582275
13.201033592224121 10.901468276977539 0.7035536170005798
13.239023208618164 10.797257423400879 0.7081632018089294
13.27623176574707 10.692988395690918 0.7127705812454224
13.31651782989502 10.591734886169434 0.7165305018424988
13.352965354919434 10.487953186035156 0.7209643721580505
13.387084007263184 10.382912635803223 0.7257344126701355
13.418070793151855 10.27604866027832 0.7310110926628113
13.455328941345215 10.174545288085938 0.7347617149353027
13.488689422607422 10.070610046386719 0.739188015460968
13.530009269714355 9.9730806350708 0.7417466640472412
13.561079025268555 9.868461608886719 0.7463386654853821
13.592178344726562 9.764410018920898 0.7507594227790833
13.626532554626465 9.66319751739502 0.75432950258255
13.660965919494629 9.562494277954102 0.7577270269393921
13.702784538269043 9.46733283996582 0.7594208717346191
13.726856231689453 9.360356330871582 0.7646862268447876
13.759942054748535 9.260041236877441 0.7679075002670288
13.795598983764648 9.161852836608887 0.770444393157959
13.833868026733398 9.065732955932617 0.7722961902618408
13.868167877197266 8.96734619140625 0.7748274803161621
13.8992919921875 8.867288589477539 0.7778682112693787
13.945554733276367 8.777156829833984 0.7776602506637573
13.992071151733398 8.687308311462402 0.777275800704956
14.031289100646973 8.593100547790527 0.7782538533210754
14.061445236206055 8.493643760681152 0.7809401154518127
14.09768295288086 8.398171424865723 0.7822536826133728
14.138376235961914 8.305566787719727 0.782535195350647
14.184431076049805 8.216232299804688 0.7816116213798523
14.223933219909668 8.123225212097168 0.7818832993507385
14.320344924926758 8.062421798706055 0.7706438302993774
14.389839172363281 7.985918998718262 0.7647125124931335
14.940319061279297 8.17219066619873 0.6629916429519653
15.116385459899902 8.14865779876709 0.6359835267066956
15.96605110168457 8.480951309204102 0.4756755828857422
19.18265151977539 0.7869020104408264 0.10237172991037369
15.740748405456543 0.5489609241485596 0.7348848581314087
12.833041191101074 -0.6552004814147949 1.2448118925094604
12.846141815185547 -0.7349026203155518 1.239837884902954
12.861686706542969 -0.814978301525116 1.234309434890747
16.050559997558594 -1.6117721796035767 0.6168227791786194
16.104490280151367 -1.7170544862747192 0.6025674939155579
15.990710258483887 -1.8042221069335938 0.6197944283485413
15.972122192382812 -1.9014447927474976 0.6189843416213989
15.899306297302246 -1.9917919635772705 0.628322422504425
15.823063850402832 -2.0809359550476074 0.638231098651886
15.88847541809082 -2.188800096511841 0.6211892366409302
15.856851577758789 -2.2836804389953613 0.6224266290664673
15.96363639831543 -2.399139642715454 0.5972189903259277
15.802592277526855 -2.4742002487182617 0.6228830814361572
16.351360321044922 -2.8694558143615723 0.5020179748535156
16.24506950378418 -2.9536895751953125 0.5167533159255981
16.19148063659668 -3.046722888946533 0.5212980508804321
16.22223663330078 -3.155721426010132 0.5094972848892212
16.182905197143555 -3.2512810230255127 0.5110763907432556
16.189191818237305 -3.356051206588745 0.5037293434143066
16.104482650756836 -3.4417243003845215 0.5138833522796631
16.306230545043945 -3.5896353721618652 0.4683317244052887
16.16659927368164 -3.663088321685791 0.48892977833747864
16.162553787231445 -3.7666263580322266 0.48306000232696533
16.063262939453125 -3.847601890563965 0.49567610025405884
16.30060577392578 -5.532345771789551 0.3292204737663269
16.14993667602539 -5.592047691345215 0.350645512342453
16.234355926513672 -5.7331671714782715 0.3241307735443115
16.242799758911133 -5.848588466644287 0.3128969371318817
16.271638870239258 -5.97211217880249 0.297305703163147
16.2995662689209 -6.0962114334106445 0.28170067071914673
16.139394760131836 -6.149562358856201 0.3047138452529907
16.17142105102539 -6.275777816772461 0.28797051310539246
16.409975051879883 -7.43619441986084 0.1379765421152115
16.37697410583496 -7.542851448059082 0.13291864097118378
16.252592086791992 -7.606945037841797 0.1473255455493927
12.656793594360352 12.879327774047852 0.4711425006389618
12.687921524047852 12.753983497619629 0.48133257031440735
12.678155899047852 12.589179039001465 0.5013720393180847
12.65700912475586 12.41531753540039 0.5238423347473145
12.692216873168945 12.298396110534668 0.5321438908576965
13.114931106567383 12.55337905883789 0.44596511125564575
13.032417297363281 12.322487831115723 0.4827841520309448
12.828104972839355 11.981480598449707 0.5483852624893188
12.88359546661377 11.886558532714844 0.5509624481201172
12.9362211227417 11.789413452148438 0.5540537238121033
12.95886516571045 11.66571044921875 0.5640791654586792
13.01065444946289 11.56900405883789 0.566990315914154
13.02401351928711 11.43895435333252 0.5787532329559326
13.033295631408691 11.30659294128418 0.5912154912948608
13.101271629333496 11.225811958312988 0.589775025844574
13.128908157348633 11.110901832580566 0.5975440740585327
13.154120445251465 10.994810104370117 0.6056621074676514
13.193593978881836 10.891365051269531 0.6102978587150574
13.234583854675293 10.789713859558105 0.6144092679023743
13.279428482055664 10.691675186157227 0.6174710392951965
13.306612968444824 10.580005645751953 0.624366283416748
13.334481239318848 10.469619750976562 0.6309127807617188
13.374726295471191 10.369547843933105 0.6344912052154541
13.410338401794434 10.266379356384277 0.6389395594596863
13.447545051574707 10.164944648742676 0.6428619623184204
13.493483543395996 10.070505142211914 0.6446827054023743
13.52925968170166 9.96887493133545 0.6485990285873413
13.547578811645508 9.855016708374023 0.6561898589134216
13.594602584838867 9.76255989074707 0.657300591468811
13.641803741455078 9.670464515686035 0.6582306027412415
13.660158157348633 9.558398246765137 0.6652942895889282
13.697903633117676 9.460455894470215 0.6679724454879761
13.735777854919434 9.362963676452637 0.6704716682434082
14.032707214355469 9.440116882324219 0.6170953512191772
14.07192325592041 9.341900825500488 0.619204044342041
14.092348098754883 9.231688499450684 0.62517911195755
14.143367767333984 9.141883850097656 0.6244667172431946
14.178875923156738 9.04227066040039 0.626917839050293
14.006245613098145 8.812026023864746 0.6732438802719116
13.972681999206543 8.671974182128906 0.6898209452629089
14.03111457824707 8.58971881866455 0.6868290305137634
14.067156791687012 8.493839263916016 0.6884180307388306
14.103395462036133 8.39834213256836 0.6898269653320312
14.145784378051758 8.306708335876465 0.6898183226585388
14.174802780151367 8.207468032836914 0.692457377910614
14.218523979187012 8.116966247558594 0.6919092535972595
14.259953498840332 8.025269508361816 0.6917095184326172
14.346402168273926 7.958674907684326 0.6821145415306091
14.710607528686523 8.043368339538574 0.6154178380966187
15.1742582321167 8.17664623260498 0.5285890102386475
15.744555473327637 0.5467096567153931 0.6460014581680298
12.859371185302734 -0.7377532720565796 1.1651990413665771
12.861146926879883 -0.8170399069786072 1.162196159362793
15.966423988342285 -1.6057430505752563 0.5426666140556335
16.017385482788086 -1.710195541381836 0.5286396145820618
15.999361991882324 -1.8076251745224 0.5278635621070862
16.009021759033203 -1.9082683324813843 0.5215898752212524
16.011226654052734 -2.0082454681396484 0.516640305519104
15.785026550292969 -2.0783519744873047 0.5561249256134033
15.830912590026855 -2.183297634124756 0.5424576997756958
15.918852806091309 -2.295046806335449 0.5204089283943176
15.80019474029541 -2.3770132064819336 0.5386753082275391
15.96337604522705 -2.5018224716186523 0.5015594363212585
15.786486625671387 -2.5734705924987793 0.5310876965522766
16.35267448425293 -2.768850088119507 0.4142247140407562
16.3359317779541 -2.8692562580108643 0.41187912225723267
16.268354415893555 -2.9604294300079346 0.41946351528167725
16.19931411743164 -3.0507025718688965 0.4272531270980835
16.24154281616211 -3.1619927883148193 0.4128810465335846
16.075157165527344 -3.232142686843872 0.439816415309906
16.117084503173828 -3.343622922897339 0.42525121569633484
16.128488540649414 -3.4493801593780518 0.4166099727153778
16.287765502929688 -3.5881216526031494 0.3782505691051483
16.088911056518555 -3.6480257511138916 0.4113920331001282
16.101179122924805 -3.7548716068267822 0.4021635055541992
16.147897720336914 -5.483242511749268 0.2642732262611389
16.15987205505371 -5.5982232093811035 0.25242123007774353
16.146989822387695 -5.705063819885254 0.24560990929603577
16.18046760559082 -5.828911304473877 0.2288859337568283
16.163305282592773 -5.935131072998047 0.22264763712882996
16.1968936920166 -6.060609340667725 0.20551227033138275
16.084726333618164 -6.131531238555908 0.21912232041358948
16.100317001342773 -6.250999927520752 0.20548363029956818
12.683686256408691 12.897449493408203 0.36457785964012146
12.677454948425293 12.73433780670166 0.38474079966545105
12.667613983154297 12.569709777832031 0.40544769167900085
12.732123374938965 12.480080604553223 0.40692010521888733
12.667367935180664 12.265542984008789 0.44083279371261597
12.733428955078125 12.17946720123291 0.4414139688014984
13.378164291381836 12.640462875366211 0.2974350154399872
12.825693130493164 11.970684051513672 0.45201486349105835
12.878947257995605 11.873795509338379 0.45525574684143066
12.920584678649902 11.766765594482422 0.46117255091667175
12.953352928161621 11.652430534362793 0.4690535366535187
13.002120018005371 11.553168296813965 0.47281965613365173
13.059032440185547 11.461531639099121 0.4744330048561096
13.059562683105469 11.321290969848633 0.489471971988678
13.095483779907227 11.212833404541016 0.4957382380962372
13.119301795959473 11.094827651977539 0.5046921968460083
13.155003547668457 10.987674713134766 0.5105984807014465
13.193681716918945 10.88362979888916 0.5156058669090271
13.231578826904297 10.779520988464355 0.5206108093261719
13.277896881103516 10.682755470275879 0.5234580039978027
13.309662818908691 10.574810981750488 0.5295361280441284
13.348347663879395 10.472949028015137 0.5338148474693298
13.388617515563965 10.372815132141113 0.53755122423172
13.42581844329834 10.270788192749023 0.5418243408203125
13.450502395629883 10.159797668457031 0.5487973690032959
13.486948013305664 10.05829906463623 0.5528870820999146
13.51552677154541 9.951485633850098 0.5585978031158447
13.567968368530273 9.862628936767578 0.5587143898010254
13.598255157470703 9.758016586303711 0.5636987090110779
13.600485801696777 9.634068489074707 0.5748233199119568
13.691980361938477 9.573591232299805 0.5657125115394592
13.644835472106934 9.416807174682617 0.5875065326690674
13.962858200073242 9.51070785522461 0.5277203321456909
14.027067184448242 9.429290771484375 0.5245230197906494
13.863809585571289 9.196821212768555 0.5714892148971558
13.84058666229248 9.05990982055664 0.587148904800415
13.888076782226562 8.970056533813477 0.5870441794395447
13.940792083740234 8.883660316467285 0.5856634974479675
14.184436798095703 8.917352676391602 0.5425199270248413
14.0713472366333 8.726522445678711 0.5770673751831055
14.024405479431152 8.578988075256348 0.5969266295433044
14.066275596618652 8.486721992492676 0.5973448157310486
14.105008125305176 8.392754554748535 0.5983036160469055
13.976906776428223 8.20107650756836 0.6349447965621948
14.20783519744873 8.220109939575195 0.5943793654441833
14.231983184814453 8.118205070495605 0.5980569124221802
14.281982421875 8.03125286102295 0.5960797667503357
14.34090805053711 7.949235916137695 0.59208744764328
14.665095329284668 8.012012481689453 0.5318413972854614
15.071931838989258 8.114925384521484 0.4543429911136627
15.216547012329102 8.073036193847656 0.43232691287994385
15.288023948669434 7.9914093017578125 0.4256470203399658
15.748888969421387 0.54173344373703 0.556742250919342
12.855340003967285 -0.7418597340583801 1.0935900211334229
12.86001205444336 -0.8213093280792236 1.0899690389633179
15.929612159729004 -1.7060519456863403 0.4555087387561798
15.994457244873047 -1.812317132949829 0.4382203221321106
16.02060890197754 -1.9149092435836792 0.42851611971855164
15.951704978942871 -2.0060343742370605 0.4377264976501465
15.73157787322998 -2.0765159130096436 0.47721216082572937
15.714250564575195 -2.172419309616089 0.4759252369403839
15.92444133758545 -2.301121473312378 0.4287036061286926
15.837851524353027 -2.387929677963257 0.44108307361602783
15.759522438049316 -2.4751338958740234 0.4517209827899933
15.730080604553223 -2.569525957107544 0.4523881673812866
16.047046661376953 -3.0274229049682617 0.3653661012649536
16.179811477661133 -3.15541410446167 0.33220338821411133
16.138578414916992 -3.25032639503479 0.33439385890960693
16.13422966003418 -3.352628707885742 0.3289188742637634
16.303714752197266 -3.4923548698425293 0.2876102328300476
16.111135482788086 -3.5546987056732178 0.3205226957798004
16.124929428100586 -3.6616833209991455 0.3109026849269867
16.047317504882812 -3.747803211212158 0.3200145661830902
16.27935218811035 -5.645530700683594 0.1299908608198166
16.213491439819336 -5.846765995025635 0.12446305900812149
16.211814880371094 -5.958930015563965 0.11471282690763474
16.106597900390625 -6.032815933227539 0.12734296917915344
16.114608764648438 -6.148938179016113 0.11519567668437958
12.699301719665527 12.783203125 0.25899815559387207
12.724076271057129 12.652419090270996 0.271443635225296
12.63693904876709 12.412992477416992 0.3130214214324951
12.639060974121094 12.264086723327637 0.3306504189968109
12.712212562561035 12.184988975524902 0.3294637203216553
13.001827239990234 12.310867309570312 0.2721412181854248
12.845542907714844 12.014739990234375 0.330016553401947
12.883208274841309 11.90306282043457 0.33748722076416016
12.924345970153809 11.79534912109375 0.34384748339653015
12.963189125061035 11.686259269714355 0.3505752980709076
13.01366138458252 11.588245391845703 0.3541548550128937
13.039068222045898 11.468634605407715 0.363840252161026
13.070178985595703 11.354945182800293 0.37185966968536377
13.127983093261719 11.264981269836426 0.3730210065841675
13.146943092346191 11.142333030700684 0.383633017539978
13.189764022827148 11.04068660736084 0.3881250321865082
13.226531982421875 10.934551239013672 0.39391353726387024
13.227484703063965 10.799792289733887 0.4082428514957428
13.25100040435791 10.684552192687988 0.4168190360069275
13.289745330810547 10.582281112670898 0.4214923679828644
13.330827713012695 10.482362747192383 0.42541924118995667
13.373513221740723 10.384146690368652 0.42878457903862
13.41393756866455 10.284601211547852 0.43251851201057434
13.447379112243652 10.180206298828125 0.43773970007896423
13.468243598937988 10.066962242126465 0.4457550644874573
13.507200241088867 9.967845916748047 0.44929617643356323
13.553389549255371 9.874412536621094 0.4509686827659607
13.58857536315918 9.773327827453613 0.45506274700164795
13.634244918823242 9.680143356323242 0.4565398097038269
13.68652629852295 9.591837882995605 0.4563298225402832
13.787521362304688 9.53734302520752 0.4447067975997925
14.133373260498047 9.6492338180542 0.3765644431114197
13.807355880737305 9.303305625915527 0.46314749121665955
13.825313568115234 9.192893028259277 0.47021979093551636
13.876111030578613 9.10470199584961 0.46961066126823425
13.917277336120605 9.010359764099121 0.47105708718299866
13.917248725891113 8.889944076538086 0.48169171810150146
13.966129302978516 8.801286697387695 0.48106977343559265
14.371472358703613 8.934296607971191 0.4000588357448578
14.006936073303223 8.589284896850586 0.4922093451023102
14.048033714294434 8.49661636352539 0.49289175868034363
14.08936595916748 8.404267311096191 0.4933810532093048
14.137711524963379 8.316210746765137 0.4921715259552002
14.194852828979492 8.233294486999512 0.48888376355171204
14.215702056884766 8.129511833190918 0.49350154399871826
14.282864570617676 8.05230712890625 0.4877491891384125
14.29210090637207 7.942620277404785 0.494625449180603
14.790608406066895 8.101543426513672 0.39409494400024414
15.001206398010254 8.09791088104248 0.35690686106681824
15.114334106445312 8.039885520935059 0.34102633595466614
15.752226829528809 0.5595452189445496 0.45349815487861633
12.87104320526123 -0.6486342549324036 1.0094257593154907
12.86354923248291 -0.7273916006088257 1.0083411931991577
12.863397598266602 -0.8065741658210754 1.005657434463501
15.984484672546387 -1.693813681602478 0.34031036496162415
15.956820487976074 -1.7899545431137085 0.34162837266921997
15.848809242248535 -1.8763766288757324 0.3594425916671753
15.990159034729004 -1.9926807880401611 0.32556575536727905
15.778105735778809 -2.0646491050720215 0.36474302411079407
16.022850036621094 -2.1967697143554688 0.3090731203556061
15.8108549118042 -2.2666337490081787 0.3480956554412842
15.801072120666504 -2.3642799854278564 0.34500691294670105
15.74423599243164 -2.454651117324829 0.3516075015068054
15.595046997070312 -2.5295181274414062 0.3774104118347168
15.656075477600098 -2.638131618499756 0.3591865003108978
16.081008911132812 -2.8113491535186768 0.2644924223423004
15.706485748291016 -2.845320224761963 0.33725327253341675
15.96454906463623 -2.993391990661621 0.277063250541687
16.009862899780273 -3.1037304401397705 0.261381059885025
16.06209945678711 -3.2162773609161377 0.24406176805496216
16.056015014648438 -3.3176944255828857 0.23889847099781036
16.077058792114258 -3.425077199935913 0.22784559428691864
16.053396224975586 -3.5231893062591553 0.22612835466861725
16.072107315063477 -3.630852460861206 0.21526652574539185
16.035737991333008 -3.7262470722198486 0.21598947048187256
12.709498405456543 12.629157066345215 0.16303414106369019
12.623749732971191 12.391434669494629 0.20563843846321106
12.661027908325195 12.276885986328125 0.21437029540538788
12.998188018798828 11.8545503616333 0.2146846204996109
13.038864135742188 11.746367454528809 0.2212914228439331
13.070639610290527 11.630950927734375 0.22999773919582367
13.086749076843262 11.502625465393066 0.24252760410308838
13.118827819824219 11.389339447021484 0.2506617605686188
13.150758743286133 11.276728630065918 0.2586044371128082
13.187047958374023 11.168594360351562 0.26520663499832153
13.190888404846191 11.033988952636719 0.27985188364982605
13.232927322387695 10.93226146697998 0.28453871607780457
13.270413398742676 10.8273286819458 0.29018083214759827
13.307112693786621 10.722346305847168 0.29582110047340393
13.339954376220703 10.614873886108398 0.30222684144973755
13.375068664550781 10.509825706481934 0.30786365270614624
13.412498474121094 10.407151222229004 0.3127301037311554
13.447617530822754 10.303217887878418 0.31797850131988525
13.48275089263916 10.199834823608398 0.32303303480148315
13.524986267089844 10.102278709411621 0.3261614739894867
13.542840003967285 9.987112998962402 0.33506110310554504
13.582799911499023 9.888858795166016 0.33837759494781494
13.617286682128906 9.78704833984375 0.34284693002700806
13.655036926269531 9.68802547454834 0.34634989500045776
13.698516845703125 9.59341049194336 0.348307341337204
13.742157936096191 9.49917984008789 0.3500669598579407
13.801477432250977 9.292658805847168 0.3597550392150879
13.852898597717285 9.204588890075684 0.3591848611831665
13.891451835632324 9.108163833618164 0.3615090548992157
13.9005126953125 8.992959976196289 0.3706020712852478
13.961614608764648 8.91176700592041 0.36730802059173584
13.941716194152832 8.779451370239258 0.38279464840888977
14.040849685668945 8.60369873046875 0.38083407282829285
14.082030296325684 8.510833740234375 0.3815900683403015
14.13102912902832 8.422806739807129 0.3803999125957489
14.15664291381836 8.321075439453125 0.38444769382476807
14.209548950195312 8.235578536987305 0.38208118081092834
14.2372407913208 8.135628700256348 0.38534536957740784
14.349722862243652 7.968494892120361 0.37843817472457886
14.554508209228516 7.966054916381836 0.3411785066127777
15.732712745666504 0.5539811849594116 0.35724779963493347
12.87708854675293 -0.6530722379684448 0.9260153770446777
12.850020408630371 -0.7307549118995667 0.9290639758110046
12.864481925964355 -0.8107773065567017 0.9232633113861084
16.159196853637695 -1.6171495914459229 0.20497752726078033
16.01426887512207 -1.7019543647766113 0.23140035569667816
15.820310592651367 -1.7795789241790771 0.268207311630249
15.75425910949707 -1.8701106309890747 0.27772653102874756
15.905145645141602 -1.987061619758606 0.2408439666032791
15.808801651000977 -2.07362699508667 0.2565857470035553
16.01824951171875 -2.201162338256836 0.20678822696208954
15.911048889160156 -2.286003828048706 0.22461162507534027
15.828570365905762 -2.373387098312378 0.23705917596817017
15.770750999450684 -2.4637725353240967 0.24412164092063904
15.958616256713867 -2.5935444831848145 0.19816099107265472
16.0355167388916 -2.707156181335449 0.17587241530418396
16.044174194335938 -2.8100011348724365 0.16813728213310242
16.17150115966797 -2.934708833694458 0.13455967605113983
16.033550262451172 -3.0114450454711914 0.15828047692775726
15.983604431152344 -3.103752374649048 0.1628413200378418
15.996417999267578 -3.208254098892212 0.1536349356174469
15.993224143981934 -3.309861660003662 0.14776404201984406
15.970257759094238 -3.407472610473633 0.14607007801532745
12.677703857421875 12.292961120605469 0.10430464893579483
13.757378578186035 9.634791374206543 0.23365820944309235
13.810949325561523 9.546899795532227 0.23312866687774658
13.783905029296875 9.280999183654785 0.26445919275283813
13.829534530639648 9.18924331665039 0.2653179168701172
13.873739242553711 9.0967378616333 0.2663700580596924
13.859736442565918 8.966766357421875 0.28135767579078674
13.952871322631836 8.906388282775879 0.27025309205055237
14.065485000610352 8.619016647338867 0.2763475179672241
14.115984916687012 8.531584739685059 0.2749773859977722
14.169305801391602 8.445860862731934 0.2728012800216675
14.20605754852295 8.350366592407227 0.2744148373603821
14.249801635742188 8.259159088134766 0.27422502636909485
14.314227104187012 8.17988109588623 0.2690272629261017
16.207542419433594 0.7703590989112854 0.16344644129276276
15.74289608001709 0.5548417568206787 0.26043206453323364
12.848912239074707 -0.730424165725708 0.8518915772438049
12.858463287353516 -0.8101292252540588 0.8470360040664673
15.856474876403809 -1.9804515838623047 0.1550532877445221
15.757357597351074 -2.0663576126098633 0.17192424833774567
15.823309898376465 -2.1738510131835938 0.15237835049629211
15.808259963989258 -2.270709991455078 0.15051057934761047
15.866047859191895 -2.3784711360931396 0.13242903351783752
15.883526802062988 -2.4808506965637207 0.12308219820261002
15.772961616516113 -2.6623101234436035 0.13621439039707184
13.762800216674805 9.25988483428955 0.17682324349880219
13.844993591308594 9.192643165588379 0.1685621589422226
13.876117706298828 9.091468811035156 0.1729564070701599
13.888437271118164 8.978564262390137 0.18184687197208405
13.94033432006836 8.891646385192871 0.1807171255350113
13.949440002441406 8.77783489227295 0.19001764059066772
14.063021659851074 8.259811401367188 0.21687915921211243
15.742112159729004 0.5497073531150818 0.1713465005159378
12.858736991882324 -0.7353044152259827 0.7766481041908264
12.850693702697754 -0.8139640092849731 0.7756155729293823
15.671842575073242 -1.8649601936340332 0.11058562248945236
15.67805290222168 -1.9633363485336304 0.10438171029090881
15.642033576965332 -2.0563971996307373 0.10756014287471771
12.850282669067383 -0.7199782729148865 0.6988852620124817
12.85108470916748 -0.7991334199905396 0.6958672404289246
12.839574813842773 -0.7257305383682251 0.6184396147727966
12.856840133666992 -0.805855929851532 0.6115012764930725
12.841057777404785 -0.7232344746589661 0.5376308560371399
12.85053539276123 -0.802876353263855 0.5324345827102661
12.83325481414795 -0.7249016165733337 0.4682040810585022
12.842693328857422 -0.8044953346252441 0.46293237805366516
12.829992294311523 -0.7144117951393127 0.39084842801094055
12.840434074401855 -0.7940346598625183 0.3852485120296478
12.815129280090332 -0.715374231338501 0.3087162673473358
12.840019226074219 -0.7958024144172668 0.2992539405822754
12.818148612976074 -0.7130002975463867 0.22907857596874237
12.873867988586426 -0.7953397035598755 0.21122945845127106
12.820712089538574 -0.7175213098526001 0.15862859785556793
12.876310348510742 -0.7998875379562378 0.1404705047607422
12.664908409118652 12.744799613952637 1.2904778718948364
12.681052207946777 12.672472953796387 1.294480562210083
12.775652885437012 12.767318725585938 0.3733755350112915
12.700372695922852 12.60368537902832 1.2978729009628296
12.800658226013184 12.703585624694824 0.3771788477897644
12.721132278442383 12.536656379699707 1.300959825515747
12.767472267150879 12.582776069641113 0.3950703740119934
12.738426208496094 12.462206840515137 1.304918646812439
12.725200653076172 12.449797630310059 0.41548654437065125
12.762093544006348 12.398670196533203 1.3073939085006714
12.785470008850098 12.335118293762207 1.3098677396774292
12.810354232788086 12.273271560668945 1.3120348453521729
31.058425903320312 29.566104888916016 0.33134686946868896
12.827445983886719 12.208505630493164 1.3151650428771973
31.077835083007812 29.37877082824707 0.3376542031764984
12.842755317687988 12.138114929199219 1.318862795829773
31.056318283081055 29.154117584228516 0.3480232357978821
12.86315631866455 12.072858810424805 1.3216418027877808
12.90052604675293 12.108834266662598 0.4289686977863312
32.371089935302734 30.175251007080078 2.398552179336548
31.11751365661621 29.0081729888916 0.3499092757701874
12.890521049499512 12.014372825622559 1.3231940269470215
12.92084789276123 12.043603897094727 0.4332002103328705
32.397247314453125 29.98910140991211 2.3989622592926025
31.11219596862793 28.80118751525879 0.3584437668323517
12.912171363830566 11.950786590576172 1.32566499710083
12.9517183303833 11.98841381072998 0.4348628520965576
32.48657989501953 29.851591110229492 2.397263526916504
31.220943450927734 28.690378189086914 0.3557833135128021
12.93925666809082 11.888298034667969 1.3274763822555542
12.962667465209961 11.910894393920898 0.4416166841983795
32.53877639770508 29.690876007080078 2.396735668182373
31.298538208007812 28.561094284057617 0.35581398010253906
12.953003883361816 11.817997932434082 1.331174373626709
12.993002891540527 11.855637550354004 0.44327735900878906
32.54765319824219 29.49156379699707 2.3976500034332275
12.971932411193848 11.7527437210083 1.3339513540267944
13.010334968566895 11.788740158081055 0.44793543219566345
32.54856872558594 29.296560287475586 2.39874529838562
13.04092788696289 11.739998817443848 2.196226119995117
12.988534927368164 11.689766883850098 1.3367737531661987
13.036312103271484 11.734021186828613 0.4500676691532135
32.49958419799805 29.047897338867188 2.4015579223632812
13.061267852783203 11.676146507263184 2.197349786758423
13.008733749389648 11.62619400024414 1.3392431735992432
13.047563552856445 11.662209510803223 0.45601117610931396
32.46421813964844 28.813207626342773 2.403878688812256
13.086915969848633 11.617259979248047 2.197916269302368
13.030505180358887 11.564269065856934 1.3414047956466675
13.069530487060547 11.600271224975586 0.459382563829422
32.52135467529297 28.661731719970703 2.403050422668457
13.11418342590332 11.559986114501953 2.198296308517456
13.057583808898926 11.507251739501953 1.3426425457000732
13.096765518188477 11.543205261230469 0.4614667296409607
32.581600189208984 28.513507843017578 2.4020934104919434
13.129953384399414 11.49281120300293 2.19978928565979
13.073221206665039 11.440384864807129 1.3457262516021729
13.112643241882324 11.476360321044922 0.4661237895488739
32.58649444580078 28.317672729492188 2.40297532081604
13.147297859191895 11.427301406860352 2.201097011566162
13.09979248046875 11.383312225341797 1.3469620943069458
13.133790969848633 11.414389610290527 0.46949347853660583
32.615028381347656 28.143375396728516 2.4030351638793945
13.168118476867676 11.365069389343262 2.2020323276519775
13.12048625946045 11.321331024169922 1.3491209745407104
13.15466594696045 11.352408409118652 0.47286301851272583
32.62375259399414 27.952964782714844 2.4037351608276367
13.188666343688965 11.30282974243164 2.2029671669006348
13.137140274047852 11.256114959716797 1.351896047592163
13.173399925231934 11.288819313049316 0.4766610264778137
32.622032165527344 27.754735946655273 2.404758930206299
13.210840225219727 11.242201805114746 2.2037153244018555
13.166728973388672 11.202173233032227 1.352512240409851
13.201231002807617 11.233217239379883 0.4783109426498413
32.64224624633789 27.576217651367188 2.4050207138061523
13.232749938964844 11.181553840637207 2.204463005065918
13.186624526977539 11.140156745910645 1.3546693325042725
13.217544555664062 11.168021202087402 0.48253804445266724
32.63861846923828 27.378620147705078 2.406055212020874
13.262038230895996 11.127302169799805 2.204463481903076
