# .PCD v0.7 - Point Cloud Data file format
VERSION 0.7
FIELDS x y z
SIZE 4 4 4
TYPE F F F
COUNT 1 1 1
WIDTH 853
HEIGHT 1
VIEWPOINT 0 0 0 1 0 0 0
POINTS 853
DATA ascii
34.010948181152344 5.504560470581055 2.2361934185028076
34.018226623535156 5.291834831237793 2.2328546047210693
34.02516174316406 5.079373359680176 2.2294762134552
34.03968048095703 4.868297576904297 2.2257297039031982
34.04694366455078 4.6564226150512695 2.2222282886505127
34.05289840698242 4.444639682769775 2.2187271118164062
34.06744384765625 4.234191417694092 2.214813470840454
34.0806884765625 4.023730278015137 2.2108983993530273
33.549495697021484 3.752495527267456 2.2297024726867676
33.52003860473633 3.5411670207977295 2.22752046585083
33.597625732421875 3.341121196746826 2.220792293548584
33.63820266723633 3.1369144916534424 2.2155537605285645
33.6566276550293 2.930513858795166 2.211189031600952
33.6688117980957 2.7236008644104004 2.2070305347442627
33.67274856567383 2.5161263942718506 2.203166961669922
33.681392669677734 2.309115171432495 2.199047327041626
33.67878723144531 2.1014692783355713 2.1953518390655518
33.6699104309082 1.8936604261398315 2.1918702125549316
12.09965991973877 0.6052869558334351 3.1138429641723633
33.686248779296875 1.4802790880203247 2.183281898498535
12.683098793029785 0.47863513231277466 3.085787773132324
19.31220054626465 0.6108466982841492 2.797323703765869
33.72420883178711 0.8605882525444031 2.169386386871338
33.74165725708008 0.6539552807807922 2.1644287109375
33.75883102416992 0.4471528232097626 2.1594197750091553
33.76974105834961 0.24012745916843414 2.1546249389648438
33.7813835144043 0.032985933125019073 2.1497385501861572
12.866314888000488 -0.06712929904460907 3.066512107849121
12.717743873596191 -0.14438779652118683 3.071364402770996
33.79767608642578 -0.5890254974365234 2.1355390548706055
33.80222702026367 -0.7965452671051025 2.1307260990142822
11.52642822265625 -0.34319403767585754 3.119276285171509
12.481473922729492 -0.448175847530365 3.074946403503418
11.768760681152344 -0.49495917558670044 3.105156660079956
12.74132251739502 -0.6140796542167664 3.059690237045288
13.368674278259277 -0.7264794111251831 3.0295093059539795
12.845368385314941 -0.7771503329277039 3.051251173019409
12.836301803588867 -0.8556655645370483 3.049750566482544
33.88829040527344 -2.4658474922180176 2.0877490043640137
13.084617614746094 -1.0335839986801147 3.0344948768615723
13.098859786987305 -1.1156055927276611 3.031820058822632
12.309770584106445 -1.124579906463623 3.066124439239502
12.348305702209473 -1.204525113105774 3.0623958110809326
12.746010780334473 -1.322264313697815 3.041970729827881
12.758438110351562 -1.4027155637741089 3.0393271446228027
13.38457202911377 -1.554654598236084 3.0079874992370605
13.425272941589355 -1.642911434173584 3.0038585662841797
13.482237815856934 -1.7338911294937134 2.998924970626831
13.841513633728027 -1.8664520978927612 2.9796714782714844
11.84555721282959 -1.6715434789657593 3.071876287460327
13.847060203552246 -2.040485143661499 2.9746220111846924
34.00017547607422 -5.221714973449707 2.010129690170288
33.99589920043945 -5.434748649597168 2.0042834281921387
34.001129150390625 -5.649728775024414 1.9979108572006226
34.01385498046875 -5.8665056228637695 1.9911037683486938
34.02912902832031 -6.084355354309082 1.984095573425293
34.03220748901367 -6.300614356994629 1.9776020050048828
34.038814544677734 -6.518080711364746 1.9708623886108398
33.99503707885742 -6.726173400878906 1.9665157794952393
33.89616012573242 -6.922984600067139 1.9648232460021973
33.851863861083984 -7.130570888519287 1.9603967666625977
33.8443603515625 -7.346136569976807 1.954085350036621
33.84231185913086 -7.563404083251953 1.947428584098816
33.818424224853516 -7.776224136352539 1.9417877197265625
33.85540771484375 -8.003742218017578 1.9330207109451294
33.83845520019531 -8.219276428222656 1.9268780946731567
34.03527069091797 -8.488556861877441 1.9098381996154785
34.043296813964844 -8.71277141571045 1.9022340774536133
34.097190856933594 -8.949828147888184 1.8922014236450195
34.091575622558594 -9.172306060791016 1.885113000869751
34.074886322021484 -9.392399787902832 1.8785126209259033
34.08849334716797 -9.62158489227295 1.8702667951583862
34.10152816772461 -9.851569175720215 1.861958384513855
34.09482192993164 -10.076698303222656 1.8545866012573242
34.094276428222656 -10.304429054260254 1.8468053340911865
34.113216400146484 -10.539016723632812 1.8379096984863281
34.15245819091797 -10.78113842010498 1.8278404474258423
34.14818572998047 -11.01065444946289 1.8199710845947266
34.14237594604492 -11.240524291992188 1.8120920658111572
34.147335052490234 -11.474873542785645 1.8035447597503662
34.151641845703125 -11.710031509399414 1.794933795928955
34.15717697143555 -11.946662902832031 1.7861580848693848
34.1281623840332 -12.1720609664917 1.7791579961776733
34.10893249511719 -12.401650428771973 1.7715383768081665
34.29137420654297 -12.706754684448242 1.7527693510055542
34.29943084716797 -12.949662208557129 1.7434113025665283
34.31138610839844 -13.195297241210938 1.7337290048599243
34.3206787109375 -13.441203117370605 1.7240829467773438
34.32081985473633 -13.684761047363281 1.7148362398147583
34.34054946899414 -13.937461853027344 1.704380989074707
34.36030578613281 -14.191683769226074 1.6938027143478394
34.35429000854492 -14.436614036560059 1.684564471244812
34.35206604003906 -14.68436050415039 1.6749992370605469
29.63613510131836 -12.88430404663086 1.935366153717041
29.55906105041504 -13.067062377929688 1.931244134902954
34.422306060791016 -15.469937324523926 1.6411659717559814
34.42641830444336 -15.726433753967285 1.6307450532913208
34.406028747558594 -15.97304916381836 1.6216325759887695
34.450740814208984 -16.251529693603516 1.6085827350616455
34.44289016723633 -16.506996154785156 1.5984848737716675
34.46282958984375 -16.77739906311035 1.5866142511367798
34.446720123291016 -17.031848907470703 1.5767529010772705
34.4359245300293 -17.29031753540039 1.5664514303207397
34.352962493896484 -17.513465881347656 1.5603774785995483
34.28363800048828 -17.74405288696289 1.5533952713012695
34.23310089111328 -17.98512840270996 1.545174479484558
34.24257278442383 -18.259138107299805 1.5331686735153198
34.39662551879883 -18.613298416137695 1.5120983123779297
34.12834930419922 -18.739835739135742 1.5169661045074463
34.52800750732422 -19.23601531982422 1.4802254438400269
34.42472839355469 -19.456289291381836 1.4745928049087524
34.53487014770508 -19.799179077148438 1.45542311668396
34.520381927490234 -20.073379516601562 1.4439233541488647
34.53478240966797 -20.36640739440918 1.4304349422454834
34.5391731262207 -20.65575408935547 1.4174178838729858
34.57033157348633 -20.963518142700195 1.4025063514709473
34.53520965576172 -21.23322296142578 1.3917089700698853
34.515865325927734 -21.514375686645508 1.3797394037246704
34.463134765625 -21.77635383605957 1.3698054552078247
34.52451705932617 -22.112810134887695 1.3521994352340698
34.570491790771484 -22.442678451538086 1.335391640663147
34.57200241088867 -22.746501922607422 1.3213402032852173
34.515419006347656 -23.01407814025879 1.311011552810669
34.63306427001953 -23.4008731842041 1.2887479066848755
34.725006103515625 -23.77474594116211 1.2679463624954224
34.74473571777344 -24.102819442749023 1.2518197298049927
34.729068756103516 -24.4090633392334 1.2379201650619507
34.80772018432617 -24.784931182861328 1.2172847986221313
34.79884338378906 -25.101938247680664 1.2024867534637451
34.81237030029297 -25.43802261352539 1.1859110593795776
34.82146453857422 -25.774030685424805 1.1694220304489136
34.835731506347656 -26.117090225219727 1.1523381471633911
34.843902587890625 -26.45887565612793 1.1354531049728394
34.8792610168457 -26.824871063232422 1.1163718700408936
34.88621520996094 -27.17266082763672 1.0990872383117676
34.8721809387207 -27.507322311401367 1.0830940008163452
34.89512634277344 -27.874605178833008 1.0641494989395142
34.76893997192383 -28.125167846679688 1.0559899806976318
34.7661018371582 -28.477712631225586 1.0385010242462158
34.907779693603516 -28.953641891479492 1.0098990201950073
34.9233512878418 -29.330293655395508 0.9904296398162842
34.89909744262695 -29.67717742919922 0.9737111926078796
34.93317413330078 -30.077625274658203 0.9522675275802612
34.91622543334961 -30.438276290893555 0.9344523549079895
34.8834342956543 -30.788616180419922 0.9176038503646851
34.965267181396484 -31.244792938232422 0.891512930393219
34.976165771484375 -31.64284896850586 0.8706330060958862
34.970977783203125 -32.0307502746582 0.8507164716720581
35.00844192504883 -32.46253204345703 0.8270756602287292
35.020809173583984 -32.87615966796875 0.8050978779792786
34.98743438720703 -33.25127410888672 0.786501944065094
32.34734344482422 30.813203811645508 2.053069829940796
32.39727783203125 30.48407554626465 2.0558178424835205
32.346309661865234 30.06432342529297 2.0633347034454346
32.470298767089844 29.810596466064453 2.062228202819824
32.54798889160156 29.51619529724121 2.0632541179656982
32.46771240234375 29.082603454589844 2.071762800216675
32.426021575927734 28.688861846923828 2.078265428543091
32.5643310546875 28.45719337463379 2.076016664505005
32.58452224731445 28.124345779418945 2.079308271408081
32.60414505004883 27.794269561767578 2.082505941390991
32.60260009765625 27.449567794799805 2.08658766746521
32.62572479248047 27.128936767578125 2.08937931060791
32.639198303222656 26.803348541259766 2.0925116539001465
32.641380310058594 26.471694946289062 2.096060037612915
32.67036056518555 26.164770126342773 2.098233222961426
32.66702651977539 25.834928512573242 2.1018142700195312
32.69948196411133 25.536258697509766 2.103606700897217
32.699424743652344 25.21497344970703 2.1068127155303955
32.70621109008789 24.901918411254883 2.109590768814087
32.7447395324707 24.615554809570312 2.1107871532440186
32.71759796142578 24.282602310180664 2.1149327754974365
32.5231819152832 23.83041763305664 2.126718521118164
32.42162322998047 23.451826095581055 2.1340763568878174
32.50288009643555 23.208370208740234 2.132878303527832
32.51866912841797 22.91989517211914 2.1346113681793213
32.55757141113281 22.64979362487793 2.135186195373535
32.48647689819336 22.30597496032715 2.140723705291748
32.54475402832031 22.0535831451416 2.140223264694214
32.655982971191406 21.83797836303711 2.1372108459472656
32.45886993408203 21.419288635253906 2.1482269763946533
32.447113037109375 21.127077102661133 2.150660276412964
32.49941635131836 20.878494262695312 2.1500792503356934
32.56508255004883 20.639690399169922 2.1488068103790283
32.52229690551758 20.334115982055664 2.152393102645874
32.52971649169922 20.06237030029297 2.153604507446289
32.55894088745117 19.805843353271484 2.1537420749664307
32.61194610595703 19.565134048461914 2.1527183055877686
32.6013069152832 19.287885665893555 2.1545026302337646
32.41157913208008 18.908273696899414 2.1643221378326416
32.65929412841797 18.78533363342285 2.154236316680908
32.66508102416992 18.523027420043945 2.1550350189208984
32.72644805908203 18.293540954589844 2.1532416343688965
32.82123947143555 18.08328628540039 2.149862766265869
32.9366340637207 17.884477615356445 2.1454808712005615
32.99795913696289 17.656644821166992 2.1434671878814697
33.02857208251953 17.413352966308594 2.1427669525146484
33.0317268371582 17.156993865966797 2.143230438232422
33.05344009399414 16.911718368530273 2.1427812576293945
33.0528678894043 16.656478881835938 2.143263816833496
33.08174133300781 16.417434692382812 2.1423466205596924
33.095458984375 16.172080993652344 2.142038345336914
33.093013763427734 15.920246124267578 2.1423866748809814
33.09956359863281 15.67418098449707 2.1422581672668457
33.118831634521484 15.435389518737793 2.1414856910705566
33.140960693359375 15.19903564453125 2.1405141353607178
33.15688705444336 14.960936546325684 2.1397526264190674
33.1410026550293 14.709834098815918 2.140352964401245
33.16449737548828 14.4774808883667 2.1391117572784424
33.168949127197266 14.237906455993652 2.138659954071045
33.191959381103516 14.007368087768555 2.1373043060302734
33.19124984741211 13.76789379119873 2.136949062347412
33.2045783996582 13.535367012023926 2.135894775390625
33.23392868041992 13.310256004333496 2.1340513229370117
33.09348678588867 13.019079208374023 2.1398024559020996
33.13712692260742 12.802149772644043 2.1371827125549316
33.55393981933594 12.727285385131836 2.1176395416259766
33.69205093383789 12.54388427734375 2.1106085777282715
33.72125244140625 12.319831848144531 2.1084303855895996
33.73957061767578 12.092521667480469 2.1066782474517822
33.736576080322266 11.858489990234375 2.1058247089385986
33.74993133544922 11.63113784790039 2.1041667461395264
33.75419998168945 11.401507377624512 2.102855920791626
33.76829528808594 11.176031112670898 2.1010355949401855
33.783756256103516 10.95173454284668 2.0990889072418213
33.80249786376953 10.729180335998535 2.096928119659424
33.80165481567383 10.50117301940918 2.0955941677093506
33.79546356201172 10.272418975830078 2.094442129135132
33.80498123168945 10.049259185791016 2.0925116539001465
33.83317947387695 9.832226753234863 2.089665412902832
33.83692169189453 9.608673095703125 2.0878725051879883
33.847862243652344 9.387845993041992 2.0856871604919434
33.86219024658203 9.16855239868164 2.083285093307495
33.8741340637207 8.949179649353027 2.0809290409088135
33.88853454589844 8.731002807617188 2.078397274017334
33.89668655395508 8.51176643371582 2.0760903358459473
33.87432098388672 8.285636901855469 2.075124979019165
33.90195846557617 8.072368621826172 2.071798086166382
33.90587615966797 7.853886127471924 2.0695009231567383
33.89669418334961 7.633022785186768 2.0677475929260254
33.925113677978516 7.421109676361084 2.0641961097717285
33.940486907958984 7.206643104553223 2.0611844062805176
33.94471740722656 6.990251064300537 2.058626174926758
33.964229583740234 6.777401447296143 2.055297613143921
33.97554016113281 6.5632476806640625 2.0522873401641846
33.97372055053711 6.3470072746276855 2.049827814102173
33.9783935546875 6.1324543952941895 2.047003984451294
33.98564529418945 5.918768882751465 2.0439980030059814
33.998451232910156 5.706381320953369 2.040670156478882
34.00993728637695 5.494058132171631 2.0373423099517822
34.01416778564453 5.280888557434082 2.0342929363250732
34.01213073730469 5.067135334014893 2.0314769744873047
34.036441802978516 4.857558727264404 2.027358055114746
34.04856491088867 4.646387577056885 2.023749589920044
34.05443572998047 4.434603691101074 2.0203747749328613
34.06294250488281 4.223413467407227 2.016812801361084
34.07709884643555 4.0131025314331055 2.0129196643829346
33.54395294189453 3.7418365478515625 2.0350394248962402
33.5144157409668 3.5305593013763428 2.0331578254699707
33.58095932006836 3.3294484615325928 2.0266242027282715
33.62939453125 3.1260793209075928 2.0208852291107178
33.649723052978516 2.919907331466675 2.0164265632629395
33.65684127807617 2.7126388549804688 2.0125374794006348
33.6646728515625 2.505539655685425 2.008551597595215
33.66923522949219 2.298309564590454 2.0046608448028564
11.97285270690918 0.7422093152999878 3.0528199672698975
12.026972770690918 0.6715452671051025 3.048840284347534
12.186417579650879 0.6055166125297546 3.039695978164673
33.66276931762695 1.4693139791488647 1.9896737337112427
12.199769020080566 0.45623111724853516 3.036182403564453
12.845175743103027 0.4015904664993286 3.0030503273010254
33.712432861328125 0.8503607511520386 1.975100040435791
33.736778259277344 0.6439321041107178 1.9697232246398926
33.75186538696289 0.4371316134929657 1.9647339582443237
33.76268768310547 0.2301482856273651 1.9598884582519531
33.76025390625 0.02303856611251831 1.9556336402893066
33.78152084350586 -0.18416853249073029 1.9501348733901978
12.811081886291504 -0.14971019327640533 2.993269920349121
12.732952117919922 -0.2269338071346283 2.9954493045806885
33.78374481201172 -0.8060431480407715 1.936302661895752
33.82087326049805 -1.014545202255249 1.9297263622283936
11.81214427947998 -0.42821380496025085 3.0366389751434326
12.249266624450684 -0.519241988658905 3.0128040313720703
12.956029891967773 -0.6287244558334351 2.975121259689331
12.697555541992188 -0.6943221688270569 2.9863815307617188
12.842508316040039 -0.7812696695327759 2.977079153060913
12.875259399414062 -0.8625627756118774 2.973457098007202
11.796911239624023 -0.8632166385650635 3.0269103050231934
13.140312194824219 -1.0423616170883179 2.955815315246582
12.644018173217773 -1.081163763999939 2.9794106483459473
12.267109870910645 -1.1248414516448975 2.996943712234497
33.904659271240234 -3.315131902694702 1.8690441846847534
12.749876976013184 -1.3269610404968262 2.9677493572235107
13.08983325958252 -1.4435125589370728 2.9478306770324707
13.338556289672852 -1.55378258228302 2.932563304901123
13.346527099609375 -1.6377596855163574 2.929870843887329
33.95032501220703 -4.3744425773620605 1.8381202220916748
12.292072296142578 -1.6618601083755493 2.981175184249878
13.730151176452637 -1.9418870210647583 2.902454137802124
33.9809455871582 -5.015771865844727 1.8184601068496704
33.98188018798828 -5.229128360748291 1.8122423887252808
33.98541259765625 -5.443317890167236 1.8058075904846191
33.98463439941406 -5.657256603240967 1.7995246648788452
33.99530792236328 -5.87360143661499 1.7925440073013306
33.98985290527344 -6.087651252746582 1.7863550186157227
34.012508392333984 -6.30731725692749 1.7785536050796509
34.03276062011719 -6.527302265167236 1.7707942724227905
33.994781494140625 -6.736519813537598 1.7661432027816772
33.90953063964844 -6.936116695404053 1.7640293836593628
33.86806106567383 -7.1444010734558105 1.7594443559646606
33.86140823364258 -7.360283851623535 1.7528584003448486
33.93523406982422 -7.594667911529541 1.741703987121582
33.93933868408203 -7.81455659866333 1.7343322038650513
33.92355728149414 -8.030412673950195 1.727989673614502
33.97431564331055 -8.262884140014648 1.7178137302398682
33.99443054199219 -8.489026069641113 1.7092604637145996
34.03916549682617 -8.722416877746582 1.6992101669311523
34.091957092285156 -8.959212303161621 1.6885875463485718
34.08624267578125 -9.181666374206543 1.6812012195587158
34.08100509643555 -9.404918670654297 1.6736952066421509
34.09159851074219 -9.633339881896973 1.6651828289031982
34.094913482666016 -9.860581398010254 1.656992793083191
34.082359313964844 -10.083978652954102 1.6496269702911377
34.1228141784668 -10.324071884155273 1.6390721797943115
34.13871383666992 -10.557963371276855 1.6298396587371826
34.139686584472656 -10.788226127624512 1.6213775873184204
34.1372184753418 -11.01828670501709 1.6130175590515137
34.121829986572266 -11.244974136352539 1.6053235530853271
34.13332748413086 -11.481435775756836 1.5959285497665405
34.14887237548828 -11.720406532287598 1.586179494857788
34.14768981933594 -11.95472240447998 1.577323079109192
34.12139892578125 -12.181076049804688 1.5698769092559814
34.1198844909668 -12.417115211486816 1.5608304738998413
34.24125289916992 -12.699764251708984 1.5441769361495972
34.30438995361328 -12.963193893432617 1.530913233757019
34.2938346862793 -13.200265884399414 1.5220365524291992
34.30024719238281 -13.444984436035156 1.5120006799697876
34.312355041503906 -13.6932373046875 1.5014897584915161
34.309757232666016 -13.936883926391602 1.4917705059051514
34.353431701660156 -14.200845718383789 1.4790302515029907
34.333492279052734 -14.439937591552734 1.470149278640747
34.366981506347656 -14.70287799835205 1.4577747583389282
29.622732162475586 -12.889130592346191 1.7491353750228882
29.531911849975586 -13.06574821472168 1.7458728551864624
34.409324645996094 -15.476485252380371 1.4234955310821533
34.38880920410156 -15.721705436706543 1.4140249490737915
34.408226013183594 -15.986604690551758 1.4018446207046509
34.429283142089844 -16.254037857055664 1.3894085884094238
34.41324996948242 -16.505495071411133 1.379251480102539
34.462730407714844 -16.7901554107666 1.3646513223648071
34.454524993896484 -17.04859733581543 1.3536930084228516
34.44622802734375 -17.308467864990234 1.3426024913787842
34.37556457519531 -17.53803062438965 1.3355399370193481
34.31755828857422 -17.774723052978516 1.3275266885757446
34.35601806640625 -18.062925338745117 1.312888264656067
34.3631591796875 -18.336759567260742 1.3001960515975952
34.39632034301758 -18.626567840576172 1.285568118095398
30.80971336364746 -16.9299259185791 1.5191396474838257
30.79480743408203 -17.168651580810547 1.5087956190109253
34.57073974609375 -19.552621841430664 1.235379695892334
34.526031494140625 -19.808015823364258 1.2254067659378052
34.52606964111328 -20.090702056884766 1.2121604681015015
34.51362228393555 -20.36804962158203 1.1996221542358398
34.55815887451172 -20.681364059448242 1.1828789710998535
34.57539367675781 -20.980972290039062 1.1678682565689087
34.53753662109375 -21.249141693115234 1.1566139459609985
34.51885223388672 -21.53084373474121 1.143822431564331
34.53597640991211 -21.837116241455078 1.1282627582550049
34.511131286621094 -22.119094848632812 1.115559458732605
34.598793029785156 -22.476078033447266 1.0944273471832275
34.556640625 -22.751543045043945 1.082604169845581
34.506595611572266 -23.023460388183594 1.0712021589279175
34.63393783569336 -23.416919708251953 1.0463918447494507
34.69597625732422 -23.7705020904541 1.02616548538208
34.71725082397461 -24.09954261779785 1.0087510347366333
34.710479736328125 -24.411937713623047 0.9932336211204529
34.79545974731445 -24.79233169555664 0.9704798460006714
34.76781463623047 -25.0958309173584 0.9560920000076294
34.789310455322266 -25.437623977661133 0.9376937747001648
34.80069351196289 -25.775272369384766 0.9198283553123474
34.82838821411133 -26.128389358520508 0.9004329442977905
34.84113311767578 -26.473756790161133 0.8819473385810852
34.84619140625 -26.81661033630371 0.8638099431991577
34.846771240234375 -27.159290313720703 0.8457733392715454
34.85384750366211 -27.51040267944336 0.8269535899162292
34.8797492980957 -27.88006591796875 0.8063383102416992
34.759674072265625 -28.135557174682617 0.7973341941833496
34.78057098388672 -28.507654190063477 0.7766091823577881
34.8880500793457 -28.95562744140625 0.7484217882156372
34.88817596435547 -29.319313049316406 0.7287657260894775
34.87526321411133 -29.67568016052246 0.7099105715751648
34.92581558227539 -30.090307235717773 0.6854156851768494
34.892860412597656 -30.437131881713867 0.6676537990570068
34.85620880126953 -30.784021377563477 0.6499372720718384
34.94158172607422 -31.243349075317383 0.6214284300804138
34.98414611816406 -31.67005157470703 0.596207857131958
34.94184494018555 -32.02428436279297 0.5780220031738281
34.968929290771484 -32.446372985839844 0.5534393787384033
35.02268600463867 -32.8986930847168 0.5261090397834778
34.97601318359375 -33.26143264770508 0.5073291659355164
32.32572555541992 30.841968536376953 1.7723703384399414
32.378108978271484 30.514957427978516 1.7761869430541992
32.33921432495117 30.106096267700195 1.7850687503814697
32.438480377197266 29.829389572143555 1.7858959436416626
32.518558502197266 29.537145614624023 1.7876834869384766
32.478031158447266 29.138961791992188 1.7961610555648804
32.40693664550781 28.718536376953125 1.806185245513916
32.55445098876953 28.494863510131836 1.8037387132644653
32.574974060058594 28.16199493408203 1.808305263519287
32.5964469909668 27.833194732666016 1.8126728534698486
32.58761978149414 27.482006072998047 1.8185850381851196
32.609500885009766 27.160112380981445 1.82264244556427
32.62248992919922 26.83390998840332 1.827054500579834
32.62961196899414 26.506053924560547 1.8316525220870972
32.66278076171875 26.20224952697754 1.834678292274475
32.66135025024414 25.873607635498047 1.8394769430160522
32.70198059082031 25.581058502197266 1.8418363332748413
32.708621978759766 25.264558792114258 1.8459311723709106
32.71182632446289 24.948335647583008 1.8500843048095703
32.734737396240234 24.649852752685547 1.8530384302139282
32.746402740478516 24.345476150512695 1.8564825057983398
32.613826751708984 23.937847137451172 1.8676137924194336
32.547874450683594 23.583765029907227 1.8749922513961792
32.558448791503906 23.28835105895996 1.8781096935272217
32.66946029663086 23.066303253173828 1.8757078647613525
32.667503356933594 22.76608657836914 1.8792792558670044
32.641700744628906 22.452043533325195 1.8840131759643555
32.49011993408203 22.055574417114258 1.8953580856323242
32.59968566894531 21.839181900024414 1.8926160335540771
32.65031814575195 21.584264755249023 1.8929275274276733
32.70742416381836 21.335002899169922 1.8927950859069824
32.66105270385742 21.020437240600586 1.8980636596679688
32.52266311645508 20.650484085083008 1.9081003665924072
32.527442932128906 20.37476921081543 1.9104270935058594
32.70344161987305 20.206892013549805 1.9035968780517578
32.736995697021484 19.951318740844727 1.9042150974273682
32.56143569946289 19.571556091308594 1.9157687425613403
32.54746627807617 19.292503356933594 1.9186866283416748
32.671024322509766 19.096019744873047 1.9142698049545288
32.78473663330078 18.89375877380371 1.9102895259857178
32.84247589111328 18.65972900390625 1.9091659784317017
32.81055450439453 18.37640380859375 1.912656307220459
32.881343841552734 18.1521053314209 1.9106687307357788
32.98308181762695 17.945293426513672 1.9069762229919434
33.01133346557617 17.699209213256836 1.9070454835891724
33.0422248840332 17.45578956604004 1.9068893194198608
33.029727935791016 17.190980911254883 1.9089106321334839
33.04634094238281 16.942934036254883 1.9093235731124878
33.06026840209961 16.69487953186035 1.9097893238067627
33.07597351074219 16.449071884155273 1.9100770950317383
33.09709167480469 16.207212448120117 1.9099984169006348
33.1011962890625 15.958343505859375 1.9107208251953125
33.11161422729492 15.713883399963379 1.9110302925109863
33.122093200683594 15.470744132995605 1.911252737045288
33.129024505615234 15.22723388671875 1.9115777015686035
33.16425323486328 14.997801780700684 1.9103500843048096
33.134033203125 14.740091323852539 1.9124430418014526
33.12020492553711 14.491323471069336 1.9136016368865967
33.13760757446289 14.25749397277832 1.913059115409851
33.14878845214844 14.022048950195312 1.9127599000930786
33.193382263183594 13.80157470703125 1.9106476306915283
33.185665130615234 13.560301780700684 1.9111731052398682
33.22907638549805 13.340853691101074 1.9089666604995728
33.10100173950195 13.054325103759766 1.9155830144882202
33.14298629760742 12.8366060256958 1.9132981300354004
33.542049407958984 12.755187034606934 1.8924015760421753
33.67745590209961 12.570853233337402 1.8851103782653809
33.72745895385742 12.354418754577637 1.8821755647659302
33.753509521484375 12.129735946655273 1.8804081678390503
33.762062072753906 11.899552345275879 1.8794736862182617
33.76150894165039 11.667112350463867 1.8789368867874146
33.7546501159668 11.43352222442627 1.8786535263061523
33.76231384277344 11.205804824829102 1.877541422843933
33.77510452270508 10.980583190917969 1.8760875463485718
33.79402160644531 10.758050918579102 1.8742421865463257
33.802894592285156 10.533023834228516 1.8728454113006592
33.81697082519531 10.310330390930176 1.87110435962677
33.810447692871094 10.082152366638184 1.8703641891479492
33.838836669921875 9.86506462097168 1.8677303791046143
33.850460052490234 9.643627166748047 1.865898609161377
33.85872268676758 9.421882629394531 1.8641701936721802
33.8510856628418 9.19647216796875 1.8632018566131592
33.86416244506836 8.977394104003906 1.861077904701233
33.86711883544922 8.756251335144043 1.8594130277633667
33.88705062866211 8.540045738220215 1.856787085533142
33.904624938964844 8.323686599731445 1.8542128801345825
33.919857025146484 8.107199668884277 1.851689338684082
33.90257263183594 7.883599758148193 1.8508033752441406
33.912078857421875 7.666902542114258 1.8484395742416382
33.93093490600586 7.452740669250488 1.845513105392456
33.94453430175781 7.237802028656006 1.8427919149398804
33.965572357177734 7.024796485900879 1.8396061658859253
33.96275329589844 6.807290077209473 1.8376096487045288
33.96933364868164 6.592174053192139 1.8350471258163452
33.96670150756836 6.375758647918701 1.8329031467437744
33.979393005371094 6.162652015686035 1.8298757076263428
33.989768981933594 5.949455738067627 1.8269009590148926
34.001766204833984 5.736861705780029 1.8237695693969727
34.00946807861328 5.523862838745117 1.820796012878418
34.01683044433594 5.311137676239014 1.8177698850631714
34.01891326904297 5.09793758392334 1.814956545829773
34.03646469116211 4.887322425842285 1.8112444877624512
34.05666732788086 4.677227020263672 1.8073184490203857
34.07062530517578 4.466415882110596 1.8036553859710693
34.060489654541016 4.252763748168945 1.8012160062789917
34.08570098876953 4.043755531311035 1.7968047857284546
33.55194854736328 3.7719080448150635 1.8224891424179077
33.50074768066406 3.5582242012023926 1.8221131563186646
33.594242095947266 3.3599154949188232 1.8138412237167358
33.63487243652344 3.1557419300079346 1.8083510398864746
33.65534973144531 2.9495394229888916 1.8038783073425293
33.66660690307617 2.7425537109375 1.7998348474502563
33.67061233520508 2.535090684890747 1.7961156368255615
33.69028091430664 2.3288497924804688 1.791469693183899
33.67679214477539 2.1204545497894287 1.7885661125183105
33.662010192871094 1.9123111963272095 1.78566575050354
33.670875549316406 1.7056901454925537 1.781397819519043
13.174860954284668 0.5866544246673584 2.9072608947753906
13.147191047668457 0.5046418309211731 2.907254934310913
19.302345275878906 0.6221706867218018 2.5649850368499756
12.892701148986816 0.33654993772506714 2.918227195739746
12.443221092224121 0.24846363067626953 2.941633939743042
33.7563362121582 0.4662456512451172 1.7524645328521729
12.472119331359863 0.09600026160478592 2.936884641647339
12.575226783752441 0.019651353359222412 2.9295012950897217
12.64591121673584 -0.057812321931123734 2.9238834381103516
12.719110488891602 -0.13617509603500366 2.9180779457092285
12.734917640686035 -0.21447846293449402 2.9154605865478516
33.794097900390625 -0.7771832346916199 1.723497748374939
33.82437515258789 -0.9855096936225891 1.7170475721359253
33.810462951660156 -1.1927242279052734 1.7130234241485596
12.484064102172852 -0.5168456435203552 2.9225523471832275
12.597248077392578 -0.598965048789978 2.9142584800720215
13.151530265808105 -0.7062215209007263 2.8806543350219727
12.840909004211426 -0.7685589790344238 2.896491765975952
11.826725006103516 -0.7806661128997803 2.952881336212158
12.256775856018066 -0.8846169114112854 2.9262242317199707
12.64018726348877 -0.9902840852737427 2.902101993560791
12.400012016296387 -1.0480350255966187 2.914008855819702
12.395247459411621 -1.1242576837539673 2.9122672080993652
12.728854179382324 -1.2333027124404907 2.8907551765441895
33.92742156982422 -3.4981136322021484 1.6481883525848389
13.320918083190918 -1.4558686017990112 2.851715326309204
33.94590759277344 -3.921510696411133 1.6354891061782837
12.488274574279785 -1.5201188325881958 2.8962454795837402
33.945228576660156 -4.344118595123291 1.6235837936401367
33.963191986083984 -4.558365821838379 1.6164188385009766
33.96596908569336 -4.771053791046143 1.6100682020187378
33.98518371582031 -4.986557960510254 1.6026501655578613
33.995140075683594 -5.201270580291748 1.5956933498382568
33.99683380126953 -5.415195465087891 1.5891437530517578
34.002105712890625 -5.630153179168701 1.5822906494140625
34.001094818115234 -5.844534873962402 1.5757278203964233
29.285554885864258 -5.21909761428833 1.8553285598754883
34.02250671386719 -6.278965950012207 1.5609092712402344
34.0585823059082 -6.501955032348633 1.5518083572387695
34.032474517822266 -6.713645935058594 1.5464147329330444
33.9727783203125 -6.918688774108887 1.5430063009262085
33.91966247558594 -7.124895095825195 1.539124608039856
33.9082145690918 -7.340003967285156 1.5325897932052612
33.94801330566406 -7.566969394683838 1.5227793455123901
34.00965118408203 -7.800055503845215 1.5114941596984863
34.02889633178711 -8.024560928344727 1.502739429473877
34.03889846801758 -8.247715950012207 1.4944593906402588
34.024192810058594 -8.4655122756958 1.4876341819763184
34.09223556518555 -8.704924583435059 1.4754787683486938
34.10454177856445 -8.931329727172852 1.4667315483093262
34.13462448120117 -9.16339111328125 1.4567432403564453
34.12079620361328 -9.38451099395752 1.449447512626648
34.11514663696289 -9.608511924743652 1.441529393196106
34.1137809753418 -9.834458351135254 1.433232307434082
34.128150939941406 -10.065832138061523 1.4238100051879883
34.13427734375 -10.295735359191895 1.414809226989746
34.15412139892578 -10.53079891204834 1.4047998189926147
34.13523864746094 -10.754796981811523 1.3972080945968628
34.15953826904297 -10.993331909179688 1.3866740465164185
34.13667678833008 -11.21761417388916 1.3791275024414062
34.12749099731445 -11.44710922241211 1.3705735206604004
34.181922912597656 -11.699213027954102 1.3576725721359253
34.17893981933594 -11.933008193969727 1.3484619855880737
34.15275192260742 -12.159507751464844 1.3406931161880493
34.13632583618164 -12.39022159576416 1.3321599960327148
34.25593948364258 -12.67209243774414 1.3143048286437988
34.30239486694336 -12.929145812988281 1.3012312650680542
34.30971145629883 -13.172935485839844 1.2906769514083862
34.332054138183594 -13.423845291137695 1.278961420059204
34.32664108276367 -13.665188789367676 1.2690151929855347
34.34545135498047 -13.917465209960938 1.2572660446166992
34.359683990478516 -14.169347763061523 1.2456904649734497
34.36842727661133 -14.420382499694824 1.2343553304672241
34.36070251464844 -14.665790557861328 1.2240334749221802
34.3594856262207 -14.91522216796875 1.2131192684173584
29.52986717224121 -13.034616470336914 1.5437545776367188
34.44367980957031 -15.456954002380371 1.1847131252288818
34.42144012451172 -15.701483726501465 1.1748491525650024
34.42826461791992 -15.960592269897461 1.1627668142318726
34.433204650878906 -16.22037696838379 1.1506680250167847
34.44794845581055 -16.486421585083008 1.1377043724060059
34.45891571044922 -16.75238609313965 1.1248530149459839
34.47060012817383 -17.020429611206055 1.1117862462997437
34.47938537597656 -17.288799285888672 1.09876549243927
34.40081024169922 -17.514453887939453 1.0920331478118896
34.361534118652344 -17.760873794555664 1.0822781324386597
34.417720794677734 -18.058467864990234 1.0652642250061035
34.41781234741211 -18.32880973815918 1.0522475242614746
34.447479248046875 -18.61690902709961 1.0368322134017944
34.406654357910156 -18.868637084960938 1.0265614986419678
30.816255569458008 -17.146482467651367 1.286487340927124
34.581153869628906 -19.520320892333984 0.9859779477119446
34.57904052734375 -19.79999542236328 0.9721876978874207
34.55666732788086 -20.069854736328125 0.9597817659378052
34.56924819946289 -20.36195945739746 0.9444870352745056
34.59067153930664 -20.661623001098633 0.9283003211021423
34.568748474121094 -20.9375057220459 0.915308952331543
34.55918884277344 -21.22277069091797 0.9011611938476562
34.5262451171875 -21.49552345275879 0.8886794447898865
34.5891227722168 -21.830440521240234 0.8683629631996155
34.56009292602539 -22.109941482543945 0.8551712036132812
34.59170913696289 -22.430618286132812 0.8368902206420898
34.63652420043945 -22.762928009033203 0.8172925114631653
34.56562042236328 -23.02140998840332 0.8068973422050476
34.74010467529297 -23.44676399230957 0.7761618494987488
34.74018859863281 -23.758535385131836 0.7594596743583679
34.745941162109375 -24.076871871948242 0.7420541644096375
34.76460266113281 -24.407062530517578 0.7233251333236694
34.82522201538086 -24.77018928527832 0.7008033990859985
34.817928314208984 -25.08831787109375 0.6837283372879028
34.800785064697266 -25.40199089050293 0.6672493815422058
34.81718444824219 -25.743087768554688 0.6476566791534424
34.83070373535156 -26.08534049987793 0.6280351281166077
34.854034423828125 -26.438369750976562 0.6072818636894226
34.855350494384766 -26.778076171875 0.5881571173667908
34.86324691772461 -27.126144409179688 0.5681753158569336
34.87992477416992 -27.484575271606445 0.5471261739730835
34.87089538574219 -27.826183319091797 0.5280612111091614
34.79845428466797 -28.11980438232422 0.514398455619812
34.79475021362305 -28.47170639038086 0.4943200945854187
34.888641357421875 -28.907997131347656 0.46507853269577026
34.890594482421875 -29.272769927978516 0.4438183605670929
34.91446304321289 -29.65995979309082 0.4202222228050232
34.90991973876953 -30.027076721191406 0.3989039957523346
34.92474365234375 -30.414905548095703 0.3754541277885437
34.84782028198242 -30.7261905670166 0.36026403307914734
34.92911911010742 -31.18116569519043 0.3298649191856384
34.739715576171875 -31.397502899169922 0.324788361787796
34.962554931640625 -31.991127014160156 0.2800653576850891
34.918888092041016 -32.34733581542969 0.2604157030582428
35.03585433959961 -32.85773468017578 0.2248205691576004
34.91131591796875 -33.14619064331055 0.2123432606458664
32.323707580566406 30.841848373413086 1.4912495613098145
32.38118362426758 30.51968002319336 1.4959042072296143
32.32334899902344 30.09315299987793 1.5079681873321533
32.46443557739258 29.8551025390625 1.5067741870880127
32.503265380859375 29.525115966796875 1.5121276378631592
32.462703704833984 29.1270694732666 1.5224705934524536
32.41325759887695 28.726003646850586 1.5331820249557495
32.55477523803711 28.49703598022461 1.531355857849121
32.561729431152344 28.15243911743164 1.5380713939666748
32.59379196166992 27.83283233642578 1.543001413345337
32.588802337646484 27.48491668701172 1.5501388311386108
32.60688018798828 27.159847259521484 1.555632472038269
32.62065505981445 26.83432388305664 1.5612387657165527
32.64407730102539 26.519733428955078 1.5660735368728638
32.662540435791016 26.203994750976562 1.5710679292678833
32.65800476074219 25.87290382385254 1.5773571729660034
32.672672271728516 25.560087203979492 1.5822818279266357
32.69264221191406 25.254175186157227 1.5867253541946411
32.70453643798828 24.944740295410156 1.591528058052063
32.71945571899414 24.640317916870117 1.5959961414337158
32.74149703979492 24.34380531311035 1.599880576133728
32.73939895629883 24.031993865966797 1.6051220893859863
32.530914306640625 23.573442459106445 1.6229761838912964
32.59423828125 23.315927505493164 1.6238698959350586
32.66134262084961 23.062557220458984 1.6244118213653564
32.61513137817383 22.73157501220703 1.6317920684814453
32.723262786865234 22.510143280029297 1.6295745372772217
32.73240661621094 22.222042083740234 1.6333030462265015
32.67204284667969 21.8896541595459 1.641142725944519
32.71548080444336 21.629344940185547 1.6425219774246216
32.713462829589844 21.340953826904297 1.6465470790863037
32.75617599487305 21.08367347717285 1.647736668586731
32.77756881713867 20.81435775756836 1.6501028537750244
32.78335952758789 20.537090301513672 1.6532953977584839
32.75469970703125 20.24058723449707 1.658447027206421
32.66822052001953 19.91142463684082 1.6669557094573975
32.63029861450195 19.614961624145508 1.6724135875701904
32.81504821777344 19.453144073486328 1.6643877029418945
32.849884033203125 19.20260238647461 1.6652660369873047
32.88115692138672 18.95136833190918 1.6662509441375732
32.85588073730469 18.669391632080078 1.6705089807510376
32.80399703979492 18.37477684020996 1.6762419939041138
32.877384185791016 18.1519718170166 1.6743943691253662
32.98172378540039 17.946619033813477 1.670608401298523
33.01350021362305 17.702442169189453 1.6710460186004639
33.01968765258789 17.445953369140625 1.6729021072387695
33.042572021484375 17.19974136352539 1.6736665964126587
33.0485725402832 16.946155548095703 1.6753307580947876
33.06163024902344 16.697647094726562 1.6764768362045288
33.07646179199219 16.45139503479004 1.6774197816848755
33.08772277832031 16.204713821411133 1.6784754991531372
33.096309661865234 15.958073616027832 1.6795923709869385
33.10402297973633 15.712370872497559 1.6806647777557373
33.123538970947266 15.473512649536133 1.6809452772140503
33.12504959106445 15.227498054504395 1.682193398475647
33.16117477416992 14.99850845336914 1.6813082695007324
33.1136360168457 14.733114242553711 1.6852550506591797
33.12904739379883 14.497291564941406 1.6854040622711182
33.14006042480469 14.260650634765625 1.6857205629348755
33.15401840209961 14.026362419128418 1.6857739686965942
33.18663787841797 13.80087661743164 1.6846410036087036
33.19093704223633 13.564563751220703 1.6850826740264893
33.226016998291016 13.341737747192383 1.6836292743682861
33.094276428222656 13.0537748336792 1.6918754577636719
33.13158416748047 12.834297180175781 1.690115213394165
33.52769088745117 12.751870155334473 1.6672255992889404
33.66958236694336 12.570069313049316 1.659164309501648
33.71767807006836 12.352998733520508 1.656516194343567
33.72773361206055 12.122637748718262 1.656013011932373
33.74188995361328 11.894608497619629 1.65518319606781
33.7545166015625 11.666862487792969 1.6543570756912231
33.76373291015625 11.438767433166504 1.6536471843719482
33.77236557006836 11.211312294006348 1.65288507938385
33.769989013671875 10.98109245300293 1.6526858806610107
33.786991119384766 10.757987022399902 1.651266098022461
33.801578521728516 10.5347900390625 1.6499043703079224
33.81660461425781 10.312397956848145 1.6484336853027344
33.799564361572266 10.081087112426758 1.6487631797790527
33.82217788696289 9.862390518188477 1.6466830968856812
33.83185958862305 9.640510559082031 1.6452791690826416
33.84105682373047 9.419150352478027 1.6438237428665161
33.854591369628906 9.199610710144043 1.6420303583145142
33.858985900878906 8.97821044921875 1.6406937837600708
33.86484146118164 8.757850646972656 1.6391903162002563
33.884761810302734 8.541661262512207 1.636778473854065
33.900390625 8.324841499328613 1.634537935256958
33.904930114746094 8.105828285217285 1.6328718662261963
33.901248931884766 7.885488033294678 1.6316102743148804
33.90978240966797 7.668581008911133 1.6295496225357056
33.92667770385742 7.454006671905518 1.6269136667251587
33.93830871582031 7.238678932189941 1.6245099306106567
33.9583625793457 7.025510787963867 1.621526837348938
33.9623908996582 6.809423923492432 1.61941397190094
33.96504211425781 6.593549728393555 1.617303729057312
33.9653434753418 6.37771463394165 1.6152546405792236
33.98294448852539 6.165507793426514 1.6120983362197876
33.991355895996094 5.951947212219238 1.6094096899032593
34.001373291015625 5.739011764526367 1.60654616355896
34.011043548583984 5.526336669921875 1.6036242246627808
34.006568908691406 5.311753749847412 1.601468801498413
34.008636474609375 5.0986175537109375 1.5988438129425049
34.033084869384766 4.889060974121094 1.5948009490966797
34.05327606201172 4.6789870262146 1.590932011604309
34.05732345581055 4.46690034866333 1.587951421737671
34.06302261352539 4.25531005859375 1.5847933292388916
34.074344635009766 4.044640064239502 1.5812166929244995
33.56855010986328 3.7759616374969482 1.608752965927124
33.52233123779297 3.562701463699341 1.608539342880249
33.57011795043945 3.3596928119659424 1.6025701761245728
33.62362289428711 3.156883478164673 1.5961686372756958
33.65402603149414 2.9516239166259766 1.591082215309143
33.66925048828125 2.7449724674224854 1.5868346691131592
33.67723083496094 2.5377936363220215 1.5829473733901978
33.683937072753906 2.3306188583374023 1.5790588855743408
33.66745376586914 2.1220741271972656 1.5765082836151123
33.64668655395508 1.9136475324630737 1.5741446018218994
33.671485900878906 1.707931399345398 1.568913221359253
13.041441917419434 0.5810707807540894 2.8324086666107178
13.034687042236328 0.5006802082061768 2.831325054168701
13.02344799041748 0.4202648401260376 2.8304898738861084
33.73611831665039 0.8822306394577026 1.549281120300293
33.74960708618164 0.6754571199417114 1.5443308353424072
33.749855041503906 0.4683833718299866 1.5401180982589722
12.746992111206055 0.09843818843364716 2.8412561416625977
33.76549530029297 0.05433674529194832 1.5305081605911255
12.657219886779785 -0.05754035711288452 2.8435370922088623
12.669504165649414 -0.13531669974327087 2.841073751449585
33.79389953613281 -0.5675562024116516 1.5151633024215698
12.773455619812012 -0.29317909479141235 2.8310582637786865
33.82176208496094 -0.9831873178482056 1.5039480924606323
33.8317756652832 -1.1912274360656738 1.4984580278396606
33.82954025268555 -1.3989754915237427 1.4936559200286865
12.574604034423828 -0.5975667834281921 2.836264133453369
13.004105567932129 -0.6979401707649231 2.80706787109375
12.844069480895996 -0.7684018015861511 2.8152668476104736
12.898760795593262 -0.8511130809783936 2.80976939201355
33.885807037353516 -2.444089412689209 1.4640766382217407
12.55384635925293 -0.9831952452659607 2.8277831077575684
33.887516021728516 -2.862544059753418 1.4529582262039185
33.88892364501953 -3.0721569061279297 1.447232961654663
12.762775421142578 -1.2362477779388428 2.8080062866210938
33.90966033935547 -3.4940035343170166 1.4343526363372803
13.33371639251709 -1.4568721055984497 2.7664682865142822
13.798274040222168 -1.5933361053466797 2.7338197231292725
33.93288040161133 -4.1288251876831055 1.4148515462875366
13.216229438781738 -1.6907100677490234 2.766993999481201
33.958221435546875 -4.555403232574463 1.4007339477539062
33.960975646972656 -4.768054962158203 1.3941841125488281
33.97621536254883 -4.982939720153809 1.3867130279541016
33.99009323120117 -5.198193073272705 1.379233479499817
33.99176788330078 -5.41208028793335 1.3724645376205444
33.99996566772461 -5.6274871826171875 1.3651642799377441
33.9920539855957 -5.8406662940979 1.3588426113128662
29.27042007446289 -5.214521884918213 1.6688257455825806
34.02322769165039 -6.276777267456055 1.3427519798278809
34.05435562133789 -6.49882173538208 1.3334989547729492
34.02431869506836 -6.709710121154785 1.3282772302627563
33.95973587036133 -6.913708686828613 1.325315237045288
33.92322540283203 -7.123320579528809 1.32036554813385
33.920528411865234 -7.340343475341797 1.3130171298980713
33.929100036621094 -7.560422897338867 1.304792046546936
34.00918197631836 -7.797607898712158 1.2915345430374146
34.036155700683594 -8.023926734924316 1.2818046808242798
34.054840087890625 -8.249227523803711 1.2725292444229126
34.04201889038086 -8.467595100402832 1.265329360961914
34.109004974365234 -8.706844329833984 1.2524548768997192
34.1038703918457 -8.928790092468262 1.2444900274276733
34.1146354675293 -9.155654907226562 1.23529851436615
34.12004852294922 -9.381932258605957 1.2263667583465576
34.1134033203125 -9.605646133422852 1.2181718349456787
34.127342224121094 -9.83598804473877 1.2084027528762817
34.12442398071289 -10.062349319458008 1.1997113227844238
34.141021728515625 -10.295381546020508 1.1895074844360352
34.163665771484375 -10.53134822845459 1.1787407398223877
34.164710998535156 -10.761687278747559 1.1693991422653198
34.15756607055664 -10.990297317504883 1.160528540611267
34.13846969604492 -11.215801239013672 1.152405858039856
34.137752532958984 -11.448145866394043 1.142828345298767
34.17982864379883 -11.696084976196289 1.1299915313720703
34.17963790893555 -11.930834770202637 1.120110034942627
34.16187286376953 -12.160335540771484 1.1113965511322021
34.13319396972656 -12.386666297912598 1.103371024131775
34.27798843383789 -12.677811622619629 1.0823190212249756
34.30192184448242 -12.926525115966797 1.0700764656066895
34.3091926574707 -13.170289993286133 1.0589340925216675
34.31475830078125 -13.414629936218262 1.0477759838104248
34.34548568725586 -13.670233726501465 1.034570574760437
34.33738327026367 -13.911734580993652 1.0241541862487793
34.34696960449219 -14.161636352539062 1.0122488737106323
34.359378814697266 -14.41411018371582 0.9999745488166809
34.3488655090332 -14.658265113830566 0.98930823802948
34.378746032714844 -14.921101570129395 0.9753755331039429
29.529006958007812 -13.032227516174316 1.3402360677719116
34.42266082763672 -15.445023536682129 0.9482271671295166
34.41495132446289 -15.696023941040039 0.9367195963859558
34.404544830322266 -15.94709300994873 0.9252709746360779
34.441078186035156 -16.221576690673828 0.9099574089050293
34.443138122558594 -16.481605529785156 0.897191047668457
34.44778823852539 -16.74445343017578 0.8840514421463013
34.488059997558594 -17.02652359008789 0.8678823113441467
34.475337982177734 -17.284236907958984 0.8557817339897156
34.40563201904297 -17.514379501342773 0.8481296896934509
34.35832595825195 -17.756683349609375 0.8385338187217712
34.41443634033203 -18.0542049407959 0.820341944694519
