# .PCD v0.7 - Point Cloud Data file format
VERSION 0.7
FIELDS x y z
SIZE 4 4 4
TYPE F F F
COUNT 1 1 1
WIDTH 849
HEIGHT 1
VIEWPOINT 0 0 0 1 0 0 0
POINTS 849
DATA ascii
13.161035537719727 11.108757019042969 1.7489632368087769
13.205788612365723 11.008728981018066 1.750598430633545
13.249045372009277 10.907937049865723 1.7523388862609863
13.263029098510742 10.78382396697998 1.7581130266189575
13.322493553161621 10.697294235229492 1.757338285446167
13.340118408203125 10.577704429626465 1.762349247932434
13.372431755065918 10.47055721282959 1.7651747465133667
13.420448303222656 10.376181602478027 1.7656999826431274
13.459118843078613 10.27497386932373 1.767425298690796
13.489117622375488 10.167696952819824 1.7702453136444092
13.526284217834473 10.066372871398926 1.7719662189483643
13.57232666015625 9.972039222717285 1.7723665237426758
13.59841251373291 9.863509178161621 1.7754013538360596
13.641458511352539 9.767765998840332 1.7760142087936401
13.674102783203125 9.664979934692383 1.7779453992843628
13.71252155303955 9.566710472106934 1.7789924144744873
13.746975898742676 9.46607780456543 1.7804778814315796
13.779891967773438 9.364822387695312 1.7820712327957153
13.819513320922852 9.268500328063965 1.782667636871338
13.863442420959473 9.175336837768555 1.7825955152511597
13.886780738830566 9.068937301635742 1.785178780555725
13.904326438903809 8.959365844726562 1.7884271144866943
13.97304630279541 8.882981300354004 1.7847938537597656
14.0026273727417 8.7817964553833 1.7862613201141357
14.036561965942383 8.683719635009766 1.7870595455169678
14.072367668151855 8.587108612060547 1.7875211238861084
14.11007022857666 8.491922378540039 1.7876452207565308
14.156536102294922 8.402175903320312 1.7865382432937622
14.196428298950195 8.308663368225098 1.786206841468811
14.229681968688965 8.211498260498047 1.7866532802581787
14.267459869384766 8.117186546325684 1.7864257097244263
14.308951377868652 8.02514934539795 1.7856340408325195
14.458549499511719 7.993016242980957 1.7708252668380737
15.871655464172363 8.522186279296875 1.5982462167739868
27.47332191467285 14.537087440490723 0.11773722618818283
27.488399505615234 14.330178260803223 0.12360436469316483
27.522306442260742 14.134071350097656 0.12688583135604858
27.56814193725586 13.944815635681152 0.12847690284252167
27.533546447753906 13.716089248657227 0.1401112824678421
27.5872802734375 13.532513618469238 0.14035184681415558
27.71942710876465 13.387255668640137 0.13052232563495636
27.957603454589844 13.291654586791992 0.10719607025384903
19.268674850463867 0.7551137208938599 1.277404546737671
19.25181007385254 0.6362247467041016 1.2774467468261719
19.31855010986328 0.5198478102684021 1.2671581506729126
12.866028785705566 -0.6811211109161377 2.034047842025757
12.863387107849121 -0.7601383924484253 2.0321173667907715
12.877093315124512 -0.8402459621429443 2.0280861854553223
12.66889476776123 -1.4536317586898804 2.033536434173584
12.632939338684082 -1.5280957221984863 2.0352392196655273
20.00663185119629 -6.285849571228027 0.9164282083511353
20.014558792114258 -6.423586845397949 0.9073367118835449
20.06960678100586 -6.577406406402588 0.8916692137718201
20.068029403686523 -6.713586330413818 0.8835856914520264
18.9787540435791 -6.479109287261963 1.0249254703521729
18.957983016967773 -6.602237701416016 1.0196874141693115
18.938282012939453 -6.726019859313965 1.0141903162002563
18.953203201293945 -6.862635612487793 1.0037736892700195
18.97553062438965 -7.002777576446533 0.9921810626983643
18.971769332885742 -7.26727819442749 0.9753174781799316
18.948659896850586 -7.392148494720459 0.9696689248085022
18.977256774902344 -7.537867546081543 0.9566077589988708
18.94989013671875 -8.347615242004395 0.9033043384552002
18.929643630981445 -8.477864265441895 0.8961870074272156
19.000545501708984 -8.650068283081055 0.8757045269012451
19.17350959777832 -8.871325492858887 0.8401150107383728
19.395597457885742 -9.119065284729004 0.7969890236854553
23.22321128845215 -12.52895736694336 0.11195578426122665
23.11068344116211 -12.652119636535645 0.11412769556045532
23.03564453125 -12.795548439025879 0.11048602312803268
20.667896270751953 -13.024591445922852 0.3414090871810913
20.41262435913086 -13.039618492126465 0.3665581941604614
20.12385368347168 -13.029930114746094 0.3972507119178772
19.867469787597656 -13.037856101989746 0.4229198694229126
19.657970428466797 -13.073862075805664 0.44113945960998535
19.457006454467773 -13.11333179473877 0.4580623209476471
19.30295181274414 -13.182684898376465 0.4673738181591034
19.225387573242188 -13.303644180297852 0.4640829861164093
19.180330276489258 -13.447468757629395 0.4552866518497467
19.420223236083984 -13.794353485107422 0.39884185791015625
19.347688674926758 -13.92245864868164 0.3940475881099701
19.208650588989258 -14.002338409423828 0.40031564235687256
19.208066940307617 -14.18344497680664 0.38313019275665283
19.208358764648438 -14.366849899291992 0.3655271530151367
19.211061477661133 -14.55378246307373 0.34723493456840515
19.229480743408203 -14.754556655883789 0.3259527087211609
19.21329116821289 -14.930572509765625 0.3103369474411011
19.227581024169922 -15.13206672668457 0.28915777802467346
19.2176456451416 -15.316389083862305 0.2718918025493622
19.22620964050293 -15.517335891723633 0.25108692049980164
19.216907501220703 -15.705798149108887 0.2331169694662094
19.196855545043945 -15.887152671813965 0.2167649269104004
19.239839553833008 -16.122934341430664 0.1888449341058731
19.23078155517578 -16.31753921508789 0.16987986862659454
19.255373001098633 -16.542978286743164 0.14450131356716156
19.21287727355957 -16.7127685546875 0.1309588998556137
12.767040252685547 12.211602210998535 1.610874056816101
12.843620300292969 12.135116577148438 1.608959674835205
12.878340721130371 12.019512176513672 1.613531470298767
12.938425064086914 11.928180694580078 1.613996148109436
12.974369049072266 11.815157890319824 1.6181069612503052
13.001290321350098 11.694835662841797 1.6234736442565918
13.065104484558105 11.608278274536133 1.6230098009109497
13.093249320983887 11.490578651428223 1.6279165744781494
13.14747142791748 11.396394729614258 1.628700613975525
13.102171897888184 11.217345237731934 1.644494652748108
13.151520729064941 11.12074089050293 1.6457386016845703
13.195601463317871 11.020130157470703 1.647666573524475
13.233579635620117 10.914973258972168 1.6503949165344238
13.276158332824707 10.814155578613281 1.6523165702819824
13.302519798278809 10.700774192810059 1.65653657913208
13.32487964630127 10.585002899169922 1.6612181663513184
13.368988990783691 10.487139701843262 1.6625577211380005
13.406118392944336 10.384265899658203 1.6648163795471191
13.443279266357422 10.281933784484863 1.6669573783874512
13.48444652557373 10.183127403259277 1.6684023141860962
13.51933479309082 10.080046653747559 1.6706539392471313
13.567866325378418 9.987517356872559 1.6708194017410278
13.582023620605469 9.870246887207031 1.675845980644226
13.625118255615234 9.774601936340332 1.6765848398208618
13.665929794311523 9.677648544311523 1.6775513887405396
13.705252647399902 9.57999324798584 1.6786304712295532
13.742257118225098 9.481090545654297 1.6799386739730835
13.770355224609375 9.376503944396973 1.6824078559875488
13.813352584838867 9.282452583312988 1.6826632022857666
13.855714797973633 9.188223838806152 1.6829134225845337
13.883313179016113 9.084580421447754 1.6851433515548706
13.916003227233887 8.984716415405273 1.6865549087524414
13.948830604553223 8.885322570800781 1.687847375869751
13.986008644104004 8.789033889770508 1.688435435295105
14.025906562805176 8.694716453552246 1.6885515451431274
14.073648452758789 8.60541820526123 1.6874910593032837
14.11231803894043 8.510732650756836 1.687597632408142
14.15035629272461 8.415895462036133 1.6877002716064453
14.19033145904541 8.322417259216309 1.6874462366104126
14.21679973602295 8.221307754516602 1.6889525651931763
14.258952140808105 8.129528999328613 1.6882203817367554
14.304842948913574 8.039974212646484 1.6868932247161865
14.371888160705566 7.962191581726074 1.6826106309890747
14.91787052154541 8.145611763000488 1.6133689880371094
15.87409782409668 8.541878700256348 1.488915205001831
19.26066017150879 0.7723314166069031 1.1625688076019287
19.249847412109375 0.653678297996521 1.161971926689148
19.27400016784668 0.5361772775650024 1.1567890644073486
12.874844551086426 -0.6690306663513184 1.9556443691253662
12.883152961730957 -0.7487332224845886 1.9522792100906372
12.872167587280273 -0.827355146408081 1.9513689279556274
19.71379852294922 -6.041796684265137 0.8406762480735779
19.470806121826172 -6.098320960998535 0.8672240972518921
19.36377716064453 -6.195581436157227 0.8744585514068604
19.226154327392578 -6.281912803649902 0.8860237002372742
18.954730987548828 -6.322270393371582 0.9167588353157043
18.946195602416992 -6.448943138122559 0.9097861051559448
18.92090606689453 -6.570225238800049 0.9051044583320618
18.908845901489258 -6.696403503417969 0.8983957767486572
18.901538848876953 -6.82470178604126 0.8908724784851074
18.886859893798828 -6.95076847076416 0.8842923045158386
18.916797637939453 -7.093960762023926 0.8710681200027466
18.909591674804688 -7.223993301391602 0.8631201982498169
18.913497924804688 -7.358875751495361 0.8534020185470581
18.895273208618164 -7.485686779022217 0.8468011021614075
18.863338470458984 -7.607364177703857 0.8421026468276978
18.928686141967773 -7.769186019897461 0.8228375315666199
18.990005493164062 -7.930951118469238 0.8039567470550537
19.023601531982422 -8.082525253295898 0.7890071272850037
18.9385986328125 -8.322437286376953 0.7814663648605347
18.808135986328125 -8.403278350830078 0.7908297777175903
18.986759185791016 -8.623346328735352 0.7532716989517212
18.966405868530273 -8.754995346069336 0.7456597685813904
18.95232582092285 -8.89008617401123 0.736948549747467
18.960546493530273 -9.036417007446289 0.7246645092964172
18.991750717163086 -9.19483757019043 0.708660900592804
19.197708129882812 -9.440529823303223 0.6654195785522461
20.699228286743164 -13.019241333007812 0.19083502888679504
20.490781784057617 -13.064496040344238 0.20938962697982788
20.127056121826172 -13.007183074951172 0.25411006808280945
19.891555786132812 -13.02892017364502 0.27752751111984253
19.654909133911133 -13.04716968536377 0.3012760877609253
19.45412826538086 -13.08677864074707 0.31905558705329895
19.301876068115234 -13.15732479095459 0.32860955595970154
19.21222686767578 -13.269830703735352 0.32739362120628357
19.20223045349121 -13.437934875488281 0.3122940957546234
19.240964889526367 -13.641922950744629 0.2884763479232788
19.170957565307617 -13.770069122314453 0.2833317220211029
19.242597579956055 -14.001561164855957 0.25315147638320923
19.22125816345215 -14.16748332977295 0.2389889657497406
19.225570678710938 -14.35380744934082 0.22002865374088287
19.21409797668457 -14.529970169067383 0.2035921812057495
19.22004508972168 -14.720979690551758 0.18375824391841888
19.2110652923584 -14.902292251586914 0.16630986332893372
19.231714248657227 -15.108512878417969 0.14319714903831482
19.231178283691406 -15.300138473510742 0.1236002966761589
19.24905014038086 -15.508472442626953 0.10030926764011383
17.056730270385742 -16.551950454711914 0.19890838861465454
13.266070365905762 12.99480152130127 1.3891431093215942
12.735977172851562 12.323637962341309 1.4901058673858643
12.783074378967285 12.218542098999023 1.4932271242141724
12.768731117248535 12.056082725524902 1.5064505338668823
12.945263862609863 12.073692321777344 1.4877794981002808
13.05750560760498 12.0297212600708 1.4797966480255127
13.011842727661133 11.841170310974121 1.4977184534072876
13.070674896240234 11.749197959899902 1.4982832670211792
13.982515335083008 12.414908409118652 1.3599660396575928
13.126720428466797 11.512064933776855 1.5090607404708862
13.071520805358887 11.322799682617188 1.527633547782898
13.104260444641113 11.211441993713379 1.5318244695663452
13.150533676147461 11.11228084564209 1.5337128639221191
13.19913387298584 11.015515327453613 1.5351123809814453
13.229425430297852 10.904050827026367 1.5392975807189941
13.278093338012695 10.808295249938965 1.5404473543167114
13.299009323120117 10.690585136413574 1.5458450317382812
13.344637870788574 10.593389511108398 1.5472314357757568
13.370829582214355 10.481338500976562 1.5515344142913818
13.41263198852539 10.382124900817871 1.5532804727554321
13.448203086853027 10.278572082519531 1.5558761358261108
13.48459243774414 10.176165580749512 1.5582258701324463
13.522623062133789 10.075480461120605 1.5602070093154907
13.54553508758545 9.96412467956543 1.564384937286377
13.59811019897461 9.87502670288086 1.5639163255691528
13.621063232421875 9.764840126037598 1.567847728729248
13.665862083435059 9.670795440673828 1.5683499574661255
13.702698707580566 9.571452140808105 1.5699506998062134
13.741283416748047 9.473710060119629 1.571180820465088
13.776723861694336 9.374177932739258 1.5727757215499878
13.813934326171875 9.276226997375488 1.5739994049072266
13.854597091674805 9.180912017822266 1.5746049880981445
13.886306762695312 9.080015182495117 1.5764378309249878
13.911462783813477 8.97530746459961 1.5791308879852295
13.963486671447754 8.888216972351074 1.5777543783187866
13.998995780944824 8.790797233581543 1.5787156820297241
14.039743423461914 8.69693374633789 1.5788089036941528
14.075632095336914 8.600311279296875 1.5795164108276367
14.107464790344238 8.501526832580566 1.580715298652649
14.145442008972168 8.406731605529785 1.5809210538864136
14.187922477722168 8.314797401428223 1.5803792476654053
14.219498634338379 8.216699600219727 1.5813210010528564
14.257303237915039 8.122454643249512 1.5812667608261108
14.303139686584473 8.032915115356445 1.5799657106399536
14.402234077453613 7.972911357879639 1.5709458589553833
15.090791702270508 8.233736038208008 1.47761869430542
15.245607376098633 8.197413444519043 1.4607590436935425
19.251501083374023 0.7662649154663086 1.0371646881103516
19.252532958984375 0.6480737328529358 1.0350602865219116
19.264728546142578 0.5302241444587708 1.0313482284545898
12.900185585021973 -0.6744322180747986 1.8674123287200928
12.868874549865723 -0.7519815564155579 1.8693875074386597
12.869726181030273 -0.8312798738479614 1.8668880462646484
27.889816284179688 -5.816555976867676 -0.3576284646987915
19.88981819152832 -5.968842506408691 0.6866844296455383
19.48046875 -5.976604461669922 0.7393325567245483
19.217283248901367 -6.025186538696289 0.7703989744186401
19.084362030029297 -6.11244010925293 0.7820799350738525
19.05931282043457 -6.233682632446289 0.7775688171386719
18.87667465209961 -6.302495002746582 0.7966362833976746
18.841039657592773 -6.419428825378418 0.793560266494751
18.843019485473633 -6.549489498138428 0.7846885919570923
18.837575912475586 -6.677502155303955 0.7768010497093201
18.845233917236328 -6.81074333190918 0.7667832970619202
18.845458984375 -6.941936016082764 0.7577491998672485
18.835512161254883 -7.069910526275635 0.750128448009491
18.83856964111328 -7.203329086303711 0.7403722405433655
18.826858520507812 -7.3316650390625 0.7327410578727722
18.837284088134766 -7.469250202178955 0.7215484976768494
18.859575271606445 -7.612427711486816 0.7083520889282227
18.867076873779297 -7.750519275665283 0.697280764579773
18.8690242767334 -7.887082099914551 0.6869136691093445
18.868181228637695 -8.023187637329102 0.6768236756324768
18.871826171875 -8.161938667297363 0.6658692359924316
18.86359977722168 -8.29625415802002 0.6566221117973328
18.89057159423828 -8.446938514709473 0.6416431665420532
18.914596557617188 -8.597447395324707 0.6269358396530151
18.91861343383789 -8.73985481262207 0.6152253150939941
18.91352653503418 -8.878849983215332 0.6047968864440918
18.911907196044922 -9.020243644714355 0.5936432480812073
18.90926170349121 -9.16195297241211 0.5824818015098572
18.942874908447266 -9.322322845458984 0.565269410610199
18.958406448364258 -9.475044250488281 0.5507752895355225
16.561939239501953 -8.404912948608398 0.9299906492233276
16.478931427001953 -8.490468978881836 0.9328137636184692
16.714670181274414 -8.742253303527832 0.8831075429916382
16.628969192504883 -8.959287643432617 0.8747153878211975
16.62803840637207 -9.091009140014648 0.8633610606193542
16.376916885375977 -9.084829330444336 0.8937070965766907
16.30414390563965 -9.175878524780273 0.8942551612854004
16.248912811279297 -9.27668285369873 0.8917680978775024
16.208471298217773 -9.386080741882324 0.8866741061210632
16.318302154541016 -9.584015846252441 0.855866551399231
16.167892456054688 -9.629746437072754 0.8692226409912109
19.9261417388916 -13.060279846191406 0.11390382796525955
19.605405807495117 -13.022964477539062 0.15378022193908691
19.45412254333496 -13.095454216003418 0.16371551156044006
19.28961944580078 -13.157665252685547 0.17602357268333435
19.200773239135742 -13.270659446716309 0.1747266799211502
19.179325103759766 -13.4307222366333 0.1611141413450241
19.225208282470703 -13.639671325683594 0.13501128554344177
19.180078506469727 -13.78561019897461 0.12519778311252594
12.855659484863281 12.909423828125 1.32522714138031
12.712468147277832 12.610252380371094 1.3632900714874268
12.69010066986084 12.43483829498291 1.3793584108352661
12.739483833312988 12.331246376037598 1.382460117340088
12.7421875 12.183635711669922 1.3936289548873901
12.76159381866455 12.053486824035645 1.401650309562683
12.86764907836914 12.005446434020996 1.3943943977355957
13.081542015075684 12.056057929992676 1.3684167861938477
13.020000457763672 11.852723121643066 1.3900715112686157
13.164604187011719 11.692788124084473 1.3867179155349731
13.141849517822266 11.529398918151855 1.4010586738586426
13.051629066467285 11.309562683105469 1.426573634147644
13.099379539489746 11.211241722106934 1.4285107851028442
13.148688316345215 11.114681243896484 1.4300624132156372
13.18436336517334 11.007128715515137 1.4337704181671143
13.231460571289062 10.909653663635254 1.4354416131973267
13.263246536254883 10.8001127243042 1.439526915550232
13.288778305053711 10.68624210357666 1.4445035457611084
13.328948020935059 10.584798812866211 1.4469307661056519
13.366034507751465 10.481429100036621 1.4497381448745728
13.398435592651367 10.374963760375977 1.4531813859939575
13.441852569580078 10.277533531188965 1.454707145690918
13.477456092834473 10.174579620361328 1.4573798179626465
13.503557205200195 10.065055847167969 1.4614579677581787
13.550393104553223 9.971464157104492 1.462078332901001
13.59177303314209 9.874178886413574 1.4634627103805542
13.616353988647461 9.765199661254883 1.4674088954925537
13.655489921569824 9.667176246643066 1.4689162969589233
13.698001861572266 9.571881294250488 1.4697779417037964
13.73496150970459 9.473048210144043 1.4714070558547974
13.770404815673828 9.373563766479492 1.4731616973876953
13.810084342956543 9.27731704711914 1.474141001701355
13.844971656799316 9.178194046020508 1.47576105594635
13.884140968322754 9.08224868774414 1.4766045808792114
13.909326553344727 8.977561950683594 1.4795103073120117
13.960515022277832 8.889954566955566 1.4782805442810059
13.993521690368652 8.790975570678711 1.4797595739364624
14.017411231994629 8.686700820922852 1.4825303554534912
14.054932594299316 8.591256141662598 1.483099341392517
14.106246948242188 8.504380226135254 1.4814605712890625
14.145092010498047 8.410100936889648 1.481630802154541
14.180746078491211 8.314159393310547 1.4821866750717163
14.214897155761719 8.217599868774414 1.4828689098358154
14.246676445007324 8.119950294494629 1.4838080406188965
14.293351173400879 8.030961990356445 1.482401967048645
14.374162673950195 7.960921764373779 1.4757778644561768
14.926310539245605 8.14769172668457 1.3984705209732056
15.244640350341797 8.200674057006836 1.356392741203308
19.24551010131836 0.7701933979988098 0.9216455221176147
19.23171043395996 0.6515353322029114 0.9216538071632385
19.252811431884766 0.5340641736984253 0.916634202003479
12.869226455688477 -0.7494743466377258 1.7915014028549194
12.857236862182617 -0.8279466032981873 1.7908084392547607
19.769794464111328 -5.928160190582275 0.5797818899154663
19.482032775878906 -5.972484111785889 0.6159936189651489
19.221866607666016 -6.022079944610596 0.6480224132537842
19.07866096496582 -6.106094837188721 0.6619107127189636
18.858057022094727 -6.16339111328125 0.6878791451454163
18.816699981689453 -6.27799654006958 0.6858128309249878
18.821460723876953 -6.408265590667725 0.6763930320739746
18.79916763305664 -6.529745578765869 0.6710895895957947
18.800329208374023 -6.659780502319336 0.6619530916213989
18.806182861328125 -6.792092323303223 0.651924192905426
18.815757751464844 -6.926436424255371 0.6411490440368652
18.816051483154297 -7.0580291748046875 0.6316946744918823
18.81635856628418 -7.190240859985352 0.6220861077308655
18.81390380859375 -7.322006702423096 0.612766444683075
18.822490692138672 -7.458749294281006 0.6015141010284424
18.833772659301758 -7.597354888916016 0.5896589756011963
18.842226028442383 -7.735628604888916 0.5780906677246094
18.845123291015625 -7.87238883972168 0.5672553181648254
18.845230102539062 -8.008703231811523 0.5567091107368469
18.854351043701172 -8.149632453918457 0.5445189476013184
18.860637664794922 -8.290180206298828 0.5326160192489624
18.8740291595459 -8.43474292755127 0.5193626880645752
18.880950927734375 -8.577330589294434 0.5069926381111145
18.885927200317383 -8.719905853271484 0.49476194381713867
18.888967514038086 -8.862447738647461 0.4826706349849701
19.16497802734375 -9.135960578918457 0.4246728718280792
19.142868041992188 -9.270133972167969 0.41626766324043274
18.94504165649414 -9.318424224853516 0.4373587965965271
16.62538719177246 -8.304832458496094 0.8180137276649475
16.542020797729492 -8.390542030334473 0.8211808800697327
16.458232879638672 -8.475543975830078 0.8243622183799744
16.23996925354004 -8.489768028259277 0.8505414724349976
16.71122932434082 -8.867209434509277 0.7581566572189331
16.214826583862305 -8.731912612915039 0.832188606262207
15.967999458312988 -8.725964546203613 0.8634330630302429
16.138608932495117 -8.948356628417969 0.8221049308776855
16.158010482788086 -9.08932876586914 0.8068113923072815
16.239822387695312 -9.267127990722656 0.7803359627723694
16.19513511657715 -9.373980522155762 0.7758811116218567
16.098594665527344 -9.45061206817627 0.7804983854293823
16.109601974487305 -9.590627670288086 0.7659223675727844
16.016246795654297 -9.668814659118652 0.7698027491569519
16.00937843322754 -9.79936695098877 0.7580952048301697
12.622598648071289 12.661966323852539 1.263536810874939
12.656079292297363 12.541050910949707 1.2701433897018433
12.70059585571289 12.431987762451172 1.2745121717453003
12.747102737426758 12.325607299804688 1.278351068496704
12.764115333557129 12.191733360290527 1.2874600887298584
12.785016059875488 12.06287670135498 1.2956494092941284
12.829472541809082 11.957202911376953 1.2993533611297607
12.876031875610352 11.854122161865234 1.3025258779525757
12.924013137817383 11.752920150756836 1.3052983283996582
12.965338706970215 11.646275520324707 1.3091251850128174
12.967293739318848 11.505352973937988 1.319832444190979
13.029879570007324 11.419075012207031 1.3195528984069824
13.050679206848145 11.29677677154541 1.3265557289123535
13.097593307495117 11.197843551635742 1.3287853002548218
13.145298957824707 11.10003662109375 1.330746054649353
13.188493728637695 10.998891830444336 1.3333660364151
13.221765518188477 10.890069961547852 1.3375777006149292
13.259581565856934 10.78563117980957 1.3408572673797607
13.29429817199707 10.679276466369629 1.3445345163345337
13.326658248901367 10.571667671203613 1.3484760522842407
13.366782188415527 10.470786094665527 1.3509503602981567
13.404603958129883 10.368596076965332 1.3536885976791382
13.439312934875488 10.264531135559082 1.3568247556686401
13.473254203796387 10.160428047180176 1.3599592447280884
13.508808135986328 10.058072090148926 1.3626909255981445
13.54521369934082 9.956831932067871 1.3651529550552368
13.581687927246094 9.856106758117676 1.3674782514572144
13.619050025939941 9.756461143493652 1.3695334196090698
13.657319068908691 9.657872200012207 1.3713176250457764
13.698955535888672 9.562015533447266 1.3724275827407837
13.72932243347168 9.458701133728027 1.3752793073654175
13.76877212524414 9.36205768585205 1.3765169382095337
13.810846328735352 9.267497062683105 1.3772130012512207
13.848974227905273 9.17057991027832 1.3784434795379639
13.872333526611328 9.06432819366455 1.381960153579712
13.915729522705078 8.9715576171875 1.3821065425872803
13.945971488952637 8.870616912841797 1.3842720985412598
13.97465991973877 8.76911449432373 1.3865714073181152
14.019478797912598 8.678025245666504 1.3861662149429321
14.062861442565918 8.586196899414062 1.3858906030654907
14.104795455932617 8.493651390075684 1.385745644569397
14.141865730285645 8.398382186889648 1.3862725496292114
14.180007934570312 8.303977012634277 1.38652503490448
14.197792053222656 8.198023796081543 1.389893651008606
14.245805740356445 8.109810829162598 1.3883750438690186
14.291543960571289 8.020346641540527 1.3871217966079712
14.408669471740723 7.970434665679932 1.3745750188827515
14.757071495056152 8.045557022094727 1.3258007764816284
15.29453182220459 8.217528343200684 1.2476580142974854
19.21308135986328 0.7595690488815308 0.8130974769592285
19.232839584350586 0.6422457098960876 0.808271050453186
19.244953155517578 0.5245169401168823 0.8044578433036804
12.90015697479248 -0.6784251928329468 1.7133179903030396
12.873784065246582 -0.7562599182128906 1.7148696184158325
12.85187816619873 -0.8341177701950073 1.7156898975372314
19.64271354675293 -5.900447368621826 0.4780130684375763
19.40449333190918 -5.959028720855713 0.5078363418579102
19.10030174255371 -5.994206428527832 0.5483839511871338
18.9498348236084 -6.075045108795166 0.5641471743583679
18.823524475097656 -6.162259578704834 0.5759761929512024
18.783100128173828 -6.27696418762207 0.5737786293029785
18.757877349853516 -6.396828651428223 0.5689874291419983
18.857894897460938 -6.560444355010986 0.5435401201248169
18.8271427154541 -6.679612159729004 0.5393452644348145
18.793777465820312 -6.797980308532715 0.5354586839675903
18.800464630126953 -6.931228160858154 0.524825930595398
18.792343139648438 -7.059605121612549 0.5164872407913208
18.7962703704834 -7.193087577819824 0.5059930682182312
18.797422409057617 -7.326168060302734 0.49579840898513794
18.80866813659668 -7.463907241821289 0.48375001549720764
18.795103073120117 -7.592442035675049 0.47569510340690613
18.81722068786621 -7.736116886138916 0.4614725708961487
18.832809448242188 -7.878063201904297 0.44816192984580994
18.8300838470459 -8.013144493103027 0.43777239322662354
18.804643630981445 -8.139073371887207 0.4310833215713501
16.545635223388672 -7.282560348510742 0.8061114549636841
16.448881149291992 -7.360901832580566 0.8127167820930481
16.43183135986328 -7.474732398986816 0.8055593967437744
16.33329200744629 -7.551329612731934 0.8123465776443481
16.324748992919922 -7.669419288635254 0.8034895658493042
16.411657333374023 -7.8336381912231445 0.7778652310371399
18.987041473388672 -9.20617961883545 0.31714242696762085
16.621105194091797 -8.185762405395508 0.7195296883583069
16.532209396362305 -8.268549919128418 0.7239880561828613
16.394485473632812 -8.325963020324707 0.7370247840881348
16.412967681884766 -8.462560653686523 0.7223584651947021
16.404130935668945 -8.585960388183594 0.7123565673828125
16.31501007080078 -8.66740894317627 0.7165486812591553
16.087263107299805 -8.673574447631836 0.7455848455429077
15.999585151672363 -8.753589630126953 0.749514639377594
16.23193359375 -9.010673522949219 0.6954398155212402
16.27236557006836 -9.164326667785645 0.6757249236106873
16.047365188598633 -9.167943000793457 0.704229474067688
15.984463691711426 -9.262722969055176 0.7031631469726562
16.098968505859375 -9.461647033691406 0.6693234443664551
16.07332992553711 -9.57991886138916 0.6610292792320251
16.100093841552734 -9.7304105758667 0.6428369879722595
12.610580444335938 12.66766357421875 1.1563714742660522
12.648360252380371 12.551017761230469 1.1625193357467651
12.685894012451172 12.435077667236328 1.1685285568237305
12.723196029663086 12.31983757019043 1.1743990182876587
12.76457405090332 12.209399223327637 1.1793049573898315
12.795000076293945 12.08939266204834 1.1861377954483032
12.833850860595703 11.978257179260254 1.191178560256958
12.858715057373047 11.855016708374023 1.198701024055481
12.901593208312988 11.749258041381836 1.2026361227035522
12.944396018981934 11.644081115722656 1.2064298391342163
12.987136840820312 11.539477348327637 1.210082769393921
13.01642894744873 11.423681259155273 1.216084599494934
13.04928207397461 11.31185245513916 1.221256136894226
13.087274551391602 11.205202102661133 1.2253186702728271
13.12520694732666 11.099149703979492 1.2292410135269165
13.165375709533691 10.995590209960938 1.232606291770935
13.208588600158691 10.895106315612793 1.2352750301361084
13.23110294342041 10.778244018554688 1.2415517568588257
13.271973609924316 10.677031517028809 1.2443549633026123
13.305124282836914 10.57017993927002 1.248407006263733
13.345256805419922 10.469432830810547 1.2510662078857422
13.381525039672852 10.366165161132812 1.254279375076294
13.413097381591797 10.25983715057373 1.2581875324249268
13.44940185546875 10.15768814086914 1.2611185312271118
13.485754013061523 10.056070327758789 1.2639071941375732
13.519773483276367 9.953213691711426 1.2669732570648193
13.558646202087402 9.854391098022461 1.2690585851669312
13.594402313232422 9.75373363494873 1.2715610265731812
13.631860733032227 9.65472412109375 1.2736406326293945
13.671051979064941 9.557323455810547 1.2752974033355713
13.709561347961426 9.459802627563477 1.2769508361816406
13.743300437927246 9.359381675720215 1.2793021202087402
13.780431747436523 9.261662483215332 1.2809492349624634
13.816883087158203 9.163838386535645 1.2825934886932373
13.850997924804688 9.06482982635498 1.2845158576965332
13.886082649230957 8.966821670532227 1.2861541509628296
13.922991752624512 8.870316505432129 1.287367343902588
13.962594032287598 8.775803565979004 1.2880138158798218
13.99903678894043 8.679571151733398 1.2890788316726685
14.03904914855957 8.585803031921387 1.2894351482391357
14.080132484436035 8.492891311645508 1.289504885673523
14.120606422424316 8.399797439575195 1.289569616317749
14.159613609313965 8.306023597717285 1.289771556854248
14.201430320739746 8.214069366455078 1.2894024848937988
14.242652893066406 8.121912002563477 1.2890288829803467
14.285003662109375 8.030526161193848 1.2883663177490234
14.383916854858398 7.9705891609191895 1.2783360481262207
14.725881576538086 8.042582511901855 1.228534460067749
15.220911026000977 8.19229793548584 1.1539301872253418
19.236000061035156 0.7746491432189941 0.6932246088981628
15.752615928649902 0.5376979112625122 1.2244046926498413
19.28183364868164 0.5397182106971741 0.6823142766952515
12.870719909667969 -0.745759904384613 1.637453317642212
12.858745574951172 -0.8242420554161072 1.636841058731079
19.40930938720703 -5.814979076385498 0.3933955132961273
19.227458953857422 -5.889370918273926 0.41516780853271484
19.03601837158203 -5.95880651473999 0.4385647177696228
18.86890983581543 -6.033938884735107 0.4578895568847656
18.79734230041504 -6.138514995574951 0.46108710765838623
18.76922607421875 -6.257120132446289 0.4568431079387665
16.521373748779297 -5.6206488609313965 0.8294342160224915
18.790027618408203 -6.521509647369385 0.4348568618297577
16.65427017211914 -5.89502477645874 0.7902243733406067
16.537567138671875 -5.96823263168335 0.801689863204956
18.78882598876953 -6.911434173583984 0.4061892032623291
18.80944061279297 -7.050447463989258 0.3926895260810852
18.805997848510742 -7.181170463562012 0.38316503167152405
18.83661460876465 -7.3257155418396 0.3675697147846222
18.84780502319336 -7.463638782501221 0.3551536798477173
18.84518814086914 -7.5968098640441895 0.34496498107910156
18.841642379760742 -7.730230808258057 0.3347700536251068
18.850828170776367 -7.869600296020508 0.32216712832450867
18.862642288208008 -8.010918617248535 0.30891379714012146
18.846242904663086 -8.140935897827148 0.3004593253135681
18.86600685119629 -8.287331581115723 0.2854236662387848
16.33963966369629 -7.297553539276123 0.7238363027572632
16.252851486206055 -7.378857612609863 0.729040801525116
16.281288146972656 -7.512721538543701 0.7135165929794312
16.21575355529785 -7.603634357452393 0.7147147059440613
16.209413528442383 -7.722469329833984 0.7051324844360352
16.130266189575195 -7.806687355041504 0.7086002826690674
16.761890411376953 -8.23985767364502 0.5825625658035278
16.570241928100586 -8.272411346435547 0.6059775352478027
16.466861724853516 -8.347552299499512 0.6132828593254089
16.419342041015625 -8.450644493103027 0.6102626919746399
16.544355392456055 -8.64395523071289 0.5752173662185669
16.387752532958984 -8.69070053100586 0.5920953750610352
16.106950759887695 -8.668975830078125 0.6321738362312317
16.363981246948242 -8.937406539916992 0.571805477142334
16.206607818603516 -8.981156349182129 0.5887464284896851
16.375303268432617 -9.206600189208984 0.5441895127296448
16.58467674255371 -9.458890914916992 0.4914553165435791
16.034849166870117 -9.276312828063965 0.582705020904541
16.08277130126953 -9.436395645141602 0.5603676438331604
16.0419921875 -9.545449256896973 0.554778516292572
16.05538558959961 -9.687490463256836 0.5386009812355042
12.608342170715332 12.669845581054688 1.0419498682022095
12.650378227233887 12.55742359161377 1.047584056854248
12.686565399169922 12.440112113952637 1.0542227029800415
12.72037124633789 12.321450233459473 1.0611482858657837
12.759636878967285 12.208998680114746 1.066778540611267
12.792251586914062 12.091090202331543 1.0735589265823364
12.83186149597168 11.980669975280762 1.0787546634674072
12.864778518676758 11.864849090576172 1.085101842880249
12.901150703430176 11.753074645996094 1.0905832052230835
12.935903549194336 11.640636444091797 1.096207618713379
12.983817100524902 11.540705680847168 1.099086880683899
13.025044441223145 11.435399055480957 1.1031181812286377
13.062479972839355 11.32742691040039 1.1077253818511963
13.082551002502441 11.2052640914917 1.1155147552490234
13.128812789916992 11.10628604888916 1.118093490600586
13.16600227355957 11.000184059143066 1.1222617626190186
13.189413070678711 10.88333511352539 1.1288936138153076
13.23336410522461 10.784114837646484 1.131463885307312
13.270429611206055 10.679800987243652 1.1351919174194336
13.302068710327148 10.57174301147461 1.1397899389266968
13.335997581481934 10.466140747070312 1.1438052654266357
13.373825073242188 10.364155769348145 1.1469463109970093
13.417190551757812 10.266907691955566 1.148919939994812
13.459078788757324 10.16892147064209 1.1510355472564697
13.470136642456055 10.04832649230957 1.1586871147155762
13.512886047363281 9.952032089233398 1.1603617668151855
13.54695987701416 9.849771499633789 1.1634920835494995
13.581897735595703 9.748620986938477 1.1663283109664917
13.620141983032227 9.650269508361816 1.168431282043457
13.65769100189209 9.551814079284668 1.1705312728881836
13.696990966796875 9.454946517944336 1.1721891164779663
13.735614776611328 9.357954978942871 1.1738433837890625
13.765357971191406 9.255322456359863 1.1769603490829468
13.808371543884277 9.161974906921387 1.1775816679000854
13.849103927612305 9.067361831665039 1.1784924268722534
13.883381843566895 8.968835830688477 1.1804269552230835
13.920308113098145 8.872355461120605 1.1817710399627686
13.95155143737793 8.772598266601562 1.1839946508407593
13.992181777954102 8.679046630859375 1.184449315071106
14.029659271240234 8.58377742767334 1.1853419542312622
14.071576118469238 8.491437911987305 1.1853461265563965
14.111188888549805 8.397894859313965 1.1856402158737183
14.15188980102539 8.30518627166748 1.1856348514556885
14.19455337524414 8.213776588439941 1.1851816177368164
14.239205360412598 8.123624801635742 1.184279203414917
14.280698776245117 8.031778335571289 1.1838151216506958
14.376092910766602 7.969938278198242 1.174017071723938
14.727276802062988 8.04712200164795 1.1204867362976074
15.252325057983398 8.213129043579102 1.037510871887207
19.222965240478516 0.7784453630447388 0.5715466737747192
15.751919746398926 0.5410655736923218 1.123211145401001
19.266799926757812 0.5436296463012695 0.5607131123542786
12.872934341430664 -0.7432517409324646 1.5542405843734741
12.865896224975586 -0.822063684463501 1.552874207496643
16.52406883239746 -3.2234103679656982 0.8686728477478027
16.547157287597656 -3.333461284637451 0.8591898083686829
16.468074798583984 -3.422837734222412 0.8667500615119934
16.445446014404297 -3.523566961288452 0.8647379875183105
16.475194931030273 -3.63584303855896 0.8537816405296326
16.51668930053711 -3.7514586448669434 0.8406975865364075
19.923498153686523 -5.831118106842041 0.18277347087860107
19.5306396484375 -5.846559524536133 0.2420257031917572
19.29306411743164 -5.90474796295166 0.2744300663471222
19.079057693481445 -5.9676079750061035 0.30278095602989197
18.840593338012695 -6.020264625549316 0.33546140789985657
18.79631805419922 -6.133559226989746 0.3341100811958313
16.22382926940918 -5.404619216918945 0.7779048085212708
16.39357566833496 -5.573220729827881 0.7397920489311218
16.313980102539062 -5.658146381378174 0.7455333471298218
16.11494255065918 -5.7002129554748535 0.7724330425262451
16.406803131103516 -5.917040824890137 0.7119354605674744
18.805253982543945 -6.912752151489258 0.27451521158218384
18.833173751831055 -7.054590225219727 0.2592615783214569
18.827808380126953 -7.184728145599365 0.2497924119234085
18.834415435791016 -7.320068359375 0.2379969209432602
18.8492374420166 -7.459390163421631 0.22453336417675018
18.841102600097656 -7.590327739715576 0.2150438129901886
18.840272903442383 -7.7248148918151855 0.20405352115631104
18.858524322509766 -7.867931842803955 0.1893976330757141
18.86482810974121 -8.006941795349121 0.1767265647649765
18.85836410522461 -8.141246795654297 0.16621093451976776
18.869915008544922 -8.284099578857422 0.15218991041183472
16.362951278686523 -7.303771495819092 0.6044440269470215
18.894357681274414 -8.57318115234375 0.12328079342842102
16.241783142089844 -7.490296840667725 0.6055796146392822
16.18085479736328 -7.583072185516357 0.6060775518417358
16.356184005737305 -7.788124084472656 0.5620962381362915
16.1674747467041 -7.820462226867676 0.5863472819328308
16.76689910888672 -8.625014305114746 0.4249682128429413
16.547229766845703 -8.640985488891602 0.45462775230407715
16.460403442382812 -8.724762916564941 0.4587900638580322
16.229934692382812 -8.730751991271973 0.49071985483169556
16.24488067626953 -8.867908477783203 0.4750707149505615
16.218225479125977 -8.983129501342773 0.46732547879219055
16.123737335205078 -9.06069564819336 0.47272560000419617
16.123104095458984 -9.191139221191406 0.4595900774002075
16.07710075378418 -9.296259880065918 0.4552226662635803
16.005756378173828 -9.386706352233887 0.45575636625289917
15.943228721618652 -9.482171058654785 0.45444178581237793
15.899539947509766 -9.588930130004883 0.4492456018924713
12.551437377929688 12.763524055480957 0.9279599189758301
12.599855422973633 12.656878471374512 0.9327033758163452
12.636911392211914 12.53966999053955 0.9396887421607971
12.686422348022461 12.435632705688477 0.9438276886940002
12.707435607910156 12.304635047912598 0.9538075923919678
12.761615753173828 12.206652641296387 0.9565926194190979
12.783456802368164 12.078588485717773 0.9659741520881653
12.824445724487305 11.9696044921875 0.9711548089981079
12.85295295715332 11.849848747253418 0.9787367582321167
12.899480819702148 11.7475004196167 0.9824110269546509
12.946708679199219 11.646350860595703 0.9857809543609619
12.972491264343262 11.526673316955566 0.9933611750602722
13.001753807067871 11.411029815673828 1.000038981437683
13.046523094177246 11.309706687927246 1.0034019947052002
13.084532737731934 11.203120231628418 1.0079678297042847
13.116443634033203 11.092020988464355 1.0135879516601562
13.153557777404785 10.986021995544434 1.0179996490478516
13.191391944885254 10.881241798400879 1.0221073627471924
13.224604606628418 10.77328872680664 1.0269688367843628
13.260844230651855 10.66843318939209 1.0310726165771484
13.298619270324707 10.565382957458496 1.03472101688385
13.334853172302246 10.461658477783203 1.038517951965332
13.370315551757812 10.357887268066406 1.0423132181167603
13.407365798950195 10.255874633789062 1.0456516742706299
13.445245742797852 10.154986381530762 1.0486841201782227
13.476057052612305 10.049290657043457 1.0529288053512573
13.509261131286621 9.945942878723145 1.056564450263977
13.540908813476562 9.8419828414917 1.0603508949279785
13.57660961151123 9.74146556854248 1.063223123550415
13.615620613098145 9.6437349319458 1.0653313398361206
13.655564308166504 9.54702377319336 1.0671323537826538
13.702156066894531 9.455235481262207 1.0675572156906128
13.726898193359375 9.34876823425293 1.0719428062438965
13.767257690429688 9.253378868103027 1.0732758045196533
13.799551963806152 9.152928352355957 1.075979471206665
13.837748527526855 9.056757926940918 1.0774586200714111
13.874454498291016 8.959925651550293 1.0790866613388062
13.91382884979248 8.865104675292969 1.0800995826721191
13.950054168701172 8.768561363220215 1.0815682411193848
13.983938217163086 8.670862197875977 1.083339810371399
14.023052215576172 8.576685905456543 1.0840353965759277
14.064075469970703 8.48388385772705 1.0842660665512085
14.104488372802734 8.390901565551758 1.084492564201355
14.147698402404785 8.2997407913208 1.0840991735458374
14.18946647644043 8.207868576049805 1.0838545560836792
14.229782104492188 8.115304946899414 1.0837587118148804
14.25399398803711 8.013835906982422 1.0864301919937134
14.410582542419434 7.986140251159668 1.0653672218322754
14.70609188079834 8.032609939575195 1.0195943117141724
15.239319801330566 8.203143119812012 0.9317731261253357
19.235553741455078 0.7764951586723328 0.4488789737224579
15.738343238830566 0.5384387969970703 1.0266855955123901
19.277324676513672 0.5414677262306213 0.43814578652381897
12.865808486938477 -0.744751513004303 1.474563479423523
12.860719680786133 -0.8236448168754578 1.47287917137146
16.13425064086914 -2.740365982055664 0.8519385457038879
16.26453399658203 -2.968310594558716 0.8189733028411865
16.23015785217285 -3.065080404281616 0.8195176124572754
16.284217834472656 -3.1789114475250244 0.8045949935913086
16.09494400024414 -3.2446467876434326 0.8319000601768494
16.24712371826172 -3.3792126178741455 0.79962557554245
16.138980865478516 -3.460202932357788 0.8126509785652161
16.280712127685547 -3.595238447189331 0.7818416357040405
16.196470260620117 -3.6810455322265625 0.7904945611953735
16.079160690307617 -3.7583322525024414 0.8049100041389465
16.06789779663086 -3.859867572784424 0.8005857467651367
19.002079010009766 -5.946235656738281 0.19097885489463806
18.858741760253906 -6.02876615524292 0.20773009955883026
18.795671463012695 -6.136058330535889 0.20983275771141052
16.18379783630371 -5.393749713897705 0.6776308417320251
16.232114791870117 -5.520815849304199 0.6604340672492981
16.227344512939453 -5.630596160888672 0.652799665927887
16.422462463378906 -5.811507225036621 0.6081812977790833
16.463960647583008 -5.940197467803955 0.5916030406951904
16.02920913696289 -5.894867420196533 0.663133442401886
15.968377113342285 -5.984076499938965 0.6654581427574158
18.817319869995117 -7.183557510375977 0.12488938868045807
18.802743911743164 -7.310606956481934 0.11670982092618942
18.830368041992188 -7.454789638519287 0.10044529289007187
16.267847061157227 -7.144519805908203 0.5205758213996887
16.280872344970703 -7.269852638244629 0.5073403120040894
16.2723388671875 -7.386253356933594 0.4980713725090027
16.37567710876465 -7.554803371429443 0.46699559688568115
16.22249412536621 -7.605348587036133 0.48540687561035156
16.144893646240234 -7.690297603607178 0.4891236424446106
16.616458892822266 -8.421859741210938 0.34862303733825684
16.559682846069336 -8.521355628967285 0.34726038575172424
16.269254684448242 -8.498749732971191 0.3923582136631012
16.466962814331055 -8.731203079223633 0.34003016352653503
16.369308471679688 -8.808699607849121 0.3465256690979004
16.151195526123047 -8.819740295410156 0.37727242708206177
16.204893112182617 -8.978748321533203 0.3531171977519989
16.284706115722656 -9.154187202453613 0.3233530521392822
16.138858795166016 -9.203166007995605 0.33932599425315857
16.084230422973633 -9.303446769714355 0.3366256654262543
16.2362003326416 -9.524955749511719 0.29125314950942993
16.155033111572266 -9.611263275146484 0.2936128079891205
12.556864738464355 12.764239311218262 0.8313553333282471
12.608778953552246 12.661087989807129 0.8355416655540466
12.638160705566406 12.536209106445312 0.8445249795913696
12.67989444732666 12.424585342407227 0.8505649566650391
12.709380149841309 12.301923751831055 0.8590835928916931
12.752838134765625 12.193707466125488 0.8643452525138855
12.801192283630371 12.090847969055176 0.868362545967102
12.830710411071777 11.971000671386719 0.8762590289115906
12.859970092773438 11.851914405822754 0.8840004801750183
12.897749900817871 11.741567611694336 0.8897212147712708
12.930257797241211 11.627237319946289 0.8963739275932312
12.97292709350586 11.52278995513916 0.9006914496421814
13.011835098266602 11.415650367736816 0.9056287407875061
13.049919128417969 11.308464050292969 0.9105641841888428
13.095434188842773 11.208306312561035 0.9137822389602661
13.116829872131348 11.08824348449707 0.9218339323997498
13.172883033752441 10.998095512390137 0.9225491285324097
13.184890747070312 10.87185287475586 0.9321631193161011
13.221122741699219 10.766460418701172 0.9366224408149719
13.260407447814941 10.664128303527832 0.9402978420257568
13.298162460327148 10.561100959777832 0.9441272616386414
13.33437728881836 10.457404136657715 0.9481111168861389
13.372946739196777 10.356075286865234 0.9514656662940979
13.40528392791748 10.250466346740723 0.9559154510498047
13.446290016174316 10.151991844177246 0.9584807753562927
13.463632583618164 10.036277770996094 0.9655961990356445
13.506311416625977 9.94005298614502 0.967529296875
13.550714492797852 9.84542179107666 0.9689870476722717
13.580021858215332 9.740256309509277 0.9732717275619507
13.627087593078613 9.64822769165039 0.9739351868629456
13.689291954040527 9.44278621673584 0.9810775518417358
13.725399017333984 9.344202041625977 0.9834640026092529
13.767369270324707 9.249937057495117 0.9845849275588989
13.805408477783203 9.153322219848633 0.9863332509994507
13.841130256652832 9.055505752563477 0.9883942604064941
13.874512672424316 8.956522941589355 0.9907684326171875
13.916364669799805 8.863304138183594 0.991399884223938
13.949234962463379 8.764654159545898 0.993610143661499
13.983098030090332 8.666973114013672 0.9955007433891296
14.023028373718262 8.573326110839844 0.9961203932762146
14.06740951538086 8.482573509216309 0.9957839846611023
14.112054824829102 8.392102241516113 0.995283305644989
14.159524917602539 8.303397178649902 0.9941414594650269
14.228777885437012 8.111493110656738 0.996292769908905
14.276209831237793 8.023107528686523 0.9948166012763977
14.41203498840332 7.983728885650635 0.9769268035888672
14.701263427734375 8.02673625946045 0.9307948350906372
15.201909065246582 8.17971420288086 0.8459940552711487
16.000593185424805 8.483636856079102 0.706961989402771
19.234455108642578 0.7736304402351379 0.34543219208717346
15.746194839477539 0.5362529158592224 0.9405747056007385
19.262340545654297 0.5382271409034729 0.33688095211982727
12.906033515930176 -0.669823944568634 1.40064537525177
12.856145858764648 -0.7463453412055969 1.4068002700805664
12.849072456359863 -0.8250528573989868 1.4054585695266724
16.23148536682129 -1.5427711009979248 0.8006162643432617
16.32325553894043 -1.7538347244262695 0.7766300439834595
16.322587966918945 -1.855135202407837 0.7725985646247864
16.28118896484375 -1.9516936540603638 0.7756090760231018
16.329139709472656 -2.059143543243408 0.7628100514411926
16.25040054321289 -2.1506011486053467 0.7721918225288391
16.325326919555664 -2.262519359588623 0.7543862462043762
16.287372589111328 -2.3592145442962646 0.7563747763633728
16.206966400146484 -2.4492077827453613 0.7657853364944458
16.217540740966797 -2.5526914596557617 0.7589929699897766
16.288162231445312 -2.769068479537964 0.7362310290336609
16.368465423583984 -2.8861734867095947 0.716615617275238
