# .PCD v0.7 - Point Cloud Data file format
VERSION 0.7
FIELDS x y z
SIZE 4 4 4
TYPE F F F
COUNT 1 1 1
WIDTH 853
HEIGHT 1
VIEWPOINT 0 0 0 1 0 0 0
POINTS 853
DATA ascii
34.13492965698242 -10.786722183227539 1.6216577291488647
34.1372184753418 -11.01828670501709 1.6130175590515137
34.12657165527344 -11.246536254882812 1.605041265487671
34.12765121459961 -11.479525566101074 1.596267819404602
34.16209411621094 -11.724943161010742 1.585387110710144
34.1542854309082 -11.957030296325684 1.5769264698028564
34.11575698852539 -12.179062843322754 1.5702176094055176
34.113319396972656 -12.414726257324219 1.5612297058105469
34.27120590209961 -12.710872650146484 1.5423495769500732
34.28758239746094 -12.956843376159668 1.5319429636001587
34.291038513183594 -13.199191093444824 1.5222090482711792
34.309539794921875 -13.448627471923828 1.511425495147705
34.31513595581055 -13.69434642791748 1.5013164281845093
34.31993103027344 -13.94101619720459 1.4911348819732666
34.34420394897461 -14.19703197479248 1.479608416557312
34.358341217041016 -14.450386047363281 1.4685842990875244
34.33852767944336 -14.690707206726074 1.4595760107040405
29.61998748779297 -12.88793659210205 1.74931001663208
29.551998138427734 -13.074633598327637 1.7445892095565796
34.3929328918457 -15.4691162109375 1.4245471954345703
34.4051513671875 -15.72917652130127 1.4129700660705566
34.407318115234375 -15.986184120178223 1.4019031524658203
34.42477035522461 -16.251907348632812 1.3897026777267456
34.42584991455078 -16.511537551879883 1.3784254789352417
34.460933685302734 -16.78927993774414 1.3647698163986206
34.43931198120117 -17.04107093811035 1.3546994924545288
34.44890213012695 -17.309812545776367 1.3424241542816162
34.379119873046875 -17.539844512939453 1.3353019952774048
34.32819747924805 -17.78023338317871 1.3268117904663086
34.36838912963867 -18.069427490234375 1.3120529651641846
34.36140060424805 -18.335819244384766 1.3003159761428833
34.41475296020508 -18.63654899597168 1.284309983253479
30.80708885192871 -16.928483963012695 1.5193195343017578
30.80527114868164 -17.174484252929688 1.5080739259719849
34.56291961669922 -19.54819679260254 1.2359219789505005
34.5433464050293 -19.817949295043945 1.2241991758346558
34.50967788696289 -20.081165313720703 1.2133100032806396
34.50674057006836 -20.36399269104004 1.200107216835022
34.533321380615234 -20.666500091552734 1.1846394538879395
34.57283401489258 -20.97941780090332 1.1680512428283691
34.514583587646484 -21.23501968383789 1.158259391784668
34.520545959472656 -21.53190040588379 1.1437002420425415
34.516571044921875 -21.824848175048828 1.1296697854995728
34.50272750854492 -22.113710403442383 1.116172194480896
34.594608306884766 -22.473358154296875 1.0947344303131104
34.56914520263672 -22.759775161743164 1.081681251525879
34.506595611572266 -23.023460388183594 1.0712021589279175
34.63393783569336 -23.416919708251953 1.0463918447494507
34.75443649291992 -23.810550689697266 1.021772861480713
34.710693359375 -24.094989776611328 1.009246826171875
34.740684509277344 -24.43317985534668 0.9909361600875854
34.78083038330078 -24.78190803527832 0.9715985059738159
34.78642654418945 -25.10926628112793 0.954659104347229
34.79414367675781 -25.441158294677734 0.9373189210891724
34.80390167236328 -25.77764892578125 0.9195788502693176
34.829185485839844 -26.12898826599121 0.9003702998161316
34.82365036010742 -26.460474014282227 0.8833274245262146
34.84619140625 -26.81661033630371 0.8638099431991577
34.86015319824219 -27.169719696044922 0.8447027206420898
34.86638641357422 -27.520296096801758 0.8259443640708923
34.86493682861328 -27.868227005004883 0.8075383305549622
34.77906799316406 -28.15125274658203 0.7957521677017212
34.75278091430664 -28.484880447387695 0.7788912653923035
34.89342498779297 -28.96009063720703 0.7479778528213501
34.87671661376953 -29.30968475341797 0.7297195792198181
34.890464782714844 -29.688615798950195 0.7086361050605774
34.92052459716797 -30.08574867248535 0.6858620047569275
34.880828857421875 -30.426637649536133 0.6686767935752869
34.88313674926758 -30.807802200317383 0.6476324200630188
34.96464538574219 -31.26396942138672 0.6194417476654053
34.955291748046875 -31.643936157226562 0.5987129807472229
34.952144622802734 -32.033721923828125 0.5771217942237854
34.97770690917969 -32.45452117919922 0.5526661276817322
35.00886535644531 -32.885711669921875 0.527335524559021
34.978179931640625 -33.263492584228516 0.5071349143981934
32.36331558227539 30.877830505371094 1.7702064514160156
32.35847473144531 30.496456146240234 1.7773135900497437
32.3355598449707 30.102691650390625 1.7852777242660522
32.461280822753906 29.850353240966797 1.7845970392227173
32.5170783996582 29.535802841186523 1.7877676486968994
32.46613311767578 29.128286361694336 1.796833872795105
32.41740417480469 28.727813720703125 1.80559504032135
32.54768371582031 28.488941192626953 1.8041189908981323
32.58858108520508 28.173757553100586 1.8075425624847412
32.57061004638672 27.81113624572754 1.8141160011291504
32.592201232910156 27.485870361328125 1.8183302879333496
32.61717987060547 27.166507720947266 1.8222159147262573
32.62557601928711 26.83644676208496 1.82688307762146
32.650550842285156 26.523061752319336 1.8304955959320068
32.646419525146484 26.18912124633789 1.8355793952941895
32.66291427612305 25.874847412109375 1.8393903970718384
32.69253158569336 25.573671340942383 1.8423539400100708
32.67936706542969 25.241960525512695 1.8475298881530762
32.7221565246582 24.95621109008789 1.8495221138000488
32.71877670288086 24.637834548950195 1.8539071083068848
32.7327766418457 24.335342407226562 1.857221245765686
32.626712799072266 23.94730567932129 1.8669157028198242
32.53654861450195 23.575557708740234 1.8756039142608643
32.54706954956055 23.280214309692383 1.8787230253219604
32.65966796875 23.059389114379883 1.876235008239746
32.619144439697266 22.732385635375977 1.8818762302398682
32.677093505859375 22.476388931274414 1.882116675376892
32.46945571899414 22.041545867919922 1.89646315574646
32.57312774658203 21.82139015197754 1.894034743309021
32.641151428222656 21.578203201293945 1.8934158086776733
32.70993423461914 21.336641311645508 1.892661690711975
32.66105270385742 21.020437240600586 1.8980636596679688
32.52519226074219 20.65209197998047 1.9079656600952148
32.50458526611328 20.360450744628906 1.9116379022598267
32.682193756103516 20.193763732910156 1.904720664024353
32.76514434814453 19.968475341796875 1.9027279615402222
32.60767364501953 19.599346160888672 1.9133294820785522
32.52598190307617 19.279769897460938 1.9198189973831177
32.6968994140625 19.111141204833984 1.9129085540771484
32.80550765991211 18.905729293823242 1.9091973304748535
32.85289764404297 18.665651321411133 1.908618688583374
32.78440856933594 18.361759185791016 1.9140278100967407
32.87959671020508 18.151140213012695 1.9107608795166016
32.98483657836914 17.946247100830078 1.906884789466858
33.02277755737305 17.705347061157227 1.9064475297927856
33.01307678222656 17.440391540527344 1.9084124565124512
33.03770065307617 17.195131301879883 1.908493995666504
33.04456329345703 16.9420223236084 1.9094159603118896
33.06650924682617 16.698030471801758 1.9094642400741577
33.06256103515625 16.442399978637695 1.910776138305664
33.08363342285156 16.200624465942383 1.9106991291046143
33.11109161376953 15.963113784790039 1.9102054834365845
33.1179313659668 15.716880798339844 1.9107016324996948
33.10761642456055 15.463980674743652 1.9120055437088013
33.13719177246094 15.230987548828125 1.9111536741256714
33.16243362426758 14.996978759765625 1.9104454517364502
33.12034225463867 14.734002113342285 1.913153886795044
33.14216613769531 14.500932693481445 1.9124610424041748
33.15045166015625 14.263019561767578 1.9123916625976562
33.18098831176758 14.03566837310791 1.9110885858535767
33.16202926635742 13.78853702545166 1.9122756719589233
33.19306182861328 13.563323974609375 1.9107890129089355
33.22166061401367 13.337876319885254 1.9093512296676636
33.097286224365234 13.052858352661133 1.9157761335372925
33.13646697998047 12.834080696105957 1.9136360883712769
33.553253173828125 12.759448051452637 1.8918201923370361
33.67839431762695 12.571202278137207 1.8850616216659546
33.719017028808594 12.351325988769531 1.8826135396957397
33.738468170166016 12.1243314743042 1.8811893463134766
33.741336822509766 11.892248153686523 1.8805500268936157
33.753013610839844 11.664175987243652 1.879378318786621
33.75938034057617 11.435124397277832 1.8784077167510986
33.77937698364258 11.211466789245605 1.8766536712646484
33.78175354003906 10.982744216918945 1.8757424354553223
33.793067932128906 10.757747650146484 1.874292016029358
33.80003356933594 10.53213119506836 1.8729945421218872
33.80359649658203 10.306252479553223 1.8718008995056152
33.792259216308594 10.076729774475098 1.8713127374649048
33.81965637207031 9.859474182128906 1.868731141090393
33.836055755615234 9.639522552490234 1.8666514158248901
33.85295104980469 9.420276641845703 1.864472508430481
33.86072540283203 9.199090003967285 1.8626976013183594
33.85354232788086 8.974579811096191 1.8616340160369873
33.87582778930664 8.758501052856445 1.8589571714401245
33.8841438293457 8.539314270019531 1.8569397926330566
33.88716506958008 8.319400787353516 1.8551287651062012
33.91402816772461 8.105806350708008 1.8519952297210693
33.90938186645508 7.885182857513428 1.8504457473754883
33.90818405151367 7.666021347045898 1.8486452102661133
33.928009033203125 7.4520978927612305 1.8456676006317139
33.94941711425781 7.2388434410095215 1.8425339460372925
33.9616584777832 7.023987293243408 1.839812994003296
33.96079635620117 6.8068976402282715 1.8377131223678589
33.970314025878906 6.59236478805542 1.8349953889846802
33.960811614990234 6.3746538162231445 1.8332152366638184
33.989219665527344 6.16443395614624 1.8293540477752686
34.0045280456543 5.952038288116455 1.826116919517517
34.01554870605469 5.739187717437744 1.8230363130569458
34.02622604370117 5.526584148406982 1.8199023008346558
34.018802642822266 5.311446189880371 1.817664384841919
34.01891326904297 5.09793758392334 1.814956545829773
34.02855682373047 4.886187553405762 1.811667561531067
34.04875183105469 4.676139831542969 1.8077428340911865
34.062705993652344 4.4653778076171875 1.8040803670883179
34.07238006591797 4.25424861907959 1.8005766868591309
34.07975387573242 4.043049335479736 1.7971255779266357
33.534088134765625 3.769900321960449 1.8234527111053467
33.51862335205078 3.56012225151062 1.821146845817566
33.58530044555664 3.3590211868286133 1.8143253326416016
33.62791061401367 3.1550891399383545 1.8087283372879028
33.65037536621094 2.949103593826294 1.8041490316390991
33.66361999511719 2.7423107624053955 1.7999979257583618
33.667625427246094 2.534865617752075 1.7962779998779297
33.68131637573242 2.328230142593384 1.7919597625732422
33.67878341674805 2.120579957962036 1.7884562015533447
33.664005279541016 1.9124243259429932 1.7855561971664429
33.67287063598633 1.7057909965515137 1.781288743019104
13.137953758239746 0.5850121378898621 2.909295082092285
12.363960266113281 0.47460177540779114 2.950516700744629
12.411463737487793 0.4001982808113098 2.9464213848114014
12.864753723144531 0.3358212411403656 2.9197776317596436
12.49513053894043 0.24949850142002106 2.9387478828430176
33.75034713745117 0.46616291999816895 1.7527981996536255
33.746337890625 0.25908249616622925 1.748733401298523
12.551265716552734 0.019614653661847115 2.930842876434326
12.643914222717285 -0.05780314281582832 2.92399525642395
12.729093551635742 -0.136282280087471 2.9175162315368652
12.734917640686035 -0.21447846293449402 2.9154605865478516
33.81206512451172 -0.777596652507782 1.7224833965301514
33.81739044189453 -0.9853060841560364 1.717443585395813
33.81146240234375 -1.1927595138549805 1.7129673957824707
12.48306655883789 -0.5168042778968811 2.922609329223633
12.597248077392578 -0.598965048789978 2.9142584800720215
13.164490699768066 -0.7069178223609924 2.8799123764038086
12.853864669799805 -0.7693348526954651 2.8957483768463135
11.849637985229492 -0.7821792960166931 2.9515628814697266
12.245821952819824 -0.8838260173797607 2.926856279373169
12.556584358215332 -0.9837315678596497 2.9069392681121826
12.394043922424316 -1.0475302934646606 2.9143550395965576
12.372381210327148 -1.122182846069336 2.913597822189331
12.742766380310059 -1.23465096950531 2.8899435997009277
33.909549713134766 -3.4962704181671143 1.6492340564727783
13.310994148254395 -1.4547836780548096 2.852297782897949
33.95284652709961 -3.9223127365112305 1.6350808143615723
12.487282752990723 -1.5199980735778809 2.89630389213562
33.951168060302734 -4.344878673553467 1.6232320070266724
33.97110366821289 -4.5594282150268555 1.6159487962722778
33.98474884033203 -4.7736921310424805 1.6089497804641724
33.98123550415039 -4.985978126525879 1.6028856039047241
33.989219665527344 -5.200364589691162 1.596048355102539
34.00077819824219 -5.415822982788086 1.5889062881469727
34.00998306274414 -5.631457805633545 1.581815242767334
34.0001106262207 -5.84436559677124 1.5757871866226196
29.266881942749023 -5.215770244598389 1.8564623594284058
34.02741241455078 -6.279871463775635 1.560610294342041
34.04387283325195 -6.499147415161133 1.5527071952819824
34.0265998840332 -6.712486743927002 1.5467745065689087
33.9727783203125 -6.918688774108887 1.5430063009262085
33.900123596191406 -7.120791435241699 1.5403307676315308
33.922847747802734 -7.343172073364258 1.531683325767517
33.945091247558594 -7.566318035125732 1.5229614973068237
34.01743698120117 -7.801840782165527 1.5110082626342773
34.0191764831543 -8.022270202636719 1.503347396850586
34.0689697265625 -8.255002975463867 1.4925694465637207
34.0435676574707 -8.470332145690918 1.4864118099212646
34.08546447753906 -8.703195571899414 1.4759068489074707
34.10743713378906 -8.932088851928711 1.4665474891662598
34.13269805908203 -9.162873268127441 1.4568662643432617
34.127532958984375 -9.38636302947998 1.4490165710449219
34.11514663696289 -9.608511924743652 1.441529393196106
34.1204948425293 -9.836393356323242 1.4327996969223022
34.13389587402344 -10.067525863647461 1.4234386682510376
34.12472152709961 -10.292853355407715 1.4154300689697266
34.13886260986328 -10.526093482971191 1.4057964086532593
34.14189910888672 -10.756896018981934 1.3967716693878174
34.16048812866211 -10.993638038635254 1.386610984802246
34.14616012573242 -11.22072982788086 1.3785016536712646
34.11329650878906 -11.44234848022461 1.3715145587921143
34.18852996826172 -11.701476097106934 1.3572328090667725
34.162925720214844 -11.927414894104004 1.3495334386825562
34.165916442871094 -12.164194107055664 1.3398094177246094
34.14476776123047 -12.39328670501709 1.3315916061401367
34.27653121948242 -12.679710388183594 1.312910795211792
34.330406188964844 -12.939705848693848 1.2993264198303223
34.31903076171875 -13.176513671875 1.2900409698486328
34.316253662109375 -13.417667388916016 1.2800450325012207
34.33034896850586 -13.666665077209473 1.2687602043151855
34.3473014831543 -13.91821575164795 1.2571380138397217
34.364295959472656 -14.171249389648438 1.2453696727752686
34.37947463989258 -14.42501449584961 1.2335841655731201
34.36070251464844 -14.665790557861328 1.2240334749221802
29.603130340576172 -12.850454330444336 1.5481672286987305
29.552690505981445 -13.04469108581543 1.5421395301818848
34.42365264892578 -15.447964668273926 1.1861369609832764
34.41417694091797 -15.698169708251953 1.1753675937652588
34.434600830078125 -15.963529586791992 1.1623116731643677
34.45035934448242 -16.228456497192383 1.1494308710098267
34.44614791870117 -16.485559463500977 1.1378352642059326
34.466094970703125 -16.755874633789062 1.1243302822113037
34.46702194213867 -17.01866340637207 1.1120474338531494
34.472251892089844 -17.285221099853516 1.0992897748947144
34.40614700317383 -17.517169952392578 1.0916392803192139
34.35089874267578 -17.755374908447266 1.0830672979354858
34.433624267578125 -18.06681251525879 1.0640777349472046
34.423980712890625 -18.33209228515625 1.0517853498458862
34.438697814941406 -18.612165451049805 1.0374945402145386
34.41627883911133 -18.87391471862793 1.0258327722549438
30.786611557006836 -17.129985809326172 1.2887455224990845
34.58462905883789 -19.522281646728516 0.9857118725776672
34.57990646362305 -19.80048942565918 0.972121000289917
34.543724060058594 -20.06233787536621 0.9607836008071899
34.5821418762207 -20.36955451965332 0.9434842467308044
34.585533142089844 -20.65855598449707 0.9287017583847046
34.57984161376953 -20.944225311279297 0.9144366383552551
34.56174087524414 -21.224336624145508 0.9009591937065125
34.51100158691406 -21.486032485961914 0.8898916840553284
34.58659362792969 -21.828842163085938 0.8685654997825623
34.5760612487793 -22.12015724182129 0.8538869619369507
34.59505844116211 -22.432790756225586 0.8366202712059021
34.6331901550293 -22.7607364654541 0.8175641298294067
34.568111419677734 -23.023069381713867 0.8066933155059814
34.74010467529297 -23.44676399230957 0.7761618494987488
34.759124755859375 -23.771488189697266 0.7578930258750916
34.7484016418457 -24.078577041625977 0.7418487071990967
34.753173828125 -24.399036407470703 0.724281907081604
34.82522201538086 -24.77018928527832 0.7008033990859985
34.80012512207031 -25.07548713684082 0.6852367520332336
34.811256408691406 -25.409637451171875 0.6663562655448914
34.806758880615234 -25.735376358032227 0.6485503315925598
34.84108352661133 -26.09311294555664 0.6271396279335022
34.88662338256836 -26.463088989257812 0.6044527292251587
34.84823226928711 -26.772605895996094 0.5887789726257324
34.89237976074219 -27.1488094329834 0.5656137466430664
34.88462829589844 -27.488279342651367 0.5467105507850647
34.88259506225586 -27.83551788330078 0.5270207524299622
34.7852668762207 -28.109146118164062 0.5155805945396423
34.79320526123047 -28.470443725585938 0.4944595396518707
34.88633728027344 -28.90608787536621 0.46528783440589905
34.90205764770508 -29.282386779785156 0.44277068972587585
34.92890548706055 -29.672231674194336 0.41889333724975586
34.93185043334961 -30.045942306518555 0.396871417760849
34.90443420410156 -30.397216796875 0.3773483335971832
34.89570999145508 -30.76841163635254 0.35576605796813965
34.89265823364258 -31.14861488342285 0.33331310749053955
34.71159362792969 -31.372085571289062 0.3274663984775543
34.97359848022461 -32.00122833251953 0.27900630235671997
34.92254638671875 -32.35072326660156 0.26006168127059937
35.04240417480469 -32.86387634277344 0.224183589220047
34.9366340637207 -33.170230865478516 0.20986232161521912
32.3489990234375 30.865983963012695 1.4895728826522827
32.39426803588867 30.532011032104492 1.4950402975082397
32.32554244995117 30.095195770263672 1.5078238248825073
32.465171813964844 29.85577964782715 1.5067261457443237
32.50474548339844 29.526458740234375 1.5120309591293335
32.468650817871094 29.13240623474121 1.5220837593078613
32.405033111572266 28.71871566772461 1.5337148904800415
32.56454849243164 28.50558853149414 1.5307244062423706
32.57155227661133 28.160930633544922 1.5374388694763184
32.5656852722168 27.808834075927734 1.5448033809661865
32.597206115722656 27.492000579833984 1.549601674079895
32.604576110839844 27.157928466796875 1.5557794570922852
32.62451171875 26.83749771118164 1.560994029045105
32.630126953125 26.508398056030273 1.5669575929641724
32.65552520751953 26.1983699798584 1.571511149406433
32.656436920166016 25.87166404724121 1.5774555206298828
32.67975616455078 25.565628051757812 1.5818369388580322
32.6776237487793 25.24257469177246 1.58766508102417
32.72677230834961 24.961698532104492 1.590139389038086
32.701107025146484 24.62649917602539 1.5971391201019287
32.724666595458984 24.33129119873047 1.6009255647659302
32.740203857421875 24.03258514404297 1.6050724983215332
32.54709243774414 23.58516502380371 1.6219762563705444
32.57555389404297 23.302562713623047 1.6250218152999878
32.67276382446289 23.070621490478516 1.6237090826034546
32.58645248413086 22.71158790588379 1.633551836013794
32.7133903503418 22.50334930419922 1.630178689956665
32.69439697265625 22.196237564086914 1.6356256008148193
32.72265625 21.92356300354004 1.6380561590194702
32.685489654541016 21.609516143798828 1.6443471908569336
32.73604965209961 21.355688095092773 1.6451754570007324
32.765411376953125 21.089618682861328 1.647176742553711
32.778411865234375 20.814891815185547 1.6500511169433594
32.77997589111328 20.534969329833984 1.6534996032714844
32.769142150878906 20.249509811401367 1.6575754880905151
32.660545349121094 19.90674591064453 1.6674178838729858
32.64228057861328 19.62216567993164 1.6716935634613037
32.789276123046875 19.437864303588867 1.6659339666366577
32.83781433105469 19.195545196533203 1.6659892797470093
32.856929779052734 18.93740463256836 1.6677004098892212
32.86369323730469 18.673831939697266 1.6700416803359985
32.800514221191406 18.37282371520996 1.6764495372772217
32.87476348876953 18.150524139404297 1.6745502948760986
32.97909164428711 17.945186614990234 1.670764684677124
33.02230453491211 17.70716094970703 1.6705223321914673
33.02498245239258 17.448753356933594 1.6725881099700928
33.039913177490234 17.19835662841797 1.6738239526748657
33.05390548706055 16.948890686035156 1.6750142574310303
33.06875991821289 16.701248168945312 1.6760547161102295
33.06036376953125 16.443391799926758 1.6783713102340698
33.082340240478516 16.202077865600586 1.6787933111190796
33.101707458496094 15.960677146911621 1.6792739629745483
33.098609924316406 15.709802627563477 1.6809837818145752
33.11811065673828 15.470975875854492 1.6812652349472046
33.12504959106445 15.227498054504395 1.682193398475647
33.15571594238281 14.996038436889648 1.6816290616989136
33.11546325683594 14.733925819396973 1.685147762298584
33.10892105102539 14.488484382629395 1.6865876913070679
33.13822937011719 14.259860038757324 1.685828447341919
33.168731689453125 14.032588005065918 1.6849089860916138
33.16543197631836 13.792057991027832 1.685886263847351
33.19463348388672 13.56607437133789 1.684865951538086
33.22694396972656 13.342109680175781 1.6835750341415405
33.099849700927734 13.055973052978516 1.6915488243103027
33.133445739746094 12.835018157958984 1.6900060176849365
33.55475616455078 12.762164115905762 1.6656383275985718
33.675193786621094 12.572164535522461 1.6588349342346191
33.714866638183594 12.351967811584473 1.656680703163147
33.73149108886719 12.123988151550293 1.6557921171188354
33.7371826171875 11.892949104309082 1.655458688735962
33.74696731567383 11.664252281188965 1.6547998189926147
33.75238037109375 11.43492317199707 1.6543117761611938
33.77141571044922 11.210997581481934 1.6529405117034912
33.78708267211914 10.986650466918945 1.6516832113265991
33.797454833984375 10.761319160461426 1.6506519317626953
33.805389404296875 10.535978317260742 1.6496806144714355
33.80419158935547 10.308612823486328 1.6491625308990479
33.795738220214844 10.07994556427002 1.6489882469177246
33.816429138183594 9.860713005065918 1.647020697593689
33.837623596191406 9.642152786254883 1.644940972328186
33.85356140136719 9.42263126373291 1.6430879831314087
33.8526611328125 9.199087142944336 1.6421430110931396
33.855125427246094 8.977187156677246 1.6409212350845337
33.86581039428711 8.758101463317871 1.6391336917877197
33.884761810302734 8.541661262512207 1.636778473854065
33.89360427856445 8.323175430297852 1.6349387168884277
33.903961181640625 8.105596542358398 1.6329290866851807
33.90708541870117 7.886845588684082 1.6312659978866577
33.907833099365234 7.668140888214111 1.6296641826629639
33.928627014160156 7.454434871673584 1.6267985105514526
33.94710159301758 7.240553855895996 1.6239888668060303
33.95640563964844 7.025106430053711 1.6216425895690918
33.96043014526367 6.809031009674072 1.619529366493225
33.96112060546875 6.5927886962890625 1.6175364255905151
33.96240234375 6.377161979675293 1.6154296398162842
33.98392868041992 6.165686130523682 1.612040400505066
34.0041389465332 5.954185962677002 1.6086491346359253
34.021060943603516 5.742335319519043 1.605372667312622
34.01991653442383 5.527777671813965 1.6030949354171753
34.018409729003906 5.313602924346924 1.6007609367370605
34.01456069946289 5.09950590133667 1.5984896421432495
34.030120849609375 4.888635158538818 1.5949783325195312
34.0483283996582 4.67830753326416 1.5912288427352905
34.0602912902832 4.467289447784424 1.5877734422683716
34.073917388916016 4.25667142868042 1.5841377973556519
34.08524703979492 4.045934200286865 1.5805602073669434
33.530853271484375 3.771721124649048 1.6110262870788574
33.52034378051758 3.562490463256836 1.608659267425537
33.573097229003906 3.3599908351898193 1.6023896932601929
33.62859344482422 3.1573503017425537 1.5958679914474487
33.65303039550781 2.9515366554260254 1.5911418199539185
33.6652717590332 2.744647979736328 1.5870764255523682
33.678226470947266 2.5378687381744385 1.5828866958618164
33.67696762084961 2.330136299133301 1.5794838666915894
33.6744270324707 2.122513771057129 1.5760823488235474
33.66163635253906 1.9144980907440186 1.5732297897338867
33.662513732910156 1.7074761390686035 1.5694636106491089
13.030473709106445 0.5805817246437073 2.833082437515259
13.024714469909668 0.5002967715263367 2.831939220428467
13.015467643737793 0.42000702023506165 2.830981969833374
33.72713851928711 0.8819957375526428 1.549835443496704
33.736637115478516 0.6751973032951355 1.5451334714889526
12.831075668334961 0.17780528962612152 2.837656021118164
12.760965347290039 0.09854656457901001 2.8403875827789307
33.768489837646484 0.054341621696949005 1.5303219556808472
12.660213470458984 -0.057553865015506744 2.843350410461426
12.665513038635254 -0.13527420163154602 2.8413236141204834
33.79389953613281 -0.5675562024116516 1.5151633024215698
12.784430503845215 -0.2934306263923645 2.830368757247925
33.80978775024414 -0.9828395247459412 1.504701852798462
33.81681442260742 -1.1907007694244385 1.4994020462036133
33.82056427001953 -1.3986045122146606 1.4942238330841064
12.576598167419434 -0.5976614952087402 2.8361377716064453
13.003108978271484 -0.6978866457939148 2.807131290435791
12.848053932189941 -0.7686401009559631 2.8150129318237305
12.877848625183105 -0.8497339487075806 2.8111047744750977
33.864906311035156 -2.442582130432129 1.4654154777526855
12.528973579406738 -0.9812480807304382 2.8293793201446533
33.885528564453125 -2.8623762130737305 1.4530861377716064
33.91078567504883 -3.074138641357422 1.4458223581314087
12.749863624572754 -1.2349975109100342 2.8088414669036865
33.894771575927734 -3.492469072341919 1.4353187084197998
13.32280445098877 -1.4556801319122314 2.7671778202056885
13.772500038146973 -1.5903606414794922 2.7355003356933594
33.942787170410156 -4.130030632019043 1.4142043590545654
13.196433067321777 -1.6881781816482544 2.76829195022583
33.96118927001953 -4.555801868438721 1.400538444519043
33.96196365356445 -4.76819372177124 1.3941187858581543
33.98115158081055 -4.983664035797119 1.3863869905471802
33.98713684082031 -5.19774055480957 1.3794294595718384
33.99965286254883 -5.41333532333374 1.371940016746521
33.99799728393555 -5.627161502838135 1.3652960062026978
33.98910140991211 -5.8401594161987305 1.3590401411056519
29.275331497192383 -5.215396404266357 1.668496012687683
34.021263122558594 -6.2764153480529785 1.3428841829299927
34.0416145324707 -6.4963908195495605 1.3343595266342163
34.02431869506836 -6.709710121154785 1.3282772302627563
33.96462631225586 -6.914703845977783 1.3249834775924683
33.9369010925293 -7.126191139221191 1.3194338083267212
33.92247772216797 -7.340765476226807 1.3128834962844849
33.947601318359375 -7.56454610824585 1.3035221099853516
34.01210021972656 -7.798276424407959 1.2913339138031006
34.03712463378906 -8.024155616760254 1.2817370891571045
34.06744384765625 -8.252281188964844 1.2716554403305054
34.06332015991211 -8.472893714904785 1.2638477087020874
34.09450149536133 -8.703143119812012 1.2534677982330322
34.08938980102539 -8.925000190734863 1.2455047369003296
34.127159118652344 -9.159016609191895 1.2344183921813965
34.1229362487793 -9.382725715637207 1.226163387298584
34.11628341674805 -9.606456756591797 1.2179679870605469
34.12446975708008 -9.835159301757812 1.2086066007614136
34.133033752441406 -10.064888954162598 1.1990975141525269
34.1209602355957 -10.289332389831543 1.1909438371658325
34.15604019165039 -10.528997421264648 1.1792889833450317
34.172325134277344 -10.764084815979004 1.1688499450683594
34.15376663208008 -10.989075660705566 1.160802960395813
34.14320755004883 -11.217357635498047 1.152061104774475
34.153831481933594 -11.453537940979004 1.141655683517456
34.18077087402344 -11.69640827178955 1.1299223899841309
34.17021942138672 -11.927546501159668 1.120802402496338
34.167510986328125 -12.162342071533203 1.110979676246643
34.14726257324219 -12.391770362854004 1.1023281812667847
34.2901496887207 -12.682310104370117 1.0814143419265747
34.30845642089844 -12.928987503051758 1.069588303565979
34.311058044433594 -13.171004295349121 1.0587942600250244
34.32218933105469 -13.417535781860352 1.0472166538238525
34.32231903076172 -13.6610107421875 1.03632390499115
34.34847640991211 -13.916229248046875 1.0233112573623657
34.35803985595703 -14.166199684143066 1.0114039182662964
34.36857604980469 -14.417969703674316 0.9992696046829224
34.35712814331055 -14.661787986755371 0.9886726140975952
34.380577087402344 -14.921895980834961 0.9752347469329834
29.541784286499023 -13.03786563873291 1.3392442464828491
34.430850982666016 -15.448698997497559 0.9475880861282349
34.41767501831055 -15.697265625 0.9365065693855286
34.44527053833008 -15.965968132019043 0.922065258026123
34.43476486206055 -16.21860122680664 0.9104562401771545
34.45663833618164 -16.48806381225586 0.8961191773414612
34.46931457519531 -16.754919052124023 0.8823330998420715
34.4791145324707 -17.02210807800293 0.8685997128486633
34.463741302490234 -17.278425216674805 0.856715202331543
34.399410247802734 -17.511213302612305 0.8486334085464478
34.364524841308594 -17.759889602661133 0.8380295038223267
34.445350646972656 -18.070423126220703 0.8178150653839111
34.4127197265625 -18.32355308532715 0.8066748976707458
34.42214584350586 -18.600669860839844 0.7919045090675354
34.40672302246094 -18.86612319946289 0.7790005207061768
30.81332015991211 -17.142656326293945 1.0642600059509277
34.586238861083984 -19.52060890197754 0.7350280284881592
34.58750534057617 -19.802257537841797 0.7200867533683777
34.55210876464844 -20.064620971679688 0.7080481052398682
34.569793701171875 -20.35968589782715 0.6913185715675354
34.6151123046875 -20.673622131347656 0.6720020174980164
34.602420806884766 -20.95529556274414 0.6574235558509827
34.568023681640625 -21.2255916595459 0.6445187926292419
34.562931060791016 -21.51575469970703 0.6288804411888123
34.58677673339844 -21.82634162902832 0.6104958653450012
34.54173278808594 -22.095579147338867 0.5979170799255371
34.60011672973633 -22.433443069458008 0.5760131478309631
34.608970642089844 -22.7421817779541 0.5582199692726135
34.589595794677734 -23.034740447998047 0.5427030920982361
34.7183723449707 -23.4294376373291 0.513649582862854
34.75056838989258 -23.762971878051758 0.4929461181163788
34.74144744873047 -24.071088790893555 0.4757143259048462
34.7526969909668 -24.396028518676758 0.45637330412864685
34.8165168762207 -24.761310577392578 0.4319245219230652
34.77924728393555 -25.057756423950195 0.41649219393730164
34.79844665527344 -25.39759063720703 0.39557456970214844
34.807552337646484 -25.733264923095703 0.37530383467674255
34.83300018310547 -26.0843505859375 0.353202760219574
34.87291717529297 -26.449970245361328 0.32941436767578125
34.83926010131836 -26.762996673583984 0.3122997581958771
34.85894775390625 -27.120073318481445 0.28980982303619385
34.85049057006836 -27.458648681640625 0.26970812678337097
34.85321044921875 -27.80933380126953 0.24822115898132324
34.74434280395508 -28.07335090637207 0.2373211830854416
34.72846984863281 -28.41474151611328 0.21708667278289795
34.88553237915039 -28.902664184570312 0.17942065000534058
34.91261672973633 -29.288482666015625 0.1541697084903717
34.90054702758789 -29.645376205444336 0.13246765732765198
34.89976501464844 -30.01557159423828 0.10929084569215775
32.36231994628906 30.880191802978516 1.2225931882858276
32.363365173339844 30.50439453125 1.2325148582458496
32.307682037353516 30.080080032348633 1.2463983297348022
32.44792938232422 29.841463088989258 1.245604157447815
32.48447799682617 29.509597778320312 1.2522716522216797
32.4691276550293 29.134395599365234 1.2625319957733154
32.40781784057617 28.722745895385742 1.275914192199707
32.56056594848633 28.503686904907227 1.2735382318496704
32.55927276611328 28.15191078186035 1.2821626663208008
32.55869674682617 27.804466247558594 1.2905330657958984
32.597835540771484 27.494144439697266 1.2958570718765259
32.58836364746094 27.146045684814453 1.304479956626892
32.61441421508789 26.830820083618164 1.3103766441345215
32.62078094482422 26.502445220947266 1.3174951076507568
32.646942138671875 26.193130493164062 1.3230321407318115
32.65176010131836 25.869609832763672 1.3299049139022827
32.680580139160156 25.567935943603516 1.334912896156311
32.67849349975586 25.244909286499023 1.3419263362884521
32.71892547607422 24.9573917388916 1.3457934856414795
32.71001434326172 24.6348876953125 1.352947473526001
32.72722625732422 24.334882736206055 1.3581151962280273
32.75004577636719 24.04150390625 1.3627365827560425
32.540096282958984 23.5817813873291 1.3833026885986328
32.58397674560547 23.310279846191406 1.3861258029937744
32.6649055480957 23.06678009033203 1.3862605094909668
32.70394515991211 22.79518699645996 1.3891452550888062
32.68412780761719 22.48493194580078 1.395920991897583
32.69725799560547 22.19990348815918 1.400290846824646
32.70149612426758 21.911109924316406 1.4051246643066406
32.72341537475586 21.63631820678711 1.4086127281188965
32.72312545776367 21.34899139404297 1.4134712219238281
32.775962829589844 21.0981502532959 1.4145933389663696
32.799983978271484 20.830337524414062 1.4175390005111694
32.80926513671875 20.555070877075195 1.421347737312317
18.435060501098633 11.392265319824219 2.392998218536377
18.434541702270508 11.236358642578125 2.3953750133514404
18.3814697265625 11.050024032592773 2.4012017250061035
18.367172241210938 10.88869571685791 2.4043476581573486
32.83500671386719 19.195674896240234 1.4398225545883179
32.91813278198242 18.974462509155273 1.4379347562789917
32.8886833190918 18.689809799194336 1.443437099456787
32.81256866455078 18.3813533782959 1.4519132375717163
32.87112045288086 18.150297164916992 1.4513109922409058
32.965782165527344 17.93973731994629 1.4482070207595825
33.00102996826172 17.697555541992188 1.44893479347229
33.02043533325195 17.44815444946289 1.4505997896194458
33.03358840942383 17.196876525878906 1.4525628089904785
33.044918060302734 16.946090698242188 1.4545350074768066
33.046390533447266 16.69176483154297 1.4570430517196655
33.06208419799805 16.446062088012695 1.4585034847259521
33.0688362121582 16.197280883789062 1.4604427814483643
33.08457565307617 15.954239845275879 1.4616823196411133
33.09226608276367 15.708617210388184 1.4633421897888184
33.11447525024414 15.471107482910156 1.4639440774917603
33.116878509521484 15.225576400756836 1.4657381772994995
33.14389419555664 14.992527961730957 1.4658161401748657
33.11640548706055 14.736181259155273 1.4693546295166016
33.11354446411133 14.492345809936523 1.471177577972412
33.12269592285156 14.255017280578613 1.472113847732544
33.14948654174805 14.026289939880371 1.471797227859497
33.18762969970703 13.803136825561523 1.470643401145935
33.18547439575195 13.564179420471191 1.4720155000686646
33.22887420654297 13.344741821289062 1.4703216552734375
33.097206115722656 13.05677604675293 1.4799244403839111
33.12242126464844 12.832595825195312 1.4792166948318481
33.56595230102539 12.768310546875 1.4512156248092651
33.6751594543457 12.574050903320312 1.444867491722107
33.716705322265625 12.354544639587402 1.442821979522705
33.72770690917969 12.124532699584961 1.4426671266555786
33.743751525878906 11.897172927856445 1.442088007926941
33.74412536621094 11.665180206298828 1.4424314498901367
33.75048828125 11.43619155883789 1.442291498184204
33.76762771606445 11.211652755737305 1.4413574934005737
33.783287048339844 10.98733139038086 1.4404264688491821
33.786048889160156 10.75960636138916 1.4402389526367188
33.794921875 10.534634590148926 1.4395626783370972
33.80516815185547 10.310832977294922 1.4387048482894897
33.78429412841797 10.078453063964844 1.4397763013839722
33.811668395996094 9.861249923706055 1.4376236200332642
33.8309326171875 9.64217472076416 1.435905933380127
33.83820343017578 9.4202880859375 1.4348770380020142
33.84114456176758 9.197888374328613 1.434038758277893
33.84552001953125 8.976572036743164 1.4330185651779175
33.85908889770508 8.75829792022705 1.4313102960586548
33.87028503417969 8.539949417114258 1.429667592048645
33.886863708496094 8.323458671569824 1.4275844097137451
33.90788269042969 8.108477592468262 1.425124168395996
33.89935302734375 7.886991024017334 1.4244989156723022
33.90593338012695 7.669656753540039 1.422802209854126
33.924766540527344 7.455535411834717 1.420217752456665
33.94518280029297 7.242095470428467 1.4174405336380005
33.95545959472656 7.026864051818848 1.4152379035949707
33.94676208496094 6.808244228363037 1.4141881465911865
33.95527648925781 6.59360933303833 1.4119259119033813
33.96047592163086 6.378756523132324 1.4097944498062134
33.97707748413086 6.166402816772461 1.406827449798584
33.99628829956055 5.954773902893066 1.4036026000976562
34.014183044433594 5.743139266967773 1.4003748893737793
34.0169677734375 5.5292649269104 1.3980528116226196
34.0203857421875 5.315880298614502 1.3956023454666138
34.0106201171875 5.100882530212402 1.3939337730407715
34.017276763916016 4.888759613037109 1.3910974264144897
34.03546142578125 4.6785125732421875 1.387414574623108
34.05037307739258 4.4679646492004395 1.383859395980835
34.0620002746582 4.257160663604736 1.380433201789856
34.078269958496094 4.047086715698242 1.3766131401062012
33.52606201171875 3.7731189727783203 1.4104008674621582
33.504634857177734 3.5627565383911133 1.4089539051055908
33.56429672241211 3.3610527515411377 1.4020355939865112
33.624725341796875 3.1589362621307373 1.394970178604126
33.64915084838867 2.953148365020752 1.3902101516723633
33.6544075012207 2.7457165718078613 1.3866384029388428
33.666351318359375 2.5389304161071777 1.382535457611084
33.67005920410156 2.3316166400909424 1.3788951635360718
33.666507720947266 2.123974084854126 1.3756557703018188
33.64275360107422 1.915382742881775 1.3736883401870728
33.66254806518555 1.7094401121139526 1.3687103986740112
33.669124603271484 1.5027904510498047 1.3645325899124146
33.68638610839844 1.2965834140777588 1.3595459461212158
19.26890754699707 0.6227839589118958 2.330592393875122
13.019679069519043 0.3404711186885834 2.7516403198242188
33.72760772705078 0.6769917607307434 1.3447585105895996
12.404144287109375 0.17208217084407806 2.7902982234954834
33.75373458862305 0.26334893703460693 1.3345394134521484
33.76140594482422 0.05631280317902565 1.3296606540679932
12.715168952941895 -0.05756685882806778 2.764230489730835
33.77891540527344 -0.3580726981163025 1.3194835186004639
33.78476333618164 -0.565413236618042 1.3144574165344238
12.806381225585938 -0.2936893701553345 2.7527334690093994
33.80360794067383 -0.980665385723114 1.3036386966705322
33.81260681152344 -1.1885558366775513 1.2981199026107788
33.807373046875 -1.3960607051849365 1.2934913635253906
33.714168548583984 -1.599438190460205 1.2948766946792603
12.83961296081543 -0.6888672113418579 2.740971803665161
12.902748107910156 -0.7716547250747681 2.7345733642578125
12.87177848815918 -0.8490800857543945 2.734691619873047
12.82840633392334 -0.9252952933311462 2.735652446746826
12.515068054199219 -0.9799348711967468 2.755533218383789
33.89607238769531 -2.8612475395202637 1.2497470378875732
12.811848640441895 -1.161460041999817 2.730400562286377
12.751747131347656 -1.2349340915679932 2.7324392795562744
12.763664245605469 -1.3151720762252808 2.7293601036071777
13.91445541381836 -1.5199617147445679 2.645352840423584
13.993929862976074 -1.61557137966156 2.6371755599975586
12.391379356384277 -1.50779390335083 2.749006509780884
12.668724060058594 -1.6204466819763184 2.7268407344818115
12.638659477233887 -1.6954745054244995 2.7265944480895996
12.631857872009277 -1.7735213041305542 2.7246482372283936
12.606810569763184 -1.8489457368850708 2.7239837646484375
12.601033210754395 -1.927144169807434 2.7218966484069824
12.529757499694824 -1.9949971437454224 2.7245261669158936
12.512250900268555 -2.0710020065307617 2.723234176635742
34.000125885009766 -5.839996814727783 1.1527341604232788
29.266572952270508 -5.2121806144714355 1.491951823234558
34.01551818847656 -6.273292064666748 1.1371530294418335
34.03877639770508 -6.493781089782715 1.1280521154403687
34.01363754272461 -6.705535411834717 1.1224058866500854
33.954925537109375 -6.910663604736328 1.1191474199295044
33.91156768798828 -7.118809223175049 1.1146645545959473
33.92737579345703 -7.339756965637207 1.1056824922561646
33.94855499267578 -7.562686920166016 1.0961793661117554
34.01493835449219 -7.796847343444824 1.0831650495529175
34.0418586730957 -8.023186683654785 1.072972059249878
34.04983139038086 -8.245925903320312 1.0640801191329956
34.066993713378906 -8.47171401977539 1.0543725490570068
34.09231948852539 -8.700489044189453 1.0439180135726929
34.11226272583008 -8.928886413574219 1.0337411165237427
34.11719512939453 -9.1542387008667 1.0245826244354248
34.114871978759766 -9.378402709960938 1.0158557891845703
34.102439880371094 -9.600451469421387 1.0077848434448242
34.1374397277832 -9.836784362792969 0.9959325790405273
34.14115905761719 -10.065166473388672 0.9863603115081787
34.12425994873047 -10.288208961486816 0.9782629609107971
34.179290771484375 -10.534038543701172 0.9644298553466797
34.142215728759766 -10.75247573852539 0.9576534628868103
34.14931869506836 -10.985514640808105 0.9472928643226624
34.15199661254883 -11.218111038208008 0.9371439218521118
34.16350173950195 -11.454642295837402 0.926158607006073
34.16865921020508 -11.690123558044434 0.9155346155166626
34.18163299560547 -11.929386138916016 0.9041459560394287
34.152549743652344 -12.154873847961426 0.8959804177284241
34.14542007446289 -12.388955116271973 0.8859266042709351
34.225547790527344 -12.656261444091797 0.868683934211731
34.2663459777832 -12.910954475402832 0.8544350862503052
34.27364730834961 -13.1544771194458 0.8427401185035706
34.320106506347656 -13.414546966552734 0.8276903033256531
34.32389450073242 -13.65946102142334 0.8159617185592651
34.32966232299805 -13.906424522399902 0.803914487361908
34.35304260253906 -14.161953926086426 0.790249764919281
34.3580207824707 -14.411351203918457 0.7779409289360046
34.348388671875 -14.655866622924805 0.7666893601417542
34.37363052368164 -14.916682243347168 0.752359926700592
29.532203674316406 -13.03187370300293 1.1475316286087036
34.42108154296875 -15.442106246948242 0.7234070897102356
34.410606384277344 -15.6918306350708 0.7115576863288879
34.43182373046875 -15.957518577575684 0.6968406438827515
34.44655990600586 -16.221935272216797 0.6824902892112732
34.43235397338867 -16.47422218322754 0.6704422831535339
34.45580291748047 -16.746122360229492 0.6549721360206604
34.45842742919922 -17.009662628173828 0.6411097645759583
34.454654693603516 -17.271631240844727 0.6276201605796814
34.38854217529297 -17.503446578979492 0.6194105744361877
34.34389877319336 -17.746997833251953 0.6091747879981995
34.45029830932617 -18.07077407836914 0.5854201316833496
34.401763916015625 -18.315475463867188 0.57515549659729
34.416419982910156 -18.595327377319336 0.5590879917144775
30.822986602783203 -16.899185180664062 0.8666960000991821
30.79940414428711 -17.13299560546875 0.8552370071411133
34.58552169799805 -19.51793098449707 0.4982445538043976
34.59624099731445 -19.804977416992188 0.481602281332016
34.57283020019531 -20.074371337890625 0.4678593575954437
34.57146453857422 -20.358386993408203 0.4518907964229584
34.61155319213867 -20.669206619262695 0.43186572194099426
34.6218376159668 -20.964757919311523 0.4143475294113159
34.62384033203125 -21.25756072998047 0.397363543510437
34.605770111083984 -21.540119171142578 0.3820286691188812
34.585533142089844 -21.823251724243164 0.36667880415916443
34.60677719116211 -22.134876251220703 0.3471674621105194
34.64974594116211 -22.46330451965332 0.325313925743103
34.57918167114258 -22.720293045043945 0.3140641748905182
34.44453048706055 -22.93583106994629 0.3088184595108032
30.29364776611328 -20.44158172607422 0.693276584148407
34.67807388305664 -23.7110652923584 0.24890229105949402
34.646236419677734 -24.002788543701172 0.23293837904930115
34.73042297363281 -24.3780460357666 0.2052827775478363
29.876501083374023 -21.246173858642578 0.6675001978874207
29.936086654663086 -21.566518783569336 0.6443818807601929
29.73681640625 -21.70155143737793 0.6469427943229675
29.694114685058594 -21.951080322265625 0.6336669921875
29.614362716674805 -22.174617767333984 0.6239491701126099
29.592540740966797 -22.44317054748535 0.6081439256668091
29.5511417388916 -22.698936462402344 0.5941122770309448
32.34476089477539 30.82158088684082 0.974744975566864
32.361351013183594 30.46112632751465 0.9848007559776306
32.31187438964844 30.043174743652344 0.9999974966049194
32.422447204589844 29.77756690979004 1.0019187927246094
32.48958206176758 29.47416877746582 1.0071791410446167
32.47690200805664 29.10178565979004 1.0186684131622314
32.41828536987305 28.692960739135742 1.0335972309112549
32.55728530883789 28.4620361328125 1.032468318939209
32.57908630371094 28.130672454833984 1.0405242443084717
32.57071304321289 27.776790618896484 1.0507628917694092
32.601985931396484 27.4600887298584 1.0576437711715698
32.61909484863281 27.13447380065918 1.0654412508010864
32.63652801513672 26.81222152709961 1.0730102062225342
32.62411880493164 26.46876335144043 1.0827150344848633
32.65780258178711 26.165794372558594 1.088615894317627
32.66630554199219 25.845449447631836 1.0962897539138794
32.688629150390625 25.53888702392578 1.1026989221572876
32.66575622558594 25.200105667114258 1.1124143600463867
32.7018928527832 24.909744262695312 1.1173865795135498
32.709388732910156 24.6000919342041 1.124386191368103
32.74156188964844 24.311521530151367 1.1293165683746338
32.7408447265625 24.001054763793945 1.1365877389907837
32.55078125 23.556333541870117 1.1580815315246582
32.6058349609375 23.292984008789062 1.160727620124817
32.677650451660156 23.043073654174805 1.1619573831558228
32.728782653808594 22.780048370361328 1.164605975151062
32.7302131652832 22.484479904174805 1.1708464622497559
32.76560592651367 22.214397430419922 1.1743746995925903
32.712650299072266 21.88700294494629 1.1843677759170532
32.75436782836914 21.625442504882812 1.1871098279953003
32.790771484375 21.362014770507812 1.1901054382324219
32.82853698730469 21.10111427307129 1.1928566694259644
32.80786895751953 20.804737091064453 1.1998019218444824
32.82626724243164 20.535348892211914 1.203696846961975
18.416202545166016 11.363289833068848 2.2733047008514404
18.416337966918945 11.20807933807373 2.2760791778564453
18.400720596313477 11.044563293457031 2.2799313068389893
18.386369705200195 10.883184432983398 2.2836053371429443
32.88829040527344 19.197582244873047 1.2232542037963867
32.93247604370117 18.95366668701172 1.2244247198104858
32.935848236083984 18.687768936157227 1.2284493446350098
32.831817626953125 18.363588333129883 1.2401692867279053
32.87712478637695 18.125232696533203 1.2408596277236938
32.97072982788086 17.914175033569336 1.2379189729690552
33.00667190551758 17.67249870300293 1.2390515804290771
33.02766036987305 17.4240665435791 1.2411458492279053
33.048614501953125 17.176963806152344 1.2431185245513916
33.05801010131836 16.925256729125977 1.2458027601242065
33.05577087402344 16.669137954711914 1.2492038011550903
33.07487487792969 16.42522430419922 1.2509413957595825
33.08237075805664 16.1768798828125 1.2533949613571167
33.09346389770508 15.931660652160645 1.2554693222045898
33.105506896972656 15.688194274902344 1.2573579549789429
33.11219024658203 15.443492889404297 1.2595127820968628
33.13163375854492 15.20595932006836 1.260636806488037
33.1494140625 14.968768119812012 1.261765956878662
