# .PCD v0.7 - Point Cloud Data file format
VERSION 0.7
FIELDS x y z
SIZE 4 4 4
TYPE F F F
COUNT 1 1 1
WIDTH 855
HEIGHT 1
VIEWPOINT 0 0 0 1 0 0 0
POINTS 855
DATA ascii
32.89516830444336 18.382368087768555 3.2838921546936035
32.780426025390625 18.055273056030273 3.2821669578552246
33.47317886352539 18.170146942138672 3.271742820739746
44.78269577026367 23.955215454101562 3.145705223083496
44.62356185913086 23.51919174194336 3.143392324447632
44.485626220703125 23.098928451538086 3.140859842300415
44.3388786315918 22.678518295288086 3.1384382247924805
44.13507843017578 22.233783721923828 3.1366703510284424
44.07978439331055 21.867965698242188 3.133244752883911
43.90846252441406 21.4483585357666 3.1311395168304443
43.831886291503906 21.078922271728516 3.1279616355895996
43.61235046386719 20.644920349121094 3.126444101333618
43.50516891479492 20.268465042114258 3.1236369609832764
43.390480041503906 19.89202117919922 3.120924711227417
43.23817443847656 19.502126693725586 3.118666648864746
43.08821487426758 19.11728858947754 3.1163949966430664
42.98374557495117 18.756221771240234 3.113586664199829
42.84982681274414 18.38572883605957 3.11114239692688
42.719444274902344 18.020305633544922 3.1086645126342773
42.57880401611328 17.654115676879883 3.106323480606079
42.44547653198242 17.29448127746582 3.103902816772461
42.342769622802734 16.950531005859375 3.1011080741882324
42.28675842285156 16.627887725830078 3.0977261066436768
42.069828033447266 16.24533462524414 3.096391439437866
42.0321159362793 15.935200691223145 3.092780351638794
41.81601333618164 15.56057357788086 3.0914700031280518
41.728397369384766 15.237222671508789 3.0885093212127686
41.662872314453125 14.924304962158203 3.0852599143981934
41.48942947387695 14.575640678405762 3.0834357738494873
41.379459381103516 14.252466201782227 3.0807816982269287
41.29551315307617 13.940787315368652 3.0777840614318848
41.211212158203125 13.631304740905762 3.0747902393341064
41.02003479003906 13.289480209350586 3.0732548236846924
40.96919250488281 12.995870590209961 3.0698115825653076
40.880958557128906 12.692416191101074 3.066878080368042
40.66905212402344 12.353622436523438 3.0656704902648926
40.6126823425293 12.064896583557129 3.0623035430908203
40.51590347290039 11.766172409057617 3.0595014095306396
40.41121292114258 11.467453002929688 3.0568137168884277
40.31403350830078 11.173133850097656 3.054022789001465
40.21283721923828 10.87991714477539 3.051290512084961
40.45760726928711 10.680252075195312 3.0435216426849365
40.86894607543945 10.52112102508545 3.0332391262054443
41.336097717285156 10.37145709991455 3.0220255851745605
41.787391662597656 10.212656021118164 3.010930061340332
42.23146057128906 10.047082901000977 2.999826192855835
42.69259262084961 9.880500793457031 2.9883482456207275
43.197147369384766 9.718512535095215 2.976091146469116
43.67786407470703 9.545578002929688 2.96406888961792
44.16588592529297 9.368767738342285 2.9518067836761475
44.6847038269043 9.192771911621094 2.9389376640319824
44.883338928222656 8.947030067443848 2.930938959121704
44.91471481323242 8.6671724319458 2.925506591796875
44.9620361328125 8.390568733215332 2.919790506362915
44.84528732299805 8.084436416625977 2.9166600704193115
45.00033950805664 7.827695369720459 2.9091603755950928
45.038543701171875 7.550011157989502 2.9034926891326904
45.07405090332031 7.271994113922119 2.8978347778320312
45.093021392822266 6.991526126861572 2.8924148082733154
45.112220764160156 6.711392879486084 2.8869612216949463
45.146514892578125 6.433685302734375 2.8812255859375
45.178104400634766 6.155674457550049 2.8755006790161133
45.20500564575195 5.877130508422852 2.8698208332061768
45.23316955566406 5.598855972290039 2.8640851974487305
45.25266647338867 5.319639682769775 2.858464479446411
45.29230499267578 5.0428290367126465 2.852463483810425
45.3143310546875 4.764059066772461 2.8467307090759277
45.34758377075195 4.486486911773682 2.840768814086914
45.37315368652344 4.208132266998291 2.8349034786224365
45.39901351928711 3.929804563522339 2.82899808883667
45.34343338012695 3.6449058055877686 2.8245089054107666
45.43563461303711 3.3719406127929688 2.8173491954803467
12.560857772827148 0.8538557887077332 3.4058356285095215
12.562840461730957 0.7766014933586121 3.4042577743530273
45.52861785888672 2.5374302864074707 2.7989158630371094
45.562198638916016 2.259035110473633 2.7926454544067383
45.59007263183594 1.980149745941162 2.786440372467041
19.505979537963867 0.7266645431518555 3.268233060836792
19.244203567504883 0.5987072587013245 3.270695924758911
13.021541595458984 0.32477444410324097 3.3861305713653564
12.994272232055664 0.2443416714668274 3.3849868774414062
45.716796875 0.5822327136993408 2.7550525665283203
12.576324462890625 0.08212042599916458 3.3897156715393066
12.610557556152344 0.004987999796867371 3.38741397857666
12.263396263122559 -0.07041259855031967 3.3925650119781494
12.310693740844727 -0.1462043970823288 3.3900182247161865
12.315536499023438 -0.22182723879814148 3.388291597366333
12.173985481262207 -0.2940056622028351 3.3894801139831543
12.040013313293457 -0.3646974265575409 3.3905439376831055
11.866669654846191 -0.4323413074016571 3.3924310207366943
11.953669548034668 -0.5089458227157593 3.3890459537506104
13.566045761108398 -0.6608229875564575 3.354314088821411
13.152405738830566 -0.7216114401817322 3.3609976768493652
12.832354545593262 -0.7830662727355957 3.3658366203308105
46.07027816772461 -3.0919189453125 2.667935609817505
12.771864891052246 -0.9367883205413818 3.363527536392212
46.137264251708984 -3.665522336959839 2.653562068939209
12.89283275604248 -1.1048341989517212 3.3573286533355713
13.291980743408203 -1.2211837768554688 3.3469011783599854
11.811600685119629 -1.158426284790039 3.377044200897217
12.095598220825195 -1.261210560798645 3.369143486022949
12.456275939941406 -1.3760769367218018 3.3594655990600586
11.77131462097168 -1.373619556427002 3.3727688789367676
12.808523178100586 -1.5742473602294922 3.34796404838562
13.54025936126709 -1.7484952211380005 3.329676866531372
13.525280952453613 -1.8309866189956665 3.327986717224121
12.775306701660156 -1.809403419494629 3.3429617881774902
12.78766918182373 -1.8912454843521118 3.3407390117645264
13.560332298278809 -2.0905299186706543 3.3210179805755615
13.54919147491455 -2.173990488052368 3.3191871643066406
13.524715423583984 -2.2552571296691895 3.317655563354492
13.599249839782715 -2.3535146713256836 3.313793897628784
13.215505599975586 -2.37073016166687 3.32071590423584
13.606629371643066 -2.5271127223968506 3.3093228340148926
12.999794006347656 -2.4970595836639404 3.32167387008667
29.60366439819336 -5.873348712921143 2.919527292251587
33.739234924316406 -6.909067630767822 2.814417839050293
33.72252655029297 -7.121480464935303 2.8093180656433105
33.744529724121094 -7.3426618576049805 2.8032314777374268
33.76411056518555 -7.5641632080078125 2.7971551418304443
12.73814582824707 -2.936687707901001 3.31541109085083
33.77847671508789 -8.003866195678711 2.7854769229888916
33.89085006713867 -8.250406265258789 2.776912212371826
33.89186477661133 -8.471236228942871 2.7710955142974854
33.866268157958984 -8.685931205749512 2.765915870666504
33.87605285644531 -8.910295486450195 2.759786367416382
34.06098556518555 -9.182719230651855 2.7490627765655518
34.055938720703125 -9.405856132507324 2.743190288543701
34.00325393676758 -9.616219520568848 2.738523483276367
33.95503616333008 -9.827959060668945 2.733708381652832
33.93521499633789 -10.048266410827637 2.728104829788208
33.943626403808594 -10.277681350708008 2.7217001914978027
33.931392669677734 -10.501665115356445 2.7158000469207764
33.93674850463867 -10.731915473937988 2.7093734741210938
33.99477767944336 -10.98013687133789 2.7014505863189697
34.006412506103516 -11.214759826660156 2.6947314739227295
33.96717834472656 -11.433357238769531 2.6893670558929443
34.051334381103516 -11.69475269317627 2.6805124282836914
34.02034378051758 -11.917953491210938 2.674811363220215
34.026493072509766 -12.155000686645508 2.668013095855713
34.06576156616211 -12.405224800109863 2.6602089405059814
34.15009307861328 -12.673776626586914 2.651036262512207
34.34461212158203 -12.986251831054688 2.638580560684204
34.315486907958984 -13.216444969177246 2.63250470161438
34.34437942504883 -13.47012710571289 2.624676465988159
34.34360122680664 -13.713539123535156 2.6176507472991943
34.3531608581543 -13.962342262268066 2.6102538108825684
34.368343353271484 -14.214832305908203 2.6026198863983154
34.38632583618164 -14.469972610473633 2.5948288440704346
34.371219635009766 -14.712493896484375 2.5879697799682617
29.711238861083984 -12.934247970581055 2.723243474960327
34.4218635559082 -15.236632347106934 2.571573257446289
34.43335723876953 -15.495078086853027 2.563683032989502
34.43206024169922 -15.749247550964355 2.5561161041259766
34.42530822753906 -16.00229835510254 2.548649549484253
34.38872528076172 -16.242624282836914 2.542057991027832
34.387428283691406 -16.50083351135254 2.5342800617218018
34.37797164916992 -16.75657081604004 2.5266904830932617
34.363975524902344 -17.0114803314209 2.519174337387085
34.27312088012695 -17.22913932800293 2.514094829559326
34.18178176879883 -17.446781158447266 2.5089948177337646
34.10236740112305 -17.67084503173828 2.5034613609313965
34.140037536621094 -17.956941604614258 2.4939792156219482
34.29451370239258 -18.307706832885742 2.4804701805114746
34.305335998535156 -18.584863662719727 2.4716618061065674
34.250980377197266 -18.82817268371582 2.4649832248687744
30.693429946899414 -17.11876678466797 2.5785679817199707
30.211009979248047 -17.093605041503906 2.5874671936035156
34.35165023803711 -19.71546173095703 2.4353835582733154
34.306785583496094 -19.970565795898438 2.428051471710205
34.49507141113281 -20.364572525024414 2.4123992919921875
34.504844665527344 -20.656904220581055 2.402914524078369
34.446529388427734 -20.910184860229492 2.3957698345184326
34.4919548034668 -21.228487014770508 2.3848021030426025
34.416893005371094 -21.474586486816406 2.3781001567840576
34.446537017822266 -21.787885665893555 2.367488384246826
34.42314147949219 -22.069984436035156 2.358717441558838
34.5291633605957 -22.4381160736084 2.345024347305298
34.420753479003906 -22.669294357299805 2.339219808578491
34.44465255737305 -22.98931312561035 2.3283536434173584
34.63316345214844 -23.423582077026367 2.3110768795013428
34.726924896240234 -23.798871994018555 2.2972161769866943
34.690120697021484 -24.087833404541016 2.288240432739258
30.064189910888672 -21.150514602661133 2.4584250450134277
34.817325592041016 -24.814979553222656 2.262080669403076
34.80122375488281 -25.126962661743164 2.2519149780273438
34.84471130371094 -25.485109329223633 2.239246129989624
34.83290100097656 -25.806060791015625 2.2286460399627686
34.87681579589844 -26.17160987854004 2.215654134750366
34.86025619506836 -26.49512481689453 2.204972505569458
34.88221740722656 -26.851119995117188 2.192570686340332
34.89795684814453 -27.205915451049805 2.1802690029144287
34.89103317260742 -27.546428680419922 2.1687610149383545
34.83830642700195 -27.853553771972656 2.159045696258545
34.692230224609375 -28.087486267089844 2.1531946659088135
34.75791549682617 -28.49555778503418 2.1381845474243164
34.81989288330078 -28.905485153198242 2.1231305599212646
34.60653305053711 -29.08894920349121 2.1199052333831787
34.80780029296875 -29.624557495117188 2.098393440246582
34.808441162109375 -29.995399475097656 2.0854811668395996
34.93687438964844 -30.481679916381836 2.0666685104370117
34.920562744140625 -30.8469295501709 2.0541231632232666
34.757293701171875 -31.08453941345215 2.0481090545654297
34.941368103027344 -31.63724708557129 2.026064872741699
34.953453063964844 -32.040748596191406 2.0116639137268066
34.86445617675781 -32.35517120361328 2.0017871856689453
34.948455810546875 -32.83461380004883 1.9836212396621704
36.97502517700195 28.84208106994629 3.042078733444214
37.167823791503906 28.627532958984375 3.0372071266174316
32.56904220581055 24.143558502197266 3.106049060821533
32.1936149597168 23.560626983642578 3.110468864440918
32.28561019897461 23.32521629333496 3.107292413711548
32.4361686706543 23.132532119750977 3.1031248569488525
32.365638732910156 22.784034729003906 3.102539539337158
32.37828063964844 22.497190475463867 3.100569248199463
32.49500274658203 22.28400993347168 3.0968565940856934
32.45547866821289 21.965435028076172 3.0956921577453613
32.48810958862305 21.698169708251953 3.0933103561401367
32.482784271240234 21.407672882080078 3.0915327072143555
32.503623962402344 21.136594772338867 3.089293956756592
32.63261032104492 20.93680763244629 3.085214138031006
32.58970642089844 20.62820053100586 3.0839903354644775
32.695213317871094 20.415185928344727 3.080240249633789
32.65631103515625 20.113548278808594 3.0789027214050293
32.47394561767578 19.727497100830078 3.079989433288574
32.60543441772461 19.53459930419922 3.0757124423980713
32.665191650390625 19.299121856689453 3.0726263523101807
32.73970031738281 19.073209762573242 3.0692553520202637
32.426849365234375 18.625476837158203 3.0725457668304443
32.61264419555664 18.46710205078125 3.0672035217285156
32.61611557006836 18.20577621459961 3.0649900436401367
32.72623825073242 18.004873275756836 3.0608882904052734
32.87995147705078 17.827611923217773 3.0559847354888916
33.2884635925293 17.785799026489258 3.046549081802368
44.64726257324219 23.504587173461914 2.8434011936187744
44.4736442565918 23.065906524658203 2.8433802127838135
44.380035400390625 22.673006057739258 2.8419268131256104
44.18503952026367 22.232690811157227 2.8422703742980957
44.066959381103516 21.835582733154297 2.8412303924560547
43.88636779785156 21.41182518005371 2.841304063796997
43.759033203125 21.018386840820312 2.840409994125366
43.61858367919922 20.622617721557617 2.8397419452667236
43.511199951171875 20.246240615844727 2.8384623527526855
43.36812210083008 19.856975555419922 2.837822675704956
43.298492431640625 19.504730224609375 2.835822820663452
43.15945053100586 19.1245174407959 2.835087776184082
43.031131744384766 18.75274085998535 2.834144353866577
42.83922576904297 18.357263565063477 2.8343780040740967
42.7473030090332 18.008333206176758 2.8327410221099854
42.5843620300293 17.632915496826172 2.832423210144043
42.48881149291992 17.288820266723633 2.8308298587799072
42.358158111572266 16.93357276916504 2.829888105392456
42.2945556640625 16.60799217224121 2.827662944793701
42.080230712890625 16.226627349853516 2.8282999992370605
42.03768539428711 15.914727210998535 2.8256444931030273
41.820457458496094 15.539874076843262 2.82633638381958
41.747703552246094 15.222066879272461 2.82423734664917
41.63496780395508 14.892268180847168 2.82289981842041
41.537696838378906 14.570717811584473 2.821248769760132
41.405906677246094 14.239866256713867 2.8202643394470215
41.253623962402344 13.905112266540527 2.8196773529052734
41.22222137451172 13.613531112670898 2.8166942596435547
41.05562210083008 13.27977466583252 2.816376209259033
40.96083450317383 12.972124099731445 2.8146250247955322
40.854270935058594 12.663178443908691 2.8130970001220703
40.70241165161133 12.342971801757812 2.8124728202819824
40.62868881225586 12.04898738861084 2.8102641105651855
40.492401123046875 11.738834381103516 2.8093128204345703
40.42983627319336 11.452337265014648 2.806851387023926
40.31421661376953 11.15291976928711 2.8054614067077637
40.25340270996094 10.870733261108398 2.8029332160949707
40.45844268798828 10.660290718078613 2.7948808670043945
40.873512268066406 10.50199031829834 2.7823891639709473
41.31626510620117 10.346036911010742 2.76921010017395
41.78679656982422 10.191914558410645 2.7553305625915527
42.22487258911133 10.024781227111816 2.742014169692993
42.694602966308594 9.86008071899414 2.7279088497161865
43.183387756347656 9.694369316101074 2.713273048400879
43.65512466430664 9.51940631866455 2.6988725662231445
44.143924713134766 9.342742919921875 2.6839776039123535
44.660587310791016 9.166268348693848 2.6683475971221924
44.87666320800781 8.924118995666504 2.6591014862060547
44.9275016784668 8.648097038269043 2.653378486633301
44.955013275146484 8.36776065826416 2.6481213569641113
44.86171340942383 8.065997123718262 2.645481824874878
44.98902893066406 7.804324626922607 2.6379475593566895
45.02311325073242 7.526057720184326 2.6324217319488525
45.058433532714844 7.248141288757324 2.6268258094787598
45.08019256591797 6.9682416915893555 2.621490001678467
45.10712814331055 6.68937349319458 2.6159956455230713
45.13926696777344 6.411421775817871 2.6103413105010986
45.16870880126953 6.1331915855407715 2.604703903198242
45.1865119934082 5.8535566329956055 2.5992884635925293
45.227394104003906 5.576992511749268 2.5933008193969727
45.24771499633789 5.297936916351318 2.587740898132324
33.41516876220703 3.7043261528015137 2.8572630882263184
33.420265197753906 3.4975078105926514 2.8533260822296143
33.4230842590332 3.2906675338745117 2.849411964416504
45.37350845336914 4.187117576599121 2.5640177726745605
45.393226623535156 3.9082753658294678 2.5582473278045654
45.35542297363281 3.6248843669891357 2.553800582885742
45.43549728393555 3.35093355178833 2.546504497528076
45.47101593017578 3.073235034942627 2.5402188301086426
45.49785614013672 2.7947964668273926 2.534092664718628
12.588029861450195 0.6942874193191528 3.3273515701293945
45.55440139770508 2.2376792430877686 2.5216257572174072
45.59609603881836 1.9594391584396362 2.5149893760681152
19.46981430053711 0.7158997058868408 3.1531190872192383
12.030577659606934 0.3676980137825012 3.334927797317505
12.028576850891113 0.2937934398651123 3.333460569381714
12.50888729095459 0.22883765399456024 3.3199145793914795
12.556999206542969 0.15267884731292725 3.3171029090881348
12.643634796142578 0.07617934048175812 3.3132927417755127
45.77513122558594 0.00034970822161994874 2.469879388809204
12.78549575805664 -0.07980645447969437 3.3063690662384033
12.950661659240723 -0.16026228666305542 3.300440788269043
12.947397232055664 -0.23966580629348755 3.2988011837005615
12.733778953552246 -0.31389597058296204 3.302605628967285
12.586691856384277 -0.3875652253627777 3.3047194480895996
12.461165428161621 -0.46025028824806213 3.3062944412231445
12.153456687927246 -0.5236096382141113 3.312690258026123
12.958722114562988 -0.6378315687179565 3.289682149887085
12.888648986816406 -0.7136749625205994 3.2897403240203857
12.835098266601562 -0.7897239327430725 3.2893617153167725
12.835957527160645 -0.8688474893569946 3.287520170211792
12.837325096130371 -0.9480849504470825 3.2856502532958984
46.090065002441406 -3.683027744293213 2.379575729370117
13.234975814819336 -1.1408116817474365 3.271068811416626
11.941628456115723 -1.1033704280853271 3.3046791553497314
12.030099868774414 -1.1860021352767944 3.300473928451538
12.173676490783691 -1.2755846977233887 3.2946972846984863
12.673277854919434 -1.406499981880188 3.2789194583892822
33.93387222290039 -3.9734630584716797 2.6799919605255127
11.677767753601074 -1.44142484664917 3.3031814098358154
12.735335350036621 -1.6511551141738892 3.2713680267333984
12.797231674194336 -1.739060640335083 3.267630100250244
13.801681518554688 -1.9617022275924683 3.2368078231811523
12.680912017822266 -1.8820041418075562 3.2669756412506104
14.039254188537598 -2.171482563018799 3.2255537509918213
14.184511184692383 -2.283113956451416 3.219069719314575
13.340055465698242 -2.231356620788574 3.241553544998169
13.25712776184082 -2.301190137863159 3.2418298721313477
13.26731014251709 -2.3868906497955322 3.2393531799316406
13.224857330322266 -2.4631104469299316 3.238424777984619
12.840386390686035 -2.473163604736328 3.2477500438690186
12.737674713134766 -2.534536123275757 3.248687744140625
12.631760597229004 -2.594139337539673 3.2497384548187256
33.702049255371094 -7.133550643920898 2.6048810482025146
33.714168548583984 -7.352502822875977 2.5986924171447754
33.778507232666016 -7.583911418914795 2.5908381938934326
33.761409759521484 -7.797945976257324 2.5854363441467285
33.86452102661133 -8.040913581848145 2.5762381553649902
33.91055679321289 -8.271940231323242 2.568742513656616
33.89104080200195 -8.487812042236328 2.5632450580596924
33.73945236206055 -8.670178413391113 2.5618929862976074
33.874935150146484 -8.926892280578613 2.551377058029175
34.055816650390625 -9.198360443115234 2.5392980575561523
34.060264587402344 -9.424150466918945 2.5327935218811035
34.039180755615234 -9.643528938293457 2.527059555053711
34.03107833862305 -9.867179870605469 2.5208511352539062
33.99659729003906 -10.083704948425293 2.515454053878784
33.91004943847656 -10.284806251525879 2.5117321014404297
33.97697067260742 -10.533164024353027 2.502880096435547
34.06307601928711 -10.78936767578125 2.493297815322876
34.04650115966797 -11.01441764831543 2.4870755672454834
34.03414535522461 -11.241549491882324 2.480654001235962
34.01459503173828 -11.467031478881836 2.4744181632995605
34.0748405456543 -11.720648765563965 2.4653923511505127
34.07099914550781 -11.95359992980957 2.458484172821045
34.04299545288086 -12.178868293762207 2.4523487091064453
34.06139373779297 -12.421704292297363 2.4445383548736572
34.18301773071289 -12.704214096069336 2.433027982711792
34.32207489013672 -12.996112823486328 2.4207799434661865
34.309627532958984 -13.232657432556152 2.413785219192505
34.31695556640625 -13.47793960571289 2.4060144424438477
34.322566986083984 -13.723811149597168 2.3982300758361816
34.32460021972656 -13.969504356384277 2.3904976844787598
34.36644744873047 -14.23294448852539 2.3812389373779297
34.36030578613281 -14.478021621704102 2.3736424446105957
34.35979080200195 -14.72670841217041 2.3657631874084473
34.38225173950195 -14.986712455749512 2.356951951980591
34.38087463378906 -15.237829208374023 2.348940134048462
34.42782974243164 -15.512070655822754 2.3390300273895264
34.41909408569336 -15.762908935546875 2.3311212062835693
34.414005279541016 -16.016756057739258 2.3229925632476807
34.42787551879883 -16.280954360961914 2.3140552043914795
34.389339447021484 -16.521696090698242 2.307041883468628
34.36711120605469 -16.771339416503906 2.299327850341797
34.33863067626953 -17.01911163330078 2.291778564453125
34.295005798339844 -17.26042938232422 2.284748077392578
34.190086364746094 -17.471384048461914 2.280071258544922
34.081207275390625 -17.68032455444336 2.275513172149658
34.1708984375 -17.99380874633789 2.2629551887512207
34.292388916015625 -18.32742691040039 2.2489700317382812
34.36626052856445 -18.638912200927734 2.2367539405822754
34.242340087890625 -18.844552993774414 2.2324862480163574
30.67137336730957 -17.12562370300293 2.3701012134552
30.183837890625 -17.097240447998047 2.381791353225708
34.207237243652344 -19.6541690826416 2.205423355102539
34.35437774658203 -20.020103454589844 2.189528703689575
34.479373931884766 -20.377389907836914 2.1743767261505127
34.35267639160156 -20.587995529174805 2.169759750366211
34.44588851928711 -20.932214736938477 2.155672073364258
34.48851013183594 -21.248994827270508 2.143596649169922
34.434452056884766 -21.508323669433594 2.1355814933776855
34.35655212402344 -21.75389289855957 2.1285219192504883
34.52839660644531 -22.16069221496582 2.110375165939331
34.52229309082031 -22.457075119018555 2.0998988151550293
34.45459747314453 -22.715167999267578 2.0920517444610596
34.4639778137207 -23.02600860595703 2.0806474685668945
34.63385009765625 -23.44817543029785 2.061824083328247
34.7207145690918 -23.819019317626953 2.0465476512908936
34.68697738647461 -24.110254287719727 2.036625623703003
30.047733306884766 -21.16057777404785 2.2400619983673096
34.816871643066406 -24.83980941772461 2.007207155227661
34.8045539855957 -25.154754638671875 1.9958475828170776
34.81547546386719 -25.48937225341797 1.9832446575164795
34.81476974487305 -25.818517684936523 1.9710372686386108
34.86485290527344 -26.188819885253906 1.9562312364578247
34.84648132324219 -26.511091232299805 1.9445475339889526
34.860286712646484 -26.86095428466797 1.9311432838439941
34.88764572143555 -27.22488784790039 1.9168978929519653
34.8695068359375 -27.556713104248047 1.9047176837921143
34.8353385925293 -27.878719329833984 1.893179178237915
34.67353057861328 -28.100055694580078 1.8879133462905884
34.711158752441406 -28.485258102416992 1.872481107711792
34.833736419677734 -28.945411682128906 1.8524945974349976
34.828086853027344 -29.303922653198242 1.8388277292251587
34.84064483642578 -29.68159294128418 1.8240300416946411
34.80900573730469 -30.025270462036133 1.8113398551940918
34.911434173583984 -30.489294052124023 1.7914048433303833
34.91364669799805 -30.8709774017334 1.7765077352523804
34.88343811035156 -31.227840423583984 1.7631381750106812
34.93234634399414 -31.659969329833984 1.7453069686889648
34.97135925292969 -32.08846664428711 1.7277536392211914
34.95224380493164 -32.46830368041992 1.7131352424621582
34.94797134399414 -32.866214752197266 1.6974843740463257
32.3529167175293 30.097185134887695 2.8651020526885986
32.520652770996094 29.883272171020508 2.861494779586792
32.82024002075195 29.789392471313477 2.854705333709717
32.375423431396484 29.025531768798828 2.8655099868774414
32.436004638671875 28.722984313964844 2.8642749786376953
32.71234893798828 28.61167335510254 2.8578720092773438
37.05390548706055 28.597620010375977 2.753387928009033
37.31123733520508 28.432804107666016 2.7468068599700928
32.68638229370117 24.59315299987793 2.856194496154785
32.38306427001953 24.05533218383789 2.862901449203491
32.223548889160156 23.63155746459961 2.8661515712738037
32.20260238647461 23.3138370513916 2.8660619258880615
32.31645202636719 23.095510482788086 2.8627171516418457
32.30220031738281 22.787334442138672 2.862379789352417
32.40764236450195 22.56533432006836 2.8591420650482178
32.35172653198242 22.23303985595703 2.8597145080566406
32.32191467285156 21.921926498413086 2.8596229553222656
32.343528747558594 21.648170471191406 2.858259439468384
32.41305160522461 21.408031463623047 2.855705499649048
32.289031982421875 21.04285430908203 2.8577537536621094
32.40732192993164 20.83789825439453 2.8539438247680664
32.51418685913086 20.625856399536133 2.8503620624542236
32.52558898925781 20.35441780090332 2.8490347862243652
32.58423614501953 20.114076614379883 2.846527338027954
32.425106048583984 19.74224281311035 2.8492414951324463
32.27294158935547 19.379297256469727 2.851759672164917
32.23283004760742 19.087230682373047 2.851534128189087
32.384613037109375 18.909814834594727 2.8466150760650635
32.422794342041016 18.666406631469727 2.844409227371216
32.49311828613281 18.44249153137207 2.841381072998047
32.39178466796875 18.123226165771484 2.842498779296875
32.540775299072266 17.94542694091797 2.8374686241149902
32.756431579589844 17.803237915039062 2.8307571411132812
32.98391342163086 17.665687561035156 2.823699951171875
33.10040283203125 17.467689514160156 2.819312810897827
44.46168518066406 23.115537643432617 2.5379176139831543
44.33822250366211 22.707014083862305 2.5388152599334717
44.11771011352539 22.25360679626465 2.542076826095581
44.06791305541992 21.890491485595703 2.5410826206207275
43.91923904418945 21.48182487487793 2.5425026416778564
43.782527923583984 21.083187103271484 2.543592691421509
43.58567428588867 20.66006088256836 2.5461511611938477
43.50489044189453 20.295936584472656 2.5457842350006104
43.347686767578125 19.899803161621094 2.5472943782806396
43.22645568847656 19.524057388305664 2.547875165939331
43.0858039855957 19.143247604370117 2.548912525177002
42.9549446105957 18.770503997802734 2.549675464630127
42.799102783203125 18.3906192779541 2.5510406494140625
33.1970329284668 14.024197578430176 2.7917630672454834
42.58821487426758 17.684356689453125 2.5511364936828613
33.260860443115234 13.572810173034668 2.7859880924224854
33.17822265625 13.302303314208984 2.7859690189361572
33.11212921142578 13.0406494140625 2.7855031490325928
33.15782928466797 12.82430362701416 2.782144069671631
41.964942932128906 15.935270309448242 2.5533266067504883
41.832271575927734 15.592005729675293 2.5538933277130127
41.80400466918945 15.290117263793945 2.5517351627349854
41.60141372680664 14.927377700805664 2.5540611743927
41.511009216308594 14.608187675476074 2.5534563064575195
41.43338394165039 14.295886993408203 2.5524888038635254
41.26447296142578 13.954986572265625 2.5538787841796875
41.164119720458984 13.640279769897461 2.553454875946045
41.043399810791016 13.321468353271484 2.553539276123047
40.93938446044922 13.010708808898926 2.553161859512329
40.85028839111328 12.707072257995605 2.552363872528076
40.695892333984375 12.385808944702148 2.553271532058716
40.625335693359375 12.0925874710083 2.551931619644165
33.84041213989258 9.847518920898438 2.729778528213501
33.84622573852539 9.624436378479004 2.7268803119659424
33.8756217956543 9.408608436584473 2.723313570022583
33.87083435058594 9.183886528015137 2.7206292152404785
33.88873291015625 8.96596908569336 2.717298746109009
33.890716552734375 8.744431495666504 2.714362382888794
33.88349914550781 8.521257400512695 2.711642265319824
33.895206451416016 8.303494453430176 2.708371639251709
33.88510513305664 8.081039428710938 2.705662727355957
33.90665817260742 7.866701126098633 2.702052593231201
33.9200325012207 7.650862693786621 2.6986281871795654
33.92812728881836 7.434299945831299 2.6953136920928955
33.94657897949219 7.220421314239502 2.691676378250122
33.95389175415039 7.004575729370117 2.688309669494629
33.9578742980957 6.788519382476807 2.685000419616699
33.95655822753906 6.57191801071167 2.6818041801452637
33.96664047241211 6.357978820800781 2.678252696990967
33.97636032104492 6.144340515136719 2.6746740341186523
33.99162673950195 5.932024002075195 2.67090106010437
33.999656677246094 5.718756198883057 2.6672956943511963
33.997467041015625 5.504175662994385 2.6639437675476074
34.0136833190918 5.292909622192383 2.6600310802459717
34.009796142578125 5.0788469314575195 2.6566548347473145
34.02436065673828 4.867861747741699 2.652712106704712
34.0455322265625 4.6579718589782715 2.6485393047332764
34.04757308959961 4.445675373077393 2.6448814868927
34.05721664428711 4.234638690948486 2.6409642696380615
34.07051467895508 4.02423620223999 2.6369011402130127
33.566951751708984 3.7561445236206055 2.647966146469116
33.529598236083984 3.5438625812530518 2.6453723907470703
33.59036636352539 3.3420748710632324 2.639848470687866
33.649925231933594 3.139673948287964 2.634310007095337
33.6694221496582 2.9332845211029053 2.6299140453338623
33.68067932128906 2.7262089252471924 2.6257219314575195
33.6786994934082 2.5182106494903564 2.621887445449829
33.675437927246094 2.310338258743286 2.618053436279297
33.69384002685547 2.1040327548980713 2.613527297973633
33.7149658203125 1.8978122472763062 2.6088743209838867
33.70886993408203 1.6901099681854248 2.6050071716308594
33.729461669921875 1.4837827682495117 2.6002860069274902
33.72181701660156 1.276245355606079 2.5963878631591797
19.28001594543457 0.6114393472671509 3.037961006164551
33.7316780090332 0.8623656630516052 2.5876986980438232
33.751190185546875 0.6557220816612244 2.5828378200531006
33.75644302368164 0.4486984312534332 2.5783770084381104
12.83326244354248 0.09210038185119629 3.230435609817505
12.54068374633789 0.013080053962767124 3.2379872798919678
33.77957534790039 -0.17266178131103516 2.5645053386688232
33.78873825073242 -0.3799941837787628 2.5597476959228516
33.78963851928711 -0.5873246192932129 2.555208921432495
12.218294143676758 -0.2871037423610687 3.241650342941284
33.819576263427734 -1.003004550933838 2.545095920562744
12.414525032043457 -0.44416868686676025 3.231971502304077
13.023660659790039 -0.5459958910942078 3.2104876041412354
33.710121154785156 -1.6210906505584717 2.5345990657806396
12.804304122924805 -0.69425368309021 3.2140047550201416
12.793768882751465 -0.7724239230155945 3.2125258445739746
12.599263191223145 -0.838276743888855 3.2171058654785156
12.885902404785156 -0.9367899298667908 3.2057712078094482
33.90290451049805 -2.674530506134033 2.5039196014404297
13.20694637298584 -1.1231884956359863 3.191234588623047
12.363699913024902 -1.127885103225708 3.2175962924957275
12.17247486114502 -1.1857731342315674 3.2221858501434326
33.92293167114258 -3.515507698059082 2.4828803539276123
12.774840354919434 -1.4028968811035156 3.197946071624756
12.764948844909668 -1.4811190366744995 3.196302652359009
33.949275970458984 -4.151038646697998 2.4661848545074463
13.405892372131348 -1.7224535942077637 3.1701548099517822
12.773011207580566 -1.7208366394042969 3.189969062805176
33.96961212158203 -4.789569854736328 2.449221134185791
13.399442672729492 -1.972929835319519 3.1639013290405273
13.409749984741211 -2.0585765838623047 3.1613388061523438
34.0144157409668 -5.436094760894775 2.430905342102051
12.455663681030273 -2.068817138671875 3.190751552581787
12.413140296936035 -2.140089273452759 3.1901652812957764
12.506957054138184 -2.235363006591797 3.184685230255127
29.34691047668457 -5.431717872619629 2.575939178466797
34.03411865234375 -6.515527248382568 2.4011857509613037
33.97178649902344 -6.71990966796875 2.397479772567749
33.79660415649414 -6.900980472564697 2.3978633880615234
33.6312370300293 -7.082422733306885 2.397890329360962
33.83994674682617 -7.343482971191406 2.3841140270233154
33.822383880615234 -7.55724573135376 2.3785932064056396
33.885284423828125 -7.789877891540527 2.370021104812622
33.91547393798828 -8.016210556030273 2.3625893592834473
33.9587287902832 -8.246744155883789 2.3545942306518555
33.94224166870117 -8.463603019714355 2.348780632019043
34.011505126953125 -8.702866554260254 2.3396482467651367
34.047203063964844 -8.93492603302002 2.3317089080810547
34.08133316040039 -9.167753219604492 2.323751449584961
34.08594512939453 -9.393632888793945 2.3168532848358154
34.086177825927734 -9.619101524353027 2.3100578784942627
34.083003997802734 -9.84437370300293 2.3033275604248047
34.082176208496094 -10.071100234985352 2.296437978744507
34.07219696044922 -10.295875549316406 2.2898409366607666
34.05691909790039 -10.51972770690918 2.2833874225616455
34.0706672668457 -10.753405570983887 2.2757129669189453
34.13323211669922 -11.003898620605469 2.266005754470825
34.1531867980957 -11.242128372192383 2.2579145431518555
34.138343811035156 -11.469876289367676 2.2511489391326904
34.1456184387207 -11.705967903137207 2.2434141635894775
34.13713073730469 -11.937633514404297 2.236245632171631
34.11955261230469 -12.166950225830078 2.2293779850006104
34.096683502197266 -12.395134925842285 2.222658157348633
34.21284484863281 -12.675570487976074 2.2100868225097656
34.33151626586914 -12.959660530090332 2.197277784347534
34.33979034423828 -13.204081535339355 2.188973903656006
34.33983612060547 -13.446540832519531 2.1809306144714355
34.35211944580078 -13.695049285888672 2.172283172607422
34.35801315307617 -13.942334175109863 2.1638169288635254
34.36492919921875 -14.191350936889648 2.1552159786224365
34.37099838256836 -14.441362380981445 2.1465609073638916
34.38172149658203 -14.694732666015625 2.1376099586486816
34.37137985229492 -14.940410614013672 2.1294846534729004
34.44521713256836 -15.224488258361816 2.1175692081451416
34.44850158691406 -15.479314804077148 2.1086435317993164
34.413597106933594 -15.718148231506348 2.101320743560791
34.435054779052734 -15.984060287475586 2.091395854949951
34.43465805053711 -16.241451263427734 2.0823450088500977
34.398155212402344 -16.483028411865234 2.074831008911133
34.38154220581055 -16.73526382446289 2.066328525543213
34.412384033203125 -17.012269973754883 2.055556535720825
34.33485412597656 -17.236936569213867 2.0496602058410645
34.2220344543457 -17.444047927856445 2.0453391075134277
34.12482452392578 -17.659154891967773 2.0402438640594482
34.25624465942383 -17.994529724121094 2.0243589878082275
34.1529426574707 -18.208553314208984 2.0193779468536377
34.294349670410156 -18.555116653442383 2.0027105808258057
34.22258377075195 -18.788694381713867 1.9960412979125977
34.27405548095703 -19.091617584228516 1.9833674430847168
34.3526611328125 -19.41259002685547 1.9692292213439941
34.40434646606445 -19.721328735351562 1.956234335899353
34.31877899169922 -19.953088760375977 1.9498157501220703
34.39690017700195 -20.2819766998291 1.9352467060089111
34.33592987060547 -20.53104591369629 1.9274096488952637
34.16896438598633 -20.71693229675293 1.9247808456420898
34.50147247314453 -21.209203720092773 1.896994948387146
34.45188903808594 -21.471168518066406 1.888210415840149
34.32014465332031 -21.682626724243164 1.8835084438323975
34.53794479370117 -22.11795997619629 1.8608201742172241
34.4214973449707 -22.342456817626953 1.855107069015503
34.53144836425781 -22.716257095336914 1.8375561237335205
34.45854949951172 -22.972536087036133 1.8293533325195312
34.623870849609375 -23.39096450805664 1.8084981441497803
34.716094970703125 -23.764877319335938 1.7912505865097046
34.768898010253906 -24.11574363708496 1.775884747505188
30.05416488647461 -21.119882583618164 2.0167243480682373
34.83372116088867 -24.799467086791992 1.7467633485794067
34.82329559326172 -25.11552619934082 1.734254002571106
34.842567443847656 -25.455961227416992 1.7199522256851196
34.839683532714844 -25.783313751220703 1.7066867351531982
34.86366653442383 -26.13375473022461 1.6917524337768555
34.882266998291016 -26.483646392822266 1.6769201755523682
34.86064910888672 -26.806121826171875 1.6641616821289062
34.90180206298828 -27.180274963378906 1.6476621627807617
34.892601013183594 -27.518815994262695 1.6338226795196533
34.90006637573242 -27.873849868774414 1.6188347339630127
34.74757385253906 -28.10310935974121 1.6129404306411743
34.70951461791992 -28.426490783691406 1.600271463394165
34.908695220947266 -28.949424743652344 1.5734314918518066
34.86635971069336 -29.27735710144043 1.5605618953704834
34.92176055908203 -29.691272735595703 1.541661262512207
34.88556671142578 -30.031360626220703 1.5280159711837769
34.927833557128906 -30.443008422851562 1.5094083547592163
34.88096237182617 -30.780946731567383 1.4959924221038818
34.933311462402344 -31.21063232421875 1.4762592315673828
34.9727897644043 -31.63407325744629 1.4570368528366089
35.00985336303711 -32.06051254272461 1.437680721282959
34.97339630126953 -32.424072265625 1.4226830005645752
35.00079345703125 -32.85128402709961 1.403396725654602
32.34473419189453 30.091541290283203 2.579958915710449
32.47853469848633 29.84656524658203 2.577594757080078
32.50765609741211 29.5076847076416 2.5785555839538574
32.45643997192383 29.100168228149414 2.582035779953003
32.42390441894531 28.714282989501953 2.584821939468384
32.577491760253906 28.495758056640625 2.581514835357666
32.58134460449219 28.148334503173828 2.582967519760132
32.60193634033203 27.818809509277344 2.5838022232055664
32.61361312866211 27.484941482543945 2.5848467350006104
32.61166000366211 27.143028259277344 2.586251735687256
32.64536666870117 26.833919525146484 2.586437940597534
32.62372970581055 26.48257827758789 2.5883238315582275
32.64816665649414 26.17190933227539 2.5886614322662354
32.682559967041016 25.87186622619629 2.588608980178833
32.688514709472656 25.552072525024414 2.5893959999084473
32.707611083984375 25.24540138244629 2.589693069458008
32.681243896484375 24.906740188598633 2.5913710594177246
32.70867919921875 24.612030029296875 2.591266632080078
32.29317855834961 23.990631103515625 2.605194330215454
32.16312026977539 23.58930015563965 2.609959602355957
32.23421859741211 23.33879280090332 2.608259916305542
32.31159591674805 23.094120025634766 2.606299638748169
32.28834533691406 22.779644012451172 2.6074750423431396
32.33382797241211 22.51602554321289 2.606405735015869
32.41189956665039 22.276493072509766 2.6042416095733643
32.42951202392578 21.997005462646484 2.6039371490478516
32.402557373046875 21.689781188964844 2.604987144470215
32.28547286987305 21.32586669921875 2.608837127685547
32.286590576171875 21.04336166381836 2.6088790893554688
32.42251205444336 20.84977912902832 2.6045873165130615
32.533634185791016 20.640321731567383 2.6010241508483887
32.56884765625 20.383621215820312 2.599813938140869
32.334197998046875 19.96184730529785 2.607109546661377
32.36711883544922 19.70905303955078 2.605861186981201
32.39387893676758 19.454036712646484 2.6047537326812744
32.42732620239258 19.204530715942383 2.603379964828491
32.34413528442383 18.8882999420166 2.605656862258911
32.46186828613281 18.691036224365234 2.60149884223938
32.51927947998047 18.4594783782959 2.5992023944854736
32.66405487060547 18.277711868286133 2.5940728187561035
32.700157165527344 18.035480499267578 2.592346429824829
32.8153190612793 17.837413787841797 2.5880496501922607
32.982147216796875 17.666933059692383 2.5820510387420654
33.04380416870117 17.440017700195312 2.579348087310791
33.05248260498047 17.186264038085938 2.5782837867736816
33.0512809753418 16.92896270751953 2.577483892440796
33.06156539916992 16.679075241088867 2.5762672424316406
33.08076858520508 16.435035705566406 2.574716329574585
33.099124908447266 16.19182777404785 2.5731422901153564
33.109439849853516 15.945980072021484 2.5717763900756836
33.11798858642578 15.700613975524902 2.5704188346862793
33.12568283081055 15.456167221069336 2.5690393447875977
33.13162612915039 15.212218284606934 2.567668914794922
33.152225494384766 14.976184844970703 2.5657782554626465
33.15656280517578 14.733976364135742 2.564364433288574
33.173831939697266 14.498685836791992 2.562486410140991
33.19130325317383 14.264527320861816 2.560553789138794
33.189659118652344 14.023307800292969 2.559191942214966
33.19553756713867 13.786478996276855 2.5575406551361084
33.20901870727539 13.55388355255127 2.5555975437164307
33.219966888427734 13.321270942687988 2.5536892414093018
33.09539794921875 13.03628158569336 2.5561442375183105
33.13825225830078 12.818957328796387 2.5531108379364014
33.596435546875 12.759881973266602 2.536471366882324
33.6711311340332 12.552505493164062 2.5322766304016113
33.7276496887207 12.33851146697998 2.5286247730255127
33.75176239013672 12.113154411315918 2.5259850025177
33.76778793334961 11.885641098022461 2.5235633850097656
33.74260711669922 11.644691467285156 2.522451877593994
33.75835037231445 11.418912887573242 2.519949197769165
33.78018569946289 11.195893287658691 2.5171985626220703
33.78725051879883 10.968714714050293 2.514890193939209
33.796607971191406 10.743083000183105 2.512460708618164
33.80638122558594 10.518341064453125 2.509971857070923
33.80128479003906 10.289810180664062 2.5079336166381836
33.80998611450195 10.066298484802246 2.5053913593292236
33.83256912231445 9.847537994384766 2.5023391246795654
33.86144256591797 9.63106632232666 2.499030351638794
33.861961364746094 9.407118797302246 2.4966254234313965
33.857147216796875 9.182480812072754 2.4943559169769287
33.8663215637207 8.962347984313965 2.4915716648101807
33.88084411621094 8.744194030761719 2.4885621070861816
33.90559005737305 8.529126167297363 2.4851601123809814
33.8940315246582 8.305519104003906 2.482942581176758
33.910179138183594 8.08933162689209 2.479741096496582
33.91812515258789 7.871676921844482 2.4767725467681885
33.911033630371094 7.651148796081543 2.4742727279663086
33.932777404785156 7.4376373291015625 2.4707424640655518
33.952205657958984 7.223938465118408 2.467245101928711
33.96049499511719 7.0082597732543945 2.464083433151245
33.95663833618164 6.790595531463623 2.4612956047058105
33.961204528808594 6.575141429901123 2.4581732749938965
33.96047592163086 6.359149932861328 2.4551897048950195
33.97903060913086 6.147151470184326 2.451491355895996
33.99921417236328 5.935678958892822 2.447687864303589
34.010196685791016 5.722862720489502 2.444159507751465
34.030704498291016 5.511892318725586 2.440249443054199
34.032127380371094 5.298117160797119 2.4369618892669678
34.021331787109375 5.082906723022461 2.4340600967407227
34.028968811035156 4.8708600997924805 2.430464744567871
34.04122543334961 4.659723281860352 2.4266581535339355
34.059104919433594 4.449525356292725 2.422605037689209
34.06180191040039 4.237554550170898 2.419044256210327
34.07311248779297 4.026890754699707 2.4151289463043213
33.587528228759766 3.7607507705688477 2.4289798736572266
33.523353576660156 3.545501470565796 2.4277350902557373
33.58807373046875 3.3441529273986816 2.4218101501464844
33.64064025878906 3.141120433807373 2.4162659645080566
33.659122467041016 2.9347028732299805 2.4119009971618652
33.674346923828125 2.7280144691467285 2.4076039791107178
33.68231964111328 2.520801544189453 2.4035227298736572
33.68602752685547 2.313386917114258 2.3995492458343506
33.69643783569336 2.1065194606781006 2.395282030105591
12.604379653930664 0.7101085782051086 3.1686325073242188
33.71343994140625 1.6926681995391846 2.3867392539978027
12.639986038208008 0.5566545724868774 3.164316415786743
33.71537780761719 1.278334140777588 2.3785593509674072
19.317733764648438 0.6136212348937988 2.911940574645996
33.74119567871094 0.864946722984314 2.3692924976348877
33.75170135498047 0.6580726504325867 2.364671468734741
33.76393508911133 0.45114123821258545 2.3599343299865723
12.897385597229004 0.09294688701629639 3.1451327800750732
12.893657684326172 0.01382557861506939 3.1436023712158203
33.78002166748047 -0.17031387984752655 2.3461904525756836
33.79016876220703 -0.37765738368034363 2.3413236141204834
33.794044494628906 -0.5850462317466736 2.336643934249878
33.80464172363281 -0.7926852107048035 2.331653594970703
12.45223617553711 -0.3686993420124054 3.152012348175049
33.8289909362793 -1.208663821220398 2.3213868141174316
12.553484916687012 -0.5259089469909668 3.1446001529693604
11.682622909545898 -0.5612664222717285 3.1768345832824707
13.366140365600586 -0.7242951393127441 3.1091649532318115
12.836739540100098 -0.7746297717094421 3.1280577182769775
12.818724632263184 -0.8524966239929199 3.126889228820801
33.879188537597656 -2.4612481594085693 2.290144920349121
33.88718795776367 -2.6709063053131104 2.284754753112793
13.15910530090332 -1.1186957359313965 3.107536554336548
12.252381324768066 -1.1173893213272095 3.141878366470337
12.229324340820312 -1.1909773349761963 3.140911817550659
12.135261535644531 -1.2570183277130127 3.14280104637146
12.76391887664795 -1.401309847831726 3.1153831481933594
33.95250701904297 -3.937779426574707 2.2504794597625732
13.462713241577148 -1.6454113721847534 3.082714557647705
13.477076530456543 -1.731144666671753 3.0799286365509033
13.418604850769043 -1.8073822259902954 3.080116033554077
33.97457504272461 -4.787853240966797 2.227288007736206
11.794892311096191 -1.7363296747207642 3.143080711364746
11.778033256530762 -1.8077396154403687 3.1417758464813232
34.013370513916016 -5.433499336242676 2.208308696746826
34.01470184326172 -5.647931098937988 2.2023370265960693
34.00876998901367 -5.86156702041626 2.196608066558838
13.535701751708984 -2.4187963008880615 3.0589821338653564
13.538222312927246 -2.505052328109741 3.0564444065093994
34.028053283691406 -6.511922359466553 2.1774635314941406
33.93925476074219 -6.711036682128906 2.1750376224517822
33.8747444152832 -6.91450309753418 2.17153000831604
33.82857131958008 -7.121547698974609 2.1671853065490723
33.848506927490234 -7.342901706695557 2.1599128246307373
33.80848693847656 -7.551701545715332 2.155184507369995
33.848968505859375 -7.779084205627441 2.1468682289123535
33.894737243652344 -8.008854866027832 2.138232946395874
33.97584533691406 -8.248437881469727 2.127943277359009
34.044620513916016 -8.486658096313477 2.118098735809326
34.0372200012207 -8.706969261169434 2.111558198928833
34.067047119140625 -8.937650680541992 2.103276014328003
34.08856201171875 -9.167207717895508 2.095280885696411
34.09794616699219 -9.394448280334473 2.087751865386963
34.079864501953125 -9.614826202392578 2.081392526626587
34.07571029663086 -9.83976936340332 2.074326276779175
34.084449768066406 -10.069270133972168 2.066592216491699
34.096435546875 -10.300692558288574 2.0586230754852295
34.07154083251953 -10.521736145019531 2.0522806644439697
34.13286209106445 -10.77051830291748 2.0418472290039062
34.12965393066406 -11.000222206115723 2.034327983856201
34.15432357788086 -11.239974021911621 2.025413751602173
34.146080017089844 -11.469944953918457 2.0179600715637207
34.13912582397461 -11.70120906829834 2.0103633403778076
34.1551399230957 -11.941391944885254 2.0015857219696045
34.11302947998047 -12.162084579467773 1.9955030679702759
34.11925506591797 -12.400795936584473 1.9870189428329468
34.26247024536133 -12.691393852233887 1.9717981815338135
