# .PCD v0.7 - Point Cloud Data file format
VERSION 0.7
FIELDS x y z
SIZE 4 4 4
TYPE F F F
COUNT 1 1 1
WIDTH 854
HEIGHT 1
VIEWPOINT 0 0 0 1 0 0 0
POINTS 854
DATA ascii
33.23109817504883 13.325735092163086 2.5533270835876465
33.10283660888672 13.039213180541992 2.5559020042419434
33.14384841918945 12.821121215820312 2.5529282093048096
33.542240142822266 12.739297866821289 2.538240671157837
33.690799713134766 12.55983829498291 2.5316338539123535
33.74736022949219 12.345723152160645 2.5279788970947266
33.74235534667969 12.109777450561523 2.5262932777404785
33.747047424316406 11.878340721130371 2.524245023727417
33.76339340209961 11.651865005493164 2.5217676162719727
33.78864669799805 11.429161071777344 2.518949508666992
33.76974868774414 11.192435264587402 2.517543077468872
33.801509857177734 10.973343849182129 2.514418601989746
33.782318115234375 10.738540649414062 2.512934684753418
33.796836853027344 10.515371322631836 2.510289430618286
33.80989074707031 10.29242992401123 2.5076470375061035
33.80519485473633 10.064872741699219 2.5055510997772217
33.828731536865234 9.846420288085938 2.502467632293701
33.84990310668945 9.627784729003906 2.499417543411255
33.85714340209961 9.405780792236328 2.4967875480651855
33.85425567626953 9.181694984436035 2.494452953338623
33.85859298706055 8.960301399230957 2.4918320178985596
33.87890625 8.743695259094238 2.4886276721954346
33.89396286010742 8.526199340820312 2.4855542182922363
33.90665054321289 8.308610916137695 2.4825143814086914
33.914066314697266 8.090258598327637 2.4796087741851807
33.90741729736328 7.8691911697387695 2.477137327194214
33.911033630371094 7.651148796081543 2.4742727279663086
33.92496871948242 7.435925006866455 2.471010446548462
33.94145202636719 7.22165060043335 2.4676146507263184
33.956581115722656 7.007452011108398 2.4642179012298584
33.964481353759766 6.792163848876953 2.461024522781372
33.97396469116211 6.577611446380615 2.4577322006225586
33.97029495239258 6.360990047454834 2.4548490047454834
33.989845275878906 6.149108409881592 2.4511144161224365
33.99822998046875 5.935507297515869 2.4477226734161377
34.006256103515625 5.722199440002441 2.4442968368530273
34.023799896240234 5.510773181915283 2.4404919147491455
34.01435089111328 5.295349597930908 2.437587022781372
34.018367767333984 5.08246374130249 2.4341652393341064
34.032928466796875 4.871426582336426 2.4303243160247803
34.04023361206055 4.65958833694458 2.42669415473938
34.05414962768555 4.448878288269043 2.4227805137634277
34.07668685913086 4.239405632019043 2.418513298034668
34.09097671508789 4.0290021896362305 2.414489984512329
33.56369400024414 3.7580814361572266 2.4298346042633057
33.52534103393555 3.5457119941711426 2.427663803100586
33.58608627319336 3.3439550399780273 2.421882152557373
33.64064025878906 3.141120433807373 2.4162659645080566
33.67107009887695 2.935744524002075 2.4114673137664795
33.66737365722656 2.727449655532837 2.407857894897461
33.67932891845703 2.520577907562256 2.4036314487457275
33.68901824951172 2.3135921955108643 2.3994390964508057
33.6834716796875 2.1057088375091553 2.3957574367523193
12.607373237609863 0.7102773189544678 3.1685221195220947
33.71244430541992 1.6926181316375732 2.3867764472961426
33.71405029296875 1.4854356050491333 2.3826868534088135
33.728363037109375 1.2788265943527222 2.3780767917633057
19.304750442504883 0.6132086515426636 2.9124257564544678
33.72920608520508 0.8646392226219177 2.369741439819336
33.766685485839844 0.65836501121521 2.3641085624694824
33.76493453979492 0.4511546492576599 2.359896183013916
12.899383544921875 0.0929613709449768 3.14505672454834
12.883666038513184 0.013814537785947323 3.143981695175171
33.791011810302734 -0.17036916315555573 2.3457717895507812
12.711881637573242 -0.14233754575252533 3.1471517086029053
33.7950439453125 -0.5850635170936584 2.336606025695801
33.809635162353516 -0.7928022742271423 2.331461191177368
12.46322250366211 -0.3690243065357208 3.151587963104248
33.81301498413086 -1.2080930471420288 2.3220064640045166
12.555481910705566 -0.5259925127029419 3.1445224285125732
11.695598602294922 -0.5618893504142761 3.176327705383301
13.342193603515625 -0.7229982614517212 3.1101036071777344
12.828761100769043 -0.7741485834121704 3.1283719539642334
12.81274127960205 -0.8520990610122681 3.1271255016326904
33.879188537597656 -2.4612481594085693 2.290144920349121
33.886192321777344 -2.670827865600586 2.2847940921783447
13.171052932739258 -1.119710922241211 3.1070597171783447
12.253376960754395 -1.117479920387268 3.141838550567627
12.229324340820312 -1.1909773349761963 3.140911817550659
12.135261535644531 -1.2570183277130127 3.14280104637146
12.767892837524414 -1.4017460346221924 3.1152219772338867
33.94059753417969 -3.936398506164551 2.250964641571045
13.463705062866211 -1.6455323696136475 3.082674026489258
13.477076530456543 -1.731144666671753 3.0799286365509033
13.42652702331543 -1.8084490299224854 3.079789638519287
33.95676803588867 -4.785343647003174 2.228025197982788
11.820592880249023 -1.740112066268921 3.14201283454895
11.785934448242188 -1.8089519739151 3.141446113586426
34.02323913574219 -5.435075283050537 2.207895278930664
34.006813049316406 -5.6466217041015625 2.2026686668395996
34.015663146972656 -5.862754821777344 2.196316957473755
13.543570518493652 -2.4202020168304443 3.0586483478546143
13.532327651977539 -2.5039618015289307 3.0566954612731934
34.03688430786133 -6.513612747192383 2.1770853996276855
33.9637565612793 -6.715881824493408 2.1739847660064697
33.887474060058594 -6.917100429534912 2.1709814071655273
33.84421157836914 -7.124840259552002 2.1665070056915283
33.833858489990234 -7.339724540710449 2.160550117492676
33.80751037597656 -7.551483631134033 2.155226707458496
33.86844253540039 -7.783559322357178 2.1460134983062744
33.914180755615234 -8.013449668884277 2.137375831604004
33.982643127441406 -8.25008773803711 2.1276421546936035
34.032020568847656 -8.483516693115234 2.118659257888794
34.0372200012207 -8.706969261169434 2.111558198928833
34.058345794677734 -8.935368537902832 2.1036667823791504
34.0827751159668 -9.165651321411133 2.0955424308776855
34.08927917480469 -9.392061233520508 2.0881447792053223
34.07698059082031 -9.614012718200684 2.081524610519409
34.07475280761719 -9.839491844177246 2.0743706226348877
34.091156005859375 -10.071250915527344 2.0662832260131836
34.096435546875 -10.300692558288574 2.0586230754852295
34.08013153076172 -10.524389266967773 2.051882028579712
34.15286636352539 -10.776830673217773 2.04091477394104
34.12965393066406 -11.000222206115723 2.034327983856201
34.15052795410156 -11.238724708557129 2.025592088699341
34.148921966552734 -11.470898628234863 2.0178256034851074
34.13912582397461 -11.70120906829834 2.0103633403778076
34.15702819824219 -11.94205093383789 2.001495838165283
34.13185119628906 -12.168793678283691 1.9945992231369019
34.10892868041992 -12.397042274475098 1.9875165224075317
34.28026580810547 -12.697986602783203 1.9709354639053345
34.324886322021484 -12.954586029052734 1.9603537321090698
34.32754135131836 -13.196796417236328 1.9517124891281128
34.3387451171875 -13.443532943725586 1.9425532817840576
34.34449768066406 -13.689423561096191 1.9335622787475586
34.360557556152344 -13.940773963928223 1.9239588975906372
34.374813079833984 -14.192834854125977 1.9143372774124146
34.37160873413086 -14.439017295837402 1.9054852724075317
34.356571197509766 -14.681377410888672 1.897131085395813
29.641876220703125 -12.882412910461426 2.127411365509033
29.554790496826172 -13.060766220092773 2.12381911277771
34.428890228271484 -15.467874526977539 1.8654615879058838
34.42581558227539 -15.721096992492676 1.8560675382614136
34.44538116455078 -15.98621654510498 1.8453903198242188
34.43859100341797 -16.24066162109375 1.8359647989273071
34.456092834472656 -16.50814437866211 1.825156331062317
34.46711730957031 -16.774263381958008 1.8145641088485718
34.44392395019531 -17.025205612182617 1.8056633472442627
34.38770294189453 -17.26081085205078 1.7984206676483154
34.27470397949219 -17.468246459960938 1.7941362857818604
34.17730712890625 -17.68366813659668 1.7889575958251953
34.34296798706055 -18.03742218017578 1.7694389820098877
34.41124725341797 -18.343595504760742 1.7550064325332642
34.29167938232422 -18.551002502441406 1.7507154941558838
34.31446075439453 -18.83646011352539 1.7385101318359375
34.37690353393555 -19.14621925354004 1.7239545583724976
34.44205093383789 -19.46040153503418 1.7090736627578735
34.40324020385742 -19.717988967895508 1.6998542547225952
34.44890213012695 -20.026031494140625 1.6857448816299438
34.51530456542969 -20.34906768798828 1.6702842712402344
34.467586517333984 -20.60704231262207 1.6611632108688354
34.53158950805664 -20.93406105041504 1.64549720287323
34.46693420410156 -21.18523406982422 1.637087345123291
34.465763092041016 -21.47707176208496 1.6248716115951538
34.492698669433594 -21.78889274597168 1.610855221748352
34.525508880615234 -22.10723876953125 1.5963135957717896
34.407413482666016 -22.330564498901367 1.59054696559906
34.52151870727539 -22.706951141357422 1.5708333253860474
34.50430679321289 -23.00026512145996 1.5587619543075562
34.72727584838867 -23.45802116394043 1.5320020914077759
34.72915267944336 -23.771007537841797 1.5183591842651367
34.77034378051758 -24.113924026489258 1.502129316329956
30.031410217285156 -21.101587295532227 1.7805620431900024
34.81386947631836 -24.78249740600586 1.4714373350143433
34.81644058227539 -25.107736587524414 1.4569846391677856
34.811485290527344 -25.430404663085938 1.4428133964538574
34.84400939941406 -25.783655166625977 1.4260770082473755
34.8679084777832 -26.134065628051758 1.4096647500991821
34.86334991455078 -26.466411590576172 1.3948553800582886
34.87343978881836 -26.81307601928711 1.3788979053497314
34.87978744506836 -27.16024398803711 1.362963318824768
34.898860931396484 -27.52086067199707 1.3459738492965698
34.89452362060547 -27.866527557373047 1.3302925825119019
34.74203872680664 -28.095741271972656 1.3242372274398804
34.7727165222168 -28.475357055664062 1.3058385848999023
34.9061164855957 -28.944368362426758 1.2802543640136719
34.8759765625 -29.28251075744629 1.2654064893722534
34.88559341430664 -29.6575927734375 1.2476260662078857
34.927490234375 -30.064516067504883 1.2273650169372559
34.953643798828125 -30.462560653686523 1.207901120185852
34.88261413574219 -30.779460906982422 1.1949434280395508
34.94157028198242 -31.215059280395508 1.1726419925689697
34.99795913696289 -31.65386962890625 1.1501911878585815
34.982505798339844 -32.03249740600586 1.1325373649597168
34.980560302734375 -32.427738189697266 1.113646149635315
35.00856399536133 -32.855594635009766 1.092293381690979
35.015968322753906 -33.26918411254883 1.0721203088760376
32.38178634643555 30.48944091796875 2.3126766681671143
32.330909729003906 30.069669723510742 2.3183281421661377
32.47116470336914 29.83088493347168 2.316100835800171
32.53273391723633 29.521648406982422 2.3169729709625244
32.459991455078125 29.094696044921875 2.323167085647583
32.44087600708008 28.72077178955078 2.327078342437744
32.56135940551758 28.47319984436035 2.325270891189575
32.570343017578125 28.130496978759766 2.327848434448242
32.60221481323242 27.81081199645996 2.329409599304199
32.60081481933594 27.466039657592773 2.332200765609741
32.620243072509766 27.142154693603516 2.3340625762939453
32.62070846557617 26.80573844909668 2.3365817070007324
32.64544677734375 26.492389678955078 2.3380415439605713
32.65509796142578 26.169748306274414 2.3400075435638428
32.66750717163086 25.852331161499023 2.3417716026306152
32.6890754699707 25.54498291015625 2.3430840969085693
32.70493698120117 25.235898971557617 2.3445324897766113
32.71904373168945 24.928194046020508 2.3459625244140625
32.722625732421875 24.615259170532227 2.3477203845977783
32.66984176635742 24.26329231262207 2.351602077484131
32.25932693481445 23.65285301208496 2.369407892227173
32.42308807373047 23.46858787536621 2.3646187782287598
32.501224517822266 23.22277069091797 2.363109827041626
32.515499114990234 22.933094024658203 2.3640201091766357
32.476593017578125 22.608715057373047 2.36692476272583
32.45635223388672 22.300392150878906 2.369020462036133
32.491458892822266 22.03244400024414 2.368882894515991
32.56521224975586 21.792142868041992 2.367169141769409
32.379520416259766 21.381572723388672 2.3754618167877197
32.41697311401367 21.121984481811523 2.3750083446502686
32.473472595214844 20.876253128051758 2.373744010925293
32.605831146240234 20.679874420166016 2.3694701194763184
32.541282653808594 20.360193252563477 2.37275767326355
32.35923385620117 19.971216201782227 2.3805203437805176
32.31536102294922 19.671518325805664 2.3828585147857666
32.37871170043945 19.438966751098633 2.380979299545288
32.3810920715332 19.171239852905273 2.3813912868499756
32.35810852050781 18.890613555908203 2.382716655731201
32.49314498901367 18.703235626220703 2.377868890762329
32.6479606628418 18.526750564575195 2.3721940517425537
32.69455337524414 18.28904914855957 2.370635509490967
32.76833724975586 18.067399978637695 2.36796236038208
32.8704948425293 17.861757278442383 2.3641295433044434
32.986331939697266 17.663562774658203 2.3597054481506348
33.032920837402344 17.42870330810547 2.357891321182251
33.037960052490234 17.173194885253906 2.3576173782348633
33.062469482421875 16.929216384887695 2.3565292358398438
33.05756378173828 16.671628952026367 2.3565144538879395
33.075809478759766 16.427188873291016 2.355544090270996
33.08063507080078 16.177444458007812 2.3550310134887695
33.09714889526367 15.93476390838623 2.3540050983428955
33.11554718017578 15.69420337677002 2.352846384048462
33.12137222290039 15.448945045471191 2.3521132469177246
33.12907409667969 15.2058744430542 2.351248025894165
33.13686752319336 14.964115142822266 2.3503215312957764
33.163028717041016 14.731757164001465 2.3486242294311523
33.164703369140625 14.489639282226562 2.3478174209594727
33.17842483520508 14.253973007202148 2.346484899520874
33.18314743041992 14.015573501586914 2.345444679260254
33.193580627441406 13.780717849731445 2.3441243171691895
33.20793151855469 13.548527717590332 2.3425965309143066
33.229034423828125 13.320026397705078 2.3407483100891113
33.1016731262207 13.033921241760254 2.3446226119995117
33.1286506652832 12.810439109802246 2.3424363136291504
33.54090881347656 12.73397445678711 2.325169086456299
33.68564987182617 12.553117752075195 2.318258047103882
33.729007720947266 12.334233283996582 2.315241575241089
33.73521041870117 12.102466583251953 2.3136212825775146
33.74549102783203 11.873077392578125 2.3117854595184326
33.7598991394043 11.64597225189209 2.309731960296631
33.73965835571289 11.407933235168457 2.308983087539673
33.77184295654297 11.188495635986328 2.306122303009033
33.78834533691406 10.96446418762207 2.3038198947906494
33.798614501953125 10.739139556884766 2.301708698272705
33.79117202758789 10.509054183959961 2.3002419471740723
33.80703353881836 10.287030220031738 2.2978014945983887
33.806121826171875 10.060644149780273 2.2959697246551514
33.8248176574707 9.840797424316406 2.2933080196380615
33.8372802734375 9.619734764099121 2.2908382415771484
33.853118896484375 9.400224685668945 2.288180351257324
33.85211181640625 9.176698684692383 2.2861380577087402
33.852535247802734 8.954303741455078 2.2839853763580322
33.86892318725586 8.736742973327637 2.2811434268951416
33.88972854614258 8.520779609680176 2.2780699729919434
33.90139389038086 8.302987098693848 2.2753071784973145
33.89903259277344 8.082357406616211 2.2730531692504883
33.90205383300781 7.863650321960449 2.27053165435791
33.912445068359375 7.64718770980835 2.2676596641540527
33.93121337890625 7.43303108215332 2.2643957138061523
33.947654724121094 7.218723297119141 2.2611703872680664
33.95687484741211 7.003282070159912 2.2581839561462402
33.96375274658203 6.787802219390869 2.2552380561828613
33.96730041503906 6.5721211433410645 2.252373456954956
33.9684944152832 6.356467247009277 2.2495524883270264
33.99192810058594 6.145313262939453 2.245771646499634
34.006168365478516 5.932735443115234 2.2423088550567627
34.01218795776367 5.719052314758301 2.239129066467285
34.014892578125 5.505199432373047 2.236032009124756
34.01921081542969 5.291988372802734 2.232814311981201
34.01626968383789 5.07804536819458 2.2298426628112793
34.03770446777344 4.868015289306641 2.22581148147583
34.043975830078125 4.656015872955322 2.222351551055908
34.053890228271484 4.444768905639648 2.218686103820801
34.07339096069336 4.234930992126465 2.214566469192505
34.09160232543945 4.025019645690918 2.210442066192627
33.549495697021484 3.752495527267456 2.2297024726867676
33.52003860473633 3.5411670207977295 2.22752046585083
33.592655181884766 3.3406269550323486 2.221000909805298
33.63621139526367 3.1367287635803223 2.2156379222869873
33.65861892700195 2.930687189102173 2.2111051082611084
33.6688117980957 2.7236008644104004 2.2070305347442627
33.67075729370117 2.515977621078491 2.203251361846924
33.675411224365234 2.3087048530578613 2.1993019580841064
33.67878723144531 2.1014692783355713 2.1953518390655518
12.092788696289062 0.6793287396430969 3.115544080734253
12.083694458007812 0.6044865846633911 3.1145284175872803
33.68724822998047 1.4803229570388794 2.1832399368286133
12.673115730285645 0.47825735807418823 3.0862183570861816
19.31220054626465 0.6108466982841492 2.797323703765869
33.723209381103516 0.8605628609657288 2.1694297790527344
33.74365234375 0.653994083404541 2.1643412113189697
33.75483703613281 0.4470997750759125 2.1595942974090576
33.766746520996094 0.24010607600212097 2.154756546020508
33.77039337158203 0.03297482058405876 2.150221824645996
12.854326248168945 -0.06706792116165161 3.067040205001831
12.723737716674805 -0.14445525407791138 3.0710997581481934
33.79767608642578 -0.5890254974365234 2.1355390548706055
33.79922866821289 -0.7964747548103333 2.1308586597442627
11.512449264526367 -0.3427793085575104 3.1198995113372803
12.474486351013184 -0.4479256272315979 3.07525897026062
11.780736923217773 -0.49546167254447937 3.104619026184082
12.733341217041016 -0.6136956214904785 3.060049533843994
13.367676734924316 -0.7264253497123718 3.0295543670654297
12.844371795654297 -0.7770901322364807 3.0512964725494385
12.822347640991211 -0.8547366857528687 3.050384998321533
33.873348236083984 -2.4647607803344727 2.088430643081665
13.084617614746094 -1.0335839986801147 3.0344948768615723
12.438936233520508 -1.0594639778137207 3.0621185302734375
12.279927253723145 -1.1218563318252563 3.0674993991851807
12.382110595703125 -1.2078191041946411 3.060833215713501
12.732099533081055 -1.3208225965499878 3.0426158905029297
12.770353317260742 -1.4040244817733765 3.0387725830078125
13.399456024169922 -1.5563820600509644 3.0072920322418213
13.41535758972168 -1.6416990756988525 3.004323720932007
13.566452980041504 -1.7447139024734497 2.9949631690979004
13.888041496276855 -1.8727220296859741 2.9774746894836426
11.830719947814941 -1.669451355934143 3.0725793838500977
13.816424369812012 -2.035973310470581 2.976079225540161
33.9942512512207 -5.2208051681518555 2.0104129314422607
34.000831604003906 -5.435537338256836 2.004047155380249
34.008026123046875 -5.650874614715576 1.997579574584961
34.002044677734375 -5.864469051361084 1.9916739463806152
34.02028274536133 -6.082773685455322 1.9845242500305176
34.02827835083008 -6.299887657165527 1.9777934551239014
34.046661376953125 -6.519582748413086 1.9704793691635132
33.98719787597656 -6.72462272644043 1.9669004678726196
33.89616012573242 -6.922984600067139 1.9648232460021973
33.83818054199219 -7.127688884735107 1.9610728025436401
33.841434478759766 -7.345500946044922 1.9542311429977417
33.854984283447266 -7.5662360191345215 1.9467973709106445
33.79701232910156 -7.771300792694092 1.9428585767745972
33.86512756347656 -8.0060396194458 1.9325319528579712
33.83748245239258 -8.219040870666504 1.9269273281097412
34.0343017578125 -8.48831558227539 1.9098875522613525
34.046199798583984 -8.71351432800293 1.9020867347717285
34.093326568603516 -8.948813438415527 1.8923981189727783
34.100257873535156 -9.174640655517578 1.8846676349639893
34.093177795410156 -9.397441864013672 1.877570390701294
34.07503890991211 -9.61778736114502 1.8709628582000732
34.094810485839844 -9.849630355834961 1.8623079061508179
34.090030670166016 -10.075284004211426 1.8548359870910645
34.10097122192383 -10.306450843811035 1.8464545011520386
34.10176086425781 -10.535479545593262 1.8385119438171387
34.14198303222656 -10.77783203125 1.8283940553665161
34.14058303833008 -11.008203506469727 1.8203744888305664
34.13668441772461 -11.238651275634766 1.812395691871643
34.153961181640625 -11.47710132598877 1.8031898736953735
34.16392517089844 -11.714241981506348 1.794273018836975
34.160003662109375 -11.947651863098145 1.7860052585601807
34.130043029785156 -12.17273235321045 1.7790560722351074
34.10047912597656 -12.398578643798828 1.7719995975494385
34.275455474853516 -12.70085620880127 1.753642201423645
34.31624984741211 -12.956009864807129 1.7424848079681396
34.317909240722656 -13.197807312011719 1.733368158340454
34.33183670043945 -13.445572853088379 1.7234618663787842
34.32545852661133 -13.686610221862793 1.7145769596099854
34.35997772216797 -13.945348739624023 1.7032896280288696
34.354766845703125 -14.189396858215332 1.6941156387329102
34.35429000854492 -14.436614036560059 1.684564471244812
34.36308670043945 -14.689069747924805 1.6743712425231934
29.641630172729492 -12.886693000793457 1.9350515604019165
29.558147430419922 -13.066658020019531 1.931296467781067
34.42412567138672 -15.470755577087402 1.6410605907440186
34.413700103759766 -15.720624923706055 1.631484866142273
34.439544677734375 -15.988605499267578 1.6196730136871338
34.43267822265625 -16.243009567260742 1.6096440553665161
34.452796936035156 -16.511743545532227 1.5979000329971313
34.46282958984375 -16.77739906311035 1.5866142511367798
34.46462631225586 -17.040699005126953 1.5756837129592896
34.423431396484375 -17.284046173095703 1.5672008991241455
34.342288970947266 -17.508024215698242 1.5610219240188599
34.28274917602539 -17.743593215942383 1.5534493923187256
34.241058349609375 -17.989307403564453 1.5446891784667969
34.24345397949219 -18.259607315063477 1.5331145524978638
34.38520812988281 -18.607120513916016 1.5128023624420166
34.07233428955078 -18.70907974243164 1.5204397439956665
34.529754638671875 -19.23698616027832 1.4801167249679565
34.45254135131836 -19.472009658813477 1.4728493690490723
34.50801467895508 -19.783782958984375 1.457116961479187
34.516929626464844 -20.071372985839844 1.4441423416137695
34.51586151123047 -20.355249404907227 1.4316414594650269
34.55031204223633 -20.662416458129883 1.4167028665542603
34.56179428100586 -20.95833969116211 1.4030576944351196
34.527549743652344 -21.228515625 1.3922059535980225
34.518409729003906 -21.515958786010742 1.3795726299285889
34.47663879394531 -21.784887313842773 1.3689186573028564
34.50938415527344 -22.103116989135742 1.3531992435455322
34.55792999267578 -22.43452262878418 1.3362270593643188
34.576171875 -22.749248504638672 1.3210612535476685
34.528709411621094 -23.022939682006836 1.3101166486740112
34.65209197998047 -23.41373062133789 1.2874598503112793
34.73159408569336 -23.77925682067871 1.2674968242645264
34.76360321044922 -24.115907669067383 1.2505271434783936
34.74213790893555 -24.418249130249023 1.2370190620422363
34.79389190673828 -24.775087356567383 1.218244194984436
34.79479217529297 -25.099018096923828 1.2027696371078491
34.810760498046875 -25.436843872070312 1.18602454662323
34.8391227722168 -25.787097930908203 1.1681731939315796
34.84212112426758 -26.12188148498535 1.1518828868865967
34.84947204589844 -26.463102340698242 1.1350547075271606
34.86343002319336 -26.812698364257812 1.1175146102905273
34.89251708984375 -27.177570343017578 1.0986295938491821
34.871395111083984 -27.506702423095703 1.0831509828567505
34.892005920410156 -27.872112274169922 1.0643798112869263
34.765052795410156 -28.122028350830078 1.0562783479690552
34.76764678955078 -28.478975296020508 1.0383856296539307
34.92238235473633 -28.96575164794922 1.0088012218475342
34.92564392089844 -29.332218170166016 0.990256130695343
34.90822219848633 -29.684938430786133 0.973015308380127
34.937713623046875 -30.081531524658203 0.9519194960594177
34.88612365722656 -30.412036895751953 0.9367795586585999
34.8714599609375 -30.778045654296875 0.9185360670089722
34.96377944946289 -31.24346351623535 0.8916299343109131
34.987274169921875 -31.652894973754883 0.869756281375885
34.9672966003418 -32.02737808227539 0.8510094285011292
34.98721694946289 -32.44285202026367 0.8287773728370667
35.03536605834961 -32.88982391357422 0.8039224743843079
35.01203918457031 -33.274654388427734 0.7844999432563782
32.401615142822266 30.86490249633789 2.0504186153411865
32.39072799682617 30.4779109954834 2.0561368465423584
32.336795806884766 30.055479049682617 2.063796281814575
32.48355484008789 29.822763442993164 2.06158709526062
32.528743743896484 29.49873924255371 2.0641825199127197
32.466224670410156 29.081270217895508 2.0718343257904053
32.44098663330078 28.702106475830078 2.077547311782837
32.575618743896484 28.467056274414062 2.075477123260498
32.569393157958984 28.111284255981445 2.0800304412841797
32.598819732666016 27.789731979370117 2.082759380340576
32.61177444458008 27.457290649414062 2.086153030395508
32.617271423339844 27.121906280517578 2.0897793769836426
32.6476936340332 26.810327529907227 2.0921106338500977
32.63361740112305 26.465402603149414 2.096425771713257
32.66412353515625 26.159772872924805 2.0985264778137207
32.67878723144531 25.844226837158203 2.1012628078460693
32.689239501953125 25.528263092041016 2.10408616065979
32.699424743652344 25.21497344970703 2.1068127155303955
32.730064392089844 24.920080184936523 2.108480215072632
32.72956466674805 24.604145050048828 2.1114938259124756
32.73124313354492 24.292728424072266 2.114299774169922
32.54252624511719 23.844594955444336 2.1258223056793213
32.41676330566406 23.448312759399414 2.134300470352173
32.48173522949219 23.193273544311523 2.133854389190674
32.537452697753906 22.933135986328125 2.1337451934814453
32.56905746459961 22.65778350830078 2.1346569061279297
32.47247314453125 22.29636001586914 2.1413674354553223
32.573707580566406 22.073204040527344 2.138895273208618
32.66511917114258 21.844087600708008 2.1367921829223633
32.43552017211914 21.40387725830078 2.1492958068847656
32.443763732910156 21.124897003173828 2.150813341140747
32.51118850708008 20.886056900024414 2.149542808532715
32.57267761230469 20.64450454711914 2.1484601497650146
32.52907180786133 20.338354110717773 2.1520843505859375
32.508453369140625 20.04925537109375 2.154571533203125
32.55979537963867 19.80636215209961 2.153703451156616
32.5682487487793 19.538915634155273 2.1547024250030518
32.63140869140625 19.305692672729492 2.153136968612671
32.41244125366211 18.908777236938477 2.164283275604248
32.63850402832031 18.77337646484375 2.155177354812622
32.643348693847656 18.510705947875977 2.1560187339782715
32.715110778808594 18.287200927734375 2.153754472732544
32.81073760986328 18.077499389648438 2.1503376960754395
32.94980239868164 17.891630172729492 2.144885778427124
32.99795913696289 17.656644821166992 2.1434671878814697
33.03122329711914 17.414751052856445 2.1426472663879395
33.02817916870117 17.1551513671875 2.14339017868042
33.04899215698242 16.909440994262695 2.142982006072998
33.06892776489258 16.664573669433594 2.142540216445923
33.07100296020508 16.4121036529541 2.142829656600952
33.08378982543945 16.1663761138916 2.142563819885254
33.10292053222656 15.925009727478027 2.1419405937194824
33.10317611694336 15.675890922546387 2.1420955657958984
33.107967376708984 15.43032455444336 2.1419754028320312
33.12370681762695 15.191121101379395 2.141291379928589
33.1368522644043 14.95189380645752 2.1406543254852295
33.15378952026367 14.715510368347168 2.139777660369873
33.18098068237305 14.484678268432617 2.138369560241699
33.17721176147461 14.241453170776367 2.1382877826690674
33.18091583251953 14.002705574035645 2.1378018856048584
33.19309616088867 13.768659591674805 2.136866569519043
33.21567916870117 13.539894104003906 2.1353940963745117
33.225582122802734 13.30691146850586 2.134427309036255
33.099063873291016 13.02127456665039 2.1395506858825684
33.12687301635742 12.798189163208008 2.137645721435547
33.548336029052734 12.72515869140625 2.1178932189941406
33.68549728393555 12.541443824768066 2.1109046936035156
33.728759765625 12.322575569152832 2.108090400695801
33.72640609741211 12.087800979614258 2.107273578643799
33.7431755065918 11.860809326171875 2.1055259704589844
33.75843048095703 11.634068489074707 2.103781223297119
33.75041198730469 11.400228500366211 2.1030280590057373
33.77873229980469 11.179484367370605 2.1005618572235107
33.787559509277344 10.952967643737793 2.0989160537719727
33.80249786376953 10.729180335998535 2.096928119659424
33.80070114135742 10.500877380371094 2.0956385135650635
33.80024719238281 10.273872375488281 2.094224214553833
33.80306625366211 10.048689842224121 2.0925989151000977
33.822628021240234 9.8291597366333 2.090147018432617
33.83692169189453 9.608673095703125 2.0878725051879883
33.844974517822266 9.387045860290527 2.0858194828033447
33.84965515136719 9.165157318115234 2.0838592052459717
33.85481643676758 8.944074630737305 2.0818140506744385
33.864349365234375 8.724769592285156 2.079507350921631
33.88603210449219 8.509090423583984 2.076580047607422
33.88402557373047 8.288010597229004 2.074678659439087
33.91070556640625 8.074451446533203 2.0713953971862793
33.897117614746094 7.851855278015137 2.069904327392578
33.908390045166016 7.635657787322998 2.0672073364257812
33.93389892578125 7.423031806945801 2.0637893676757812
33.942440032958984 7.207058429718018 2.061094284057617
33.95450210571289 6.992266654968262 2.0581722259521484
33.96128845214844 6.776814937591553 2.055434226989746
33.96181106567383 6.560594081878662 2.052926540374756
33.96095657348633 6.344621658325195 2.050422191619873
33.98232650756836 6.133164405822754 2.0468196868896484
34.00138854980469 5.921511650085449 2.0432612895965576
34.005348205566406 5.707539081573486 2.04034686088562
34.00993728637695 5.494058132171631 2.0373423099517822
34.01811599731445 5.281501770019531 2.034106969833374
34.01509475708008 5.067577362060547 2.0313377380371094
34.03347396850586 4.857135772705078 2.0274980068206787
34.035701751708984 4.6446309089660645 2.024357795715332
34.048492431640625 4.433828830718994 2.0206568241119385
34.063934326171875 4.223536491394043 2.016765594482422
34.07709884643555 4.0131025314331055 2.0129196643829346
33.53799819946289 3.7411720752716064 2.03532338142395
33.515411376953125 3.5306639671325684 2.0331101417541504
33.58195495605469 3.3295469284057617 2.0265767574310303
33.63039016723633 3.1261720657348633 2.0208380222320557
33.649723052978516 2.919907331466675 2.0164265632629395
33.660823822021484 2.7129600048065186 2.012345314025879
33.66367721557617 2.5054657459259033 2.0085999965667725
33.67620849609375 2.298786163330078 2.0043230056762695
11.94892692565918 0.7407220602035522 3.0539798736572266
33.647613525390625 1.8824598789215088 1.9981846809387207
12.12356948852539 0.6023831963539124 3.042757272720337
12.272651672363281 0.5343724489212036 3.034066915512085
12.183799743652344 0.45563122630119324 3.036964178085327
12.834195137023926 0.4012453854084015 3.003589153289795
33.72441101074219 0.8506637215614319 1.9745104312896729
33.73577880859375 0.6439129710197449 1.969772219657898
33.75286102294922 0.43714460730552673 1.9646843671798706
33.750701904296875 0.2300659418106079 1.9604823589324951
33.74427032470703 0.023026682436466217 1.9564279317855835
33.76853561401367 -0.18409855663776398 1.9507814645767212
12.799097061157227 -0.14957205951213837 2.993868827819824
12.729955673217773 -0.22688090801239014 2.9955992698669434
33.78973388671875 -0.8061857223510742 1.9360017776489258
33.79291915893555 -1.013708472251892 1.931134581565857
11.813142776489258 -0.4282498359680176 3.036588430404663
12.271219253540039 -0.5201688408851624 3.0116920471191406
12.95203971862793 -0.6285314559936523 2.9753239154815674
12.704536437988281 -0.6947027444839478 2.986025810241699
12.844501495361328 -0.7813906669616699 2.9769773483276367
12.864297866821289 -0.8618301749229431 2.9740190505981445
11.808862686157227 -0.8640891909599304 3.0262959003448486
33.87000274658203 -2.6835007667541504 1.8870667219161987
12.594265937805176 -1.0769175291061401 2.9819834232330322
12.25318717956543 -1.1235671043395996 2.9976658821105957
33.895713806152344 -3.3142576217651367 1.8695101737976074
12.761795997619629 -1.3281997442245483 2.9671270847320557
33.91657257080078 -3.73694109916687 1.8572365045547485
13.35641098022461 -1.5558596849441528 2.9316253662109375
13.365361213684082 -1.6400678157806396 2.9288785457611084
33.94438171386719 -4.373677730560303 1.8384345769882202
12.339574813842773 -1.6682744026184082 2.9786550998687744
13.758825302124023 -1.945938229560852 2.900928020477295
33.9809455871582 -5.015771865844727 1.8184601068496704
33.97102737426758 -5.227458953857422 1.8128248453140259
33.98836898803711 -5.443791389465332 1.8056483268737793
34.004337310791016 -5.660534858703613 1.7984623908996582
33.99727249145508 -5.873941898345947 1.7924367189407349
34.001651763916016 -6.089763164520264 1.7857141494750977
34.008583068847656 -6.306589126586914 1.7787680625915527
34.03864288330078 -6.528430461883545 1.7704728841781616
34.018287658691406 -6.741177082061768 1.7648518085479736
33.90268325805664 -6.934716701507568 1.7644075155258179
33.87392044067383 -7.145637035369873 1.7591198682785034
33.87800216674805 -7.363888263702393 1.7519371509552002
33.93523406982422 -7.594667911529541 1.741703987121582
33.92668914794922 -7.811644077301025 1.7350409030914307
33.917724609375 -8.029033660888672 1.7283167839050293
34.00827407836914 -8.27114200592041 1.7158987522125244
34.020591735839844 -8.495555877685547 1.7077805995941162
34.02561950683594 -8.718947410583496 1.6999791860580444
34.093894958496094 -8.959720611572266 1.688477635383606
34.09684753417969 -9.18452262878418 1.6805930137634277
34.09062957763672 -9.407573699951172 1.673141360282898
34.08198928833008 -9.63062572479248 1.6657378673553467
34.099708557128906 -9.861968040466309 1.6567145586013794
34.097679138183594 -10.088509559631348 1.648735523223877
34.106571197509766 -10.319157600402832 1.6400212049484253
34.11772537231445 -10.551474571228027 1.6310710906982422
34.143497467041016 -10.789429664611816 1.6211529970169067
34.134368896484375 -11.017366409301758 1.6131855249404907
34.11993408203125 -11.244349479675293 1.605436086654663
34.1380615234375 -11.483027458190918 1.5956456661224365
34.17059326171875 -11.727859497070312 1.584877610206604
34.15899658203125 -11.958680152893066 1.576642394065857
34.11387634277344 -12.178391456604004 1.5703314542770386
34.109561920166016 -12.413360595703125 1.5614571571350098
34.230018615722656 -12.695598602294922 1.544861912727356
34.300655364990234 -12.961783409118652 1.5311415195465088
34.30315017700195 -13.203851699829102 1.5214627981185913
34.32069396972656 -13.452998161315918 1.5107358694076538
34.314208984375 -13.693977355957031 1.5013736486434937
34.3439826965332 -13.950783729553223 1.4896342754364014
34.34236145019531 -14.196269989013672 1.4797240495681763
34.358341217041016 -14.450386047363281 1.4685842990875244
34.35596466064453 -14.698166847229004 1.458471655845642
29.61449432373047 -12.885546684265137 1.7496596574783325
34.405303955078125 -15.221510887145996 1.4344148635864258
34.41843032836914 -15.480578422546387 1.422910213470459
34.39607238769531 -15.72502613067627 1.4135562181472778
34.4100341796875 -15.987444877624512 1.4017268419265747
34.41032791137695 -16.245088577270508 1.3906440734863281
34.431251525878906 -16.514127731323242 1.3780721426010132
34.44747543334961 -16.782724380493164 1.3656560182571411
34.466156005859375 -17.054351806640625 1.35292387008667
34.450687408447266 -17.31070899963379 1.3423058986663818
34.372005462646484 -17.536216735839844 1.3357774019241333
34.321990966796875 -17.777019500732422 1.3272290229797363
34.360435485839844 -18.065248489379883 1.31259024143219
34.33321762084961 -18.320783615112305 1.3022292852401733
34.40422058105469 -18.63084602355957 1.2850288152694702
30.82021141052246 -16.935693740844727 1.5184192657470703
30.793935775756836 -17.168167114257812 1.5088557004928589
34.57073974609375 -19.552621841430664 1.235379695892334
34.51824188232422 -19.803544998168945 1.225949764251709
34.540740966796875 -20.0992374420166 1.2111319303512573
34.51448059082031 -20.368558883666992 1.1995618343353271
34.545310974121094 -20.673675537109375 1.1837893724441528
34.59587478637695 -20.993398666381836 1.1664083003997803
34.53243637084961 -21.246004104614258 1.1569793224334717
34.51038360595703 -21.52556037902832 1.1444334983825684
34.525848388671875 -21.83071517944336 1.1289972066879272
34.52205276489258 -22.126096725463867 1.1147620677947998
34.60716247558594 -22.48151397705078 1.0938130617141724
34.55914306640625 -22.753189086914062 1.082419514656067
34.51406478881836 -23.028444290161133 1.0706480741500854
34.63889694213867 -23.420272827148438 1.0460213422775269
34.729732513427734 -23.793628692626953 1.023629069328308
34.71397018432617 -24.097265243530273 1.0089986324310303
34.71211242675781 -24.4130859375 0.993109405040741
34.790584564208984 -24.788856506347656 0.9708528518676758
34.771053314208984 -25.098169326782227 0.9558431506156921
34.771583557128906 -25.424665451049805 0.9390671849250793
34.81993865966797 -25.789527893066406 0.9183273315429688
34.804439544677734 -26.110424041748047 0.9023126363754272
34.85623550415039 -26.4852294921875 0.8807547688484192
34.826419830322266 -26.801393508911133 0.8653817772865295
34.87747573852539 -27.183216094970703 0.8433178067207336
34.8616828918457 -27.516586303710938 0.8263231515884399
34.86571502685547 -27.868850708007812 0.807475209236145
34.76898193359375 -28.143091201782227 0.7965748310089111
34.750465393066406 -28.482982635498047 0.7790814638137817
34.90571212768555 -28.970285415649414 0.7469615936279297
34.84309768676758 -29.281435012817383 0.7325184941291809
34.879825592041016 -29.6795597076416 0.7095279097557068
34.93716049194336 -30.10007667541504 0.684458315372467
34.88233184814453 -30.427947998046875 0.6685486435890198
34.85171890258789 -30.780057907104492 0.6503213047981262
34.96390151977539 -31.2633056640625 0.6195052266120911
34.976749420166016 -31.66335678100586 0.5968505144119263
34.940372467041016 -32.02293395996094 0.5781503915786743
34.97478103637695 -32.451805114746094 0.552924633026123
35.02705001831055 -32.902793884277344 0.5257222652435303
34.96733474731445 -33.253177642822266 0.5081047415733337
32.37199020385742 30.8861083984375 1.769707202911377
32.343936920166016 30.482749938964844 1.7781474590301514
32.32239532470703 30.090438842773438 1.7860300540924072
32.461280822753906 29.850353240966797 1.7845970392227173
32.514122009277344 29.53311538696289 1.7879356145858765
32.45869827270508 29.121614456176758 1.7972543239593506
32.41590881347656 28.72648811340332 1.8056793212890625
32.56948471069336 28.508024215698242 1.8028942346572876
32.56968307495117 28.157421112060547 1.8086016178131104
32.597206115722656 27.833843231201172 1.8126301765441895
32.612060546875 27.50261688232422 1.8172239065170288
32.60259246826172 27.15435791015625 1.823026180267334
32.639469146728516 26.847871780395508 1.8261138200759888
32.648223876953125 26.52117156982422 1.8306243419647217
32.651092529296875 26.192873001098633 1.8353220224380493
32.67074966430664 25.88105010986328 1.8389607667922974
32.68230438232422 25.565670013427734 1.842914342880249
32.708621978759766 25.264558792114258 1.8459311723709106
32.702293395996094 24.941064834594727 1.8506040573120117
32.7139892578125 24.634227752685547 1.8541673421859741
32.739990234375 24.340707778930664 1.8568300008773804
32.61946487426758 23.941984176635742 1.867308259010315
32.551109313964844 23.586109161376953 1.8748178482055664
32.530006408691406 23.268009185791016 1.879643201828003
32.66211700439453 23.06111717224121 1.8761025667190552
32.64209747314453 22.74837875366211 1.8806439638137817
32.645816802978516 22.45487403869629 1.8837932348251343
32.48268127441406 22.05052375793457 1.8957550525665283
32.59636688232422 21.836959838867188 1.8927935361862183
32.65031814575195 21.584264755249023 1.8929275274276733
32.71076965332031 21.33718490600586 1.892616868019104
32.60896682739258 20.986915588378906 1.9008312225341797
32.556396484375 20.671903610229492 1.90631103515625
32.469871520996094 20.338708877563477 1.913476824760437
32.70769119262695 20.209516525268555 1.9033716917037964
32.7753791809082 19.974714279174805 1.9021871089935303
32.555442810058594 19.56795310974121 1.91608464717865
32.54230880737305 19.289447784423828 1.9189589023590088
32.677921295166016 19.100051879882812 1.9139066934585571
32.79598617553711 18.900243759155273 1.9096978902816772
32.832923889160156 18.654300689697266 1.9096673727035522
32.80009460449219 18.370546340942383 1.9132050275802612
32.87347412109375 18.14776039123535 1.9110814332962036
32.98747253417969 17.94767951965332 1.9067469835281372
33.03510284423828 17.71195411682129 1.9058029651641846
33.02897262573242 17.448789596557617 1.9075814485549927
33.031497955322266 17.191904067993164 1.9088177680969238
33.049007415771484 16.944299697875977 1.9091845750808716
33.06739807128906 16.698482513427734 1.9094181060791016
33.080448150634766 16.451295852661133 1.9098445177078247
33.078250885009766 16.197988510131836 1.9109790325164795
33.104793548583984 15.960077285766602 1.9105333089828491
33.09897994995117 15.707889556884766 1.9116872549057007
33.12028503417969 15.469898223876953 1.9113472700119019
33.129024505615234 15.22723388671875 1.9115777015686035
33.169715881347656 15.00027084350586 1.910066843032837
33.1303825378418 14.7384672164917 1.9126325845718384
33.14125061035156 14.500533103942871 1.9125086069107056
33.12843322753906 14.253545761108398 1.9135353565216064
33.16166687011719 14.027496337890625 1.9120910167694092
33.202606201171875 13.80540943145752 1.910169005393982
33.18751525878906 13.561057090759277 1.9110766649246216
33.23371124267578 13.342714309692383 1.9087262153625488
33.085205078125 13.048095703125 1.9164026975631714
33.138328552246094 12.834802627563477 1.913539171218872
33.548583984375 12.757673263549805 1.8920619487762451
33.68213653564453 12.572599411010742 1.8848674297332764
33.72370529174805 12.353043556213379 1.882370948791504
33.74034881591797 12.125006675720215 1.8810912370681763
33.74981689453125 11.89523696899414 1.8801097869873047
33.76150894165039 11.667112350463867 1.8789368867874146
33.74235153198242 11.429356575012207 1.8792929649353027
33.77748107910156 11.210838317871094 1.876752495765686
33.78935241699219 10.985215187072754 1.875346302986145
33.812103271484375 10.763806343078613 1.8733010292053223
33.81433868408203 10.536588668823242 1.8722491264343262
33.82652282714844 10.31324291229248 1.870606541633606
33.82384490966797 10.086148262023926 1.8696651458740234
33.823490142822266 9.860591888427734 1.868531346321106
33.84661865234375 9.642533302307129 1.8660989999771118
33.85872268676758 9.421882629394531 1.8641701936721802
33.849159240722656 9.195947647094727 1.8633021116256714
33.850643157958984 8.973811149597168 1.8617857694625854
33.8719596862793 8.757500648498535 1.8591593503952026
33.872520446777344 8.536384582519531 1.8575485944747925
33.88716506958008 8.319400787353516 1.8551287651062012
33.91499710083008 8.106039047241211 1.851944088935852
33.91035461425781 7.885408878326416 1.850394368171692
33.91110610961914 7.666683197021484 1.848490834236145
33.92995834350586 7.452526569366455 1.8455644845962524
33.95625305175781 7.240301132202148 1.84217369556427
33.96459197998047 7.024594306945801 1.8396581411361694
33.966670989990234 6.808074951171875 1.8374024629592896
33.98011779785156 6.594266891479492 1.8344762325286865
33.974552154541016 6.377233028411865 1.832486867904663
33.989219665527344 6.16443395614624 1.8293540477752686
33.994686126708984 5.950316905975342 1.8266396522521973
34.00373458862305 5.737194061279297 1.823664903640747
34.0163688659668 5.5249834060668945 1.8204282522201538
34.02373504638672 5.312216281890869 1.8174010515213013
34.026817321777344 5.099121570587158 1.8145337104797363
34.0404167175293 4.887890338897705 1.811032772064209
34.0536994934082 4.676819324493408 1.8074780702590942
34.063697814941406 4.465507507324219 1.8040273189544678
34.07535171508789 4.254619598388672 1.8004164695739746
34.08570098876953 4.043755531311035 1.7968047857284546
33.540042877197266 3.770569324493408 1.8231322765350342
33.51166915893555 3.5593841075897217 1.82152259349823
33.57735061645508 3.3582262992858887 1.8147555589675903
33.638851165771484 3.1561150550842285 1.8081350326538086
33.65534973144531 2.9495394229888916 1.8038783073425293
33.664615631103516 2.74239182472229 1.7999435663223267
33.675594329833984 2.5354654788970947 1.7958439588546753
33.66936111450195 2.327404022216797 1.7926135063171387
33.66981506347656 2.1200153827667236 1.7889484167099
33.667991638183594 1.9126509428024292 1.7853373289108276
33.67387390136719 1.7058415412902832 1.781233787536621
13.160896301269531 0.586033046245575 2.9080305099487305
12.372940063476562 0.47494617104530334 2.9500207901000977
19.325298309326172 0.6229100227355957 2.5637142658233643
12.915658950805664 0.3371484875679016 2.9169538021087646
12.493134498596191 0.2494586706161499 2.938858985900879
33.75933074951172 0.4662870168685913 1.7522977590560913
33.749332427978516 0.25910547375679016 1.7485663890838623
12.540282249450684 0.01959783025085926 2.93145751953125
12.644912719726562 -0.057807739824056625 2.9239392280578613
12.717113494873047 -0.13615365326404572 2.9181900024414062
12.737913131713867 -0.21452899277210236 2.9152917861938477
33.80707550048828 -0.7774817943572998 1.7227650880813599
33.82238006591797 -0.9854514002799988 1.7171608209609985
33.8204460144043 -1.193076491355896 1.712457299232483
12.484064102172852 -0.5168456435203552 2.9225523471832275
12.632152557373047 -0.6006256937980652 2.9122657775878906
13.176453590393066 -0.7075605392456055 2.879227638244629
12.85286808013916 -0.7692751288414001 2.895805597305298
11.84764575958252 -0.782047688961029 2.9516777992248535
12.256775856018066 -0.8846169114112854 2.9262242317199707
12.60236644744873 -0.987319827079773 2.904290199279785
12.393048286437988 -1.0474461317062378 2.9144127368927
12.37834644317627 -1.122724175453186 2.913250684738159
12.716931343078613 -1.232146978378296 2.891450881958008
33.91848373413086 -3.497191905975342 1.6487113237380981
13.314964294433594 -1.455217719078064 2.852064847946167
33.93797302246094 -3.9205939769744873 1.6359565258026123
12.47539234161377 -1.5185502767562866 2.897005796432495
33.953147888183594 -4.345132350921631 1.6231145858764648
33.97407150268555 -4.559826374053955 1.6157722473144531
33.97782897949219 -4.7727203369140625 1.6093617677688599
33.9792594909668 -4.98568868637085 1.6030033826828003
33.987247467041016 -5.2000627517700195 1.5961666107177734
33.99880599975586 -5.415509223937988 1.5890247821807861
34.00801467895508 -5.631131649017334 1.5819342136383057
34.006019592285156 -5.845380783081055 1.5754297971725464
29.279659271240234 -5.218047142028809 1.8556865453720093
34.02446746826172 -6.279327869415283 1.5607898235321045
34.070350646972656 -6.504201412200928 1.5510896444320679
34.03443145751953 -6.7140326499938965 1.5462937355041504
33.96691131591797 -6.91749382019043 1.543367862701416
33.90305709838867 -7.121406555175781 1.5401501655578613
33.923824310302734 -7.343383312225342 1.5316230058670044
33.952884674072266 -7.568055152893066 1.5224767923355103
33.99213790893555 -7.796038627624512 1.5125871896743774
34.02403259277344 -8.023415565490723 1.503043532371521
34.04568862915039 -8.249361991882324 1.494032382965088
34.0416259765625 -8.469850540161133 1.4865344762802124
34.080631256103516 -8.701961517333984 1.4762135744094849
34.11130142211914 -8.933098793029785 1.466302514076233
34.13269805908203 -9.162873268127441 1.4568662643432617
34.12368392944336 -9.38530445098877 1.449263095855713
34.10265350341797 -9.604992866516113 1.4423322677612305
