# .PCD v0.7 - Point Cloud Data file format
VERSION 0.7
FIELDS x y z
SIZE 4 4 4
TYPE F F F
COUNT 1 1 1
WIDTH 852
HEIGHT 1
VIEWPOINT 0 0 0 1 0 0 0
POINTS 852
DATA ascii
13.881950378417969 8.981141090393066 0.27598071098327637
13.944611549377441 8.901114463806152 0.27224549651145935
14.076346397399902 8.625673294067383 0.27375322580337524
14.121854782104492 8.53513240814209 0.27357980608940125
14.173514366149902 8.448369979858398 0.2718023657798767
14.218727111816406 8.357815742492676 0.2714167535305023
14.259125709533691 8.264565467834473 0.27202510833740234
14.306571006774902 8.175505638122559 0.27082788944244385
16.184101104736328 0.7692429423332214 0.16846929490566254
15.738987922668457 0.5547036528587341 0.26126986742019653
12.880841255187988 -0.6529925465583801 0.8476566672325134
12.850863456726074 -0.7305349111557007 0.8514686822891235
12.861390113830566 -0.8103132247924805 0.8464014530181885
15.847747802734375 -1.9793626070022583 0.15696899592876434
15.745731353759766 -2.064833879470825 0.17448021471500397
15.807823181152344 -2.171724557876587 0.15578804910182953
15.783116340637207 -2.2671000957489014 0.15605469048023224
15.837061882019043 -2.3741283416748047 0.13882993161678314
15.893179893493652 -2.4823575019836426 0.12094733864068985
15.772961616516113 -2.6623101234436035 0.13621439039707184
13.801783561706543 9.286121368408203 0.1670241802930832
13.837654113769531 9.187768936157227 0.17040042579174042
13.875298500061035 9.090932846069336 0.17316068708896637
13.908987045288086 8.991851806640625 0.17673568427562714
13.937033653259277 8.88953971862793 0.18153519928455353
13.955238342285156 8.781484603881836 0.18858499825000763
14.071459770202637 8.264769554138184 0.21482713520526886
15.729422569274902 0.5492625832557678 0.17413932085037231
12.854837417602539 -0.7350821495056152 0.7775150537490845
12.850693702697754 -0.8139640092849731 0.7756155729293823
15.646645545959473 -1.8619651794433594 0.11625370383262634
15.67611312866211 -1.9630941152572632 0.10481823235750198
15.646873474121094 -2.057032585144043 0.10646868497133255
12.856122970581055 -0.7203056812286377 0.6975499987602234
12.847192764282227 -0.7988913059234619 0.6967579126358032
12.84735107421875 -0.726169764995575 0.6166117787361145
12.849066734313965 -0.8053690195083618 0.6133300065994263
12.832322120666504 -0.7227434515953064 0.5397389531135559
12.845684051513672 -0.8025737404823303 0.5336063504219055
12.835193634033203 -0.725010871887207 0.46772530674934387
12.845601081848145 -0.8046770095825195 0.46221402287483215
12.832897186279297 -0.7145736217498779 0.3901137113571167
12.84237003326416 -0.7941544055938721 0.38475868105888367
12.822860717773438 -0.7158055305480957 0.3067082166671753
12.848714828491211 -0.7963410019874573 0.29699400067329407
12.824904441833496 -0.7133753299713135 0.2272825837135315
12.862292289733887 -0.7946256995201111 0.21430954337120056
12.81396484375 -0.7171449065208435 0.16045883297920227
12.882089614868164 -0.8002455830574036 0.13890108466148376
12.659659385681152 12.739519119262695 1.2913938760757446
12.681052207946777 12.672472953796387 1.294480562210083
12.766940116882324 12.758612632751465 0.3755091428756714
12.698609352111816 12.601936340332031 1.298178791999817
12.791913986206055 12.69490909576416 0.3793131411075592
12.724668502807617 12.540139198303223 1.3003484010696411
12.763964653015137 12.57931900024414 0.3959239423274994
12.746901512145996 12.474842071533203 1.3031288385391235
12.726563453674316 12.455464363098145 0.4146767854690552
12.760313987731934 12.396942138671875 1.3076997995376587
12.781899452209473 12.331674575805664 1.310479760169983
12.801054954528809 12.268637657165527 1.3133043050765991
31.058425903320312 29.566104888916016 0.33134686946868896
12.827445983886719 12.208505630493164 1.3151650428771973
31.06333351135254 29.36506462097168 0.339128702878952
12.844558715820312 12.139819145202637 1.3185566663742065
31.045413970947266 29.14388084411621 0.3491303026676178
12.86315631866455 12.072858810424805 1.3216418027877808
12.893342018127441 12.102090835571289 0.43068015575408936
32.349151611328125 30.154800415039062 2.3992977142333984
12.881446838378906 12.005915641784668 1.324726939201355
12.915440559387207 12.038564682006836 0.4344838261604309
32.42476272583008 30.014568328857422 2.3980274200439453
12.908530235290527 11.947417259216309 1.326278567314148
12.948101997375488 11.985067367553711 0.4357191026210785
32.48106384277344 29.846521377563477 2.3974506855010986
31.233793258666992 28.702186584472656 0.35448959469795227
12.935601234436035 11.884941101074219 1.3280903100967407
12.968108177185059 11.9158935546875 0.4403321444988251
32.54616165161133 29.697616577148438 2.3964855670928955
31.326162338256836 28.586299896240234 0.35303837060928345
12.95116901397705 11.816325187683105 1.3314813375473022
12.993002891540527 11.855637550354004 0.44327735900878906
32.538394927978516 29.483173370361328 2.3979625701904297
13.009424209594727 11.789859771728516 2.19635272026062
12.970094680786133 11.751079559326172 1.3342583179473877
13.008509635925293 11.787086486816406 0.4483637809753418
32.5220947265625 29.262462615966797 2.3996989727020264
13.04297161102295 11.737724304199219 2.1961803436279297
12.99056625366211 11.687500953674316 1.3367283344268799
13.034683227539062 11.7284517288208 0.45087912678718567
32.47536087036133 29.0262451171875 2.4023759365081787
13.063126564025879 11.67780876159668 2.197164297103882
13.016135215759277 11.632806777954102 1.3380134105682373
13.045727729797363 11.660569190979004 0.4564394950866699
32.451133728027344 28.801591873168945 2.404320001602173
13.094374656677246 11.623880386352539 2.197174310684204
13.037927627563477 11.570855140686035 1.3401745557785034
13.07321548461914 11.603541374206543 0.45852503180503845
32.51010513305664 28.651819229125977 2.4034295082092285
13.112314224243164 11.558337211608887 2.198481798171997
13.05944538116455 11.508893013000488 1.3423351049423218
13.096765518188477 11.543205261230469 0.4614667296409607
32.5891227722168 28.520092010498047 2.4018402099609375
13.129953384399414 11.49281120300293 2.19978928565979
13.08069133758545 11.446919441223145 1.3444948196411133
13.112643241882324 11.476360321044922 0.4661237895488739
32.600425720214844 28.339752197265625 2.4024550914764404
13.143427848815918 11.427959442138672 2.201328992843628
13.097814559936523 11.385598182678223 1.347008228302002
13.142964363098145 11.426374435424805 0.46696439385414124
32.615028381347656 28.143375396728516 2.4030351638793945
13.177556991577148 11.373213768005371 2.2011020183563232
13.116729736328125 11.318090438842773 1.3497370481491089
13.160261154174805 11.357236862182617 0.4715746343135834
32.61806106567383 27.94808578491211 2.403926372528076
13.19434642791748 11.307696342468262 2.202408790588379
13.142792701721191 11.260956764221191 1.3509713411331177
13.188363075256348 11.301640510559082 0.4732253849506378
32.62013626098633 27.75311851501465 2.404822826385498
13.216536521911621 11.247048377990723 2.2031564712524414
13.164837837219238 11.200565338134766 1.3528207540512085
13.20498275756836 11.236409187316895 0.47745150327682495
32.62314987182617 27.560087203979492 2.4056601524353027
13.23655891418457 11.184772491455078 2.204090118408203
13.188517570495605 11.141756057739258 1.3543610572814941
13.230714797973633 11.179147720336914 0.47952961921691895
32.65202331542969 27.389862060546875 2.405606269836426
13.26012897491455 11.125699996948242 2.2046499252319336
13.211947441101074 11.08292007446289 1.3559006452560425
13.252435684204102 11.11867618560791 0.48246628046035767
32.655147552490234 27.198978424072266 2.4063892364501953
13.283447265625 11.066597938537598 2.2052090167999268
13.227502822875977 11.017704963684082 1.3586738109588623
13.272002220153809 11.056611061096191 0.4858317971229553
32.68044662475586 27.02751922607422 2.406405210494995
13.306514739990234 11.007466316223145 2.2057669162750244
13.250411033630371 10.958836555480957 1.3602120876312256
13.293196678161621 10.996113777160645 0.48876717686653137
32.68258285522461 26.828311920166016 2.4072110652923584
13.323530197143555 10.939659118652344 2.2070250511169434
13.271129608154297 10.894482612609863 1.3623203039169312
13.317933082580566 10.934844970703125 0.4912242293357849
32.69649124145508 26.64936065673828 2.4075560569763184
13.340269088745117 10.875776290893555 2.2081432342529297
13.293519020080566 10.835573196411133 1.3638567924499512
13.336690902709961 10.87275505065918 0.49458861351013184
32.7056770324707 26.467500686645508 2.4080348014831543
13.358658790588379 10.8134765625 2.2090742588043213
13.319515228271484 10.779762268066406 1.3647741079330444
13.35326862335205 10.809118270874023 0.498383104801178
32.71202850341797 26.28432846069336 2.408583164215088
13.38844108581543 10.760551452636719 2.2088801860809326
13.331748008728027 10.71302318572998 1.3678560256958008
13.369564056396484 10.745497703552246 0.5021770000457764
32.73118209838867 26.112350463867188 2.4086802005767822
13.402423858642578 10.695111274719238 2.2101850509643555
13.349493980407715 10.650973320007324 1.3700093030929565
13.387503623962402 10.683429718017578 0.5055410265922546
32.72346496582031 25.92919921875 2.409613847732544
13.425989151000977 10.641334533691406 2.2104110717773438
13.365132331848145 10.591261863708496 1.3722100257873535
13.411052703857422 10.629823684692383 0.5072274208068848
32.73117446899414 25.749950408935547 2.4100453853607178
13.447267532348633 10.5820894241333 2.2109644412994385
13.386249542236328 10.532293319702148 1.3737436532974243
13.424612998962402 10.564696311950684 0.5114522576332092
32.728179931640625 25.563270568847656 2.410809278488159
13.46829605102539 10.52282428741455 2.211517095565796
13.409074783325195 10.474834442138672 1.3749665021896362
13.457290649414062 10.514764785766602 0.5113651752471924
32.74007797241211 25.38918113708496 2.41105318069458
13.485135078430176 10.46048641204834 2.212445020675659
13.435582160949707 10.420384407043457 1.3755680322647095
13.466434478759766 10.446623802185059 0.5164517760276794
32.75115966796875 25.215314865112305 2.4113011360168457
13.511579513549805 10.405762672424316 2.2124316692352295
13.454009056091309 10.359823226928711 1.3774093389511108
13.492825508117676 10.392065048217773 0.5176562070846558
32.75547790527344 25.03713035583496 2.4117510318756104
13.525924682617188 10.341899871826172 2.2135472297668457
13.474149703979492 10.300765991210938 1.3789399862289429
13.485742568969727 10.31202507019043 0.5261970162391663
32.764923095703125 24.863758087158203 2.4120070934295654
13.547928810119629 10.284089088439941 2.2139086723327637
13.490092277526855 10.238697052001953 1.3810906410217285
13.51553726196289 10.26044750213623 0.5265371799468994
32.76189041137695 24.672874450683594 2.412681818008423
13.56749439239502 10.220885276794434 2.2145986557006836
13.517437934875488 10.181745529174805 1.3816401958465576
13.55870532989502 10.215311050415039 0.5242358446121216
32.75963592529297 24.492555618286133 2.4132790565490723
13.589005470275879 10.163030624389648 2.214958667755127
13.532856941223145 10.11966609954834 1.383790373802185
13.588129997253418 10.163522720336914 0.5245708227157593
32.736236572265625 24.306350708007812 2.414530038833618
13.612519264221191 10.110496520996094 2.2149882316589355
13.552236557006836 10.064401626586914 1.3850555419921875
13.609674453735352 10.10962200164795 0.5262486338615417
32.55521774291992 23.99624252319336 2.4210031032562256
13.627553939819336 10.048144340515137 2.2159135341644287
13.575133323669434 10.008225440979004 1.385960578918457
13.63869857788086 10.057696342468262 0.526580274105072
32.439002990722656 23.736392974853516 2.4253039360046387
13.644330978393555 9.987282752990723 2.2166495323181152
13.603806495666504 9.956404685974121 1.3859312534332275
13.633748054504395 9.980963706970215 0.5342621803283691
32.430564880371094 23.556957244873047 2.4260129928588867
13.670931816101074 9.933749198913574 2.2164385318756104
13.62225341796875 9.897216796875 1.3874566555023193
13.648350715637207 9.918864250183105 0.5376205444335938
32.484107971191406 23.423179626464844 2.424649715423584
13.687217712402344 9.872862815856934 2.2171738147735596
13.636425971984863 9.835118293762207 1.3896045684814453
13.654698371887207 9.851021766662598 0.5427101850509644
32.51070785522461 23.270408630371094 2.42415714263916
13.703245162963867 9.811984062194824 2.2179083824157715
13.66445255279541 9.783148765563965 1.3895710706710815
13.672752380371094 9.791855812072754 0.5452037453651428
32.5488395690918 23.12641716003418 2.4232616424560547
13.73120403289795 9.75977611541748 2.2175042629241943
13.67812728881836 9.72104549407959 1.3917181491851807
13.664467811584473 9.714138984680176 0.5533256530761719
32.57004165649414 22.970922470092773 2.422905445098877
13.748433113098145 9.69647216796875 2.218189239501953
13.703348159790039 9.663722038269043 1.3922570943832397
13.709796905517578 9.671113014221191 0.5501402020454407
32.590309143066406 22.798458099365234 2.422590732574463
13.773551940917969 9.638888359069824 2.218113422393799
13.724268913269043 9.603500366210938 1.3934189081192017
13.704559326171875 9.592589378356934 0.557783305644989
32.618263244628906 22.648958206176758 2.421968460083008
13.792672157287598 9.580815315246582 2.218465566635132
13.74123764038086 9.544238090515137 1.394940972328186
13.745817184448242 9.550338745117188 0.55507493019104
32.57355499267578 22.449905395507812 2.423724412918091
13.817713737487793 9.526969909667969 2.2182459831237793
13.766129493713379 9.49060344696045 1.395213007926941
13.768702507019043 9.495335578918457 0.5562649965286255
32.507225036621094 22.23733139038086 2.4261727333068848
13.83431625366211 9.467435836791992 2.2187869548797607
13.792860984802246 9.438312530517578 1.3951709270477295
13.897027969360352 9.512596130371094 0.5348984003067017
32.52073669433594 22.08872413635254 2.4259538650512695
13.855220794677734 9.414521217346191 2.2188048362731934
13.80750846862793 9.381393432617188 1.3967394828796387
14.174677848815918 9.633920669555664 0.4814566373825073
32.556087493896484 21.947162628173828 2.4250054359436035
13.871354103088379 9.354968070983887 2.2193450927734375
13.827661514282227 9.324840545654297 1.39763343334198
14.205939292907715 9.58303165435791 0.4808816909790039
32.60540008544922 21.81535530090332 2.423576831817627
13.897601127624512 9.302349090576172 2.2189297676086426
13.851712226867676 9.271018981933594 1.3979004621505737
32.540069580078125 21.61588478088379 2.4259021282196045
13.917890548706055 9.2493314743042 2.218944549560547
13.87188720703125 9.218192100524902 1.3985278606414795
13.870537757873535 9.220431327819824 0.5636001825332642
32.44830322265625 21.392160415649414 2.4290881156921387
13.935413360595703 9.1911039352417 2.2192914485931396
13.889314651489258 9.160178184509277 1.399732232093811
13.929123878479004 9.189604759216309 0.5569635033607483
32.430660247802734 21.218599319458008 2.4298086166381836
13.958959579467773 9.136961936950684 2.2190635204315186
13.90858268737793 9.103511810302734 1.4006223678588867
13.960884094238281 9.140952110290527 0.5559704303741455
32.42897033691406 21.056306838989258 2.4299840927124023
13.98647689819336 9.08548355102539 2.2184512615203857
13.933863639831543 9.050873756408691 1.4005711078643799
13.973892211914062 9.080117225646973 0.5588880181312561
32.461692810058594 20.908924102783203 2.4290096759796143
14.004900932312012 9.024727821350098 2.218745470046997
13.952171325683594 8.990363121032715 1.4017232656478882
13.988210678100586 9.016862869262695 0.5617552995681763
32.497066497802734 20.779647827148438 2.427919387817383
14.019947052001953 8.968851089477539 2.2191390991210938
13.975476264953613 8.940057754516602 1.4017188549041748
14.024035453796387 8.974431991577148 0.5595018863677979
32.57985305786133 20.672815322875977 2.4252524375915527
14.040538787841797 8.91319751739502 2.2190983295440674
13.998053550720215 8.88592529296875 1.4019774198532104
14.017635345458984 8.901698112487793 0.5663348436355591
32.562889099121094 20.50307273864746 2.4258534908294678
14.063020706176758 8.85883617401123 2.2188644409179688
14.014123916625977 8.827777862548828 1.4031769037246704
14.012981414794922 8.830430030822754 0.5727348923683167
32.62075424194336 20.373029708862305 2.4239704608917236
14.082594871520996 8.799327850341797 2.218963623046875
14.035689353942871 8.769805908203125 1.4036970138549805
32.551368713378906 20.172195434570312 2.4262611865997314
14.104641914367676 8.744882583618164 2.2187271118164062
14.059724807739258 8.7168607711792 1.4036377668380737
14.405900001525879 8.934962272644043 0.5018452405929565
32.47246170043945 19.96685791015625 2.428846597671509
14.13072681427002 8.692999839782715 2.218104362487793
14.081445693969727 8.662553787231445 1.4038914442062378
14.39273452758789 8.857558250427246 0.5099679827690125
32.499183654785156 19.82738494873047 2.427931308746338
14.154492378234863 8.63974380493164 2.21767258644104
14.111428260803223 8.613369941711426 1.4028847217559814
14.286757469177246 8.72391414642334 0.5372766852378845
32.536869049072266 19.70271110534668 2.4266395568847656
14.17230224609375 8.586318969726562 2.2176756858825684
14.124902725219727 8.557552337646484 1.404130220413208
14.155383110046387 8.579557418823242 0.5694504976272583
32.50038146972656 19.525989532470703 2.4277732372283936
14.199941635131836 8.535530090332031 2.2168548107147217
14.150269508361816 8.505663871765137 1.403749942779541
14.206109046936035 8.542800903320312 0.5640754699707031
32.43513870239258 19.333131790161133 2.4298360347747803
14.210271835327148 8.474440574645996 2.2175776958465576
14.171182632446289 8.451159477233887 1.4039982557296753
14.193329811096191 8.46796703338623 0.5717868804931641
32.4227409362793 19.17276382446289 2.4301390647888184
14.239659309387207 8.424802780151367 2.2165606021881104
14.185483932495117 8.392823219299316 1.4051913022994995
14.186559677124023 8.397086143493652 0.5781927704811096
32.428009033203125 19.015911102294922 2.4298346042633057
14.26387882232666 8.368791580200195 2.2160706520080566
14.21169376373291 8.338287353515625 1.4047560691833496
14.210626602172852 8.341320991516113 0.5784364938735962
32.431453704833984 18.866195678710938 2.429577589035034
14.295047760009766 8.320219993591309 2.214855670928955
14.229828834533691 8.282414436340332 1.4053164720535278
14.211772918701172 8.275590896606445 0.5830980539321899
32.49267578125 18.750408172607422 2.4273974895477295
14.310942649841309 8.262812614440918 2.2149946689605713
14.254186630249023 8.230234146118164 1.4049288034439087
14.248869895935059 8.230881690979004 0.5803318619728088
32.603370666503906 18.662973403930664 2.4235665798187256
14.339590072631836 8.212825775146484 2.2139692306518555
14.269745826721191 8.173053741455078 1.4058030843734741
14.2730131149292 8.178672790527344 0.5801849961280823
32.70192337036133 18.575761795043945 2.4201271533966064
14.364476203918457 8.164013862609863 2.213186740875244
14.285831451416016 8.119584083557129 1.406412124633789
14.299837112426758 8.13132095336914 0.5792133212089539
32.74686813354492 18.450490951538086 2.4184296131134033
14.392776489257812 8.113842010498047 2.2121567726135254
14.320399284362793 8.073343276977539 1.4044389724731445
14.302175521850586 8.066873550415039 0.5834380984306335
32.77389144897461 18.315378189086914 2.417304754257202
14.42742919921875 8.067217826843262 2.210541248321533
14.34399700164795 8.020907402038574 1.4040449857711792
14.34290599822998 8.024134635925293 0.579786479473114
32.77752685546875 18.175121307373047 2.416947841644287
14.385534286499023 7.981738567352295 1.4008513689041138
14.369217872619629 7.976551055908203 0.5788090825080872
32.886653900146484 18.085914611816406 2.413076639175415
14.424775123596191 7.941799640655518 0.5720847845077515
32.945091247558594 17.968645095825195 2.4108614921569824
14.909806251525879 8.136734962463379 2.1718125343322754
33.019412994384766 17.852563858032227 2.4080870151519775
14.920686721801758 8.072417259216309 1.3320668935775757
33.0197639465332 17.704166412353516 2.4077539443969727
33.0658073425293 17.580617904663086 2.4058926105499268
33.07160949707031 17.435989379882812 2.405344247817993
27.800342559814453 14.66422176361084 1.0340520143508911
33.094520568847656 17.300792694091797 2.404212713241577
27.804780960083008 14.542869567871094 1.0361636877059937
22.827482223510742 11.940888404846191 0.20064963400363922
33.09914016723633 17.156448364257812 2.403669595718384
27.824195861816406 14.429696083068848 1.0369068384170532
22.85335350036621 11.85317611694336 0.20123322308063507
33.08760070800781 17.00429344177246 2.403644561767578
27.85202980041504 14.321122169494629 1.0368659496307373
22.861249923706055 11.756357192993164 0.2043597549200058
33.10657501220703 16.868303298950195 2.4025912284851074
22.86433219909668 11.65737247467041 0.20812377333641052
33.11007308959961 16.71760368347168 2.4020121097564697
22.869003295898438 11.554520606994629 0.21180759370326996
33.13236618041992 16.584060668945312 2.4008138179779053
22.86459732055664 11.4524507522583 0.21653100848197937
33.12888717651367 16.44524574279785 2.4004781246185303
22.860002517700195 11.355640411376953 0.22102142870426178
33.14338684082031 16.308576583862305 2.399505615234375
22.865877151489258 11.259382247924805 0.2241569459438324
33.148353576660156 16.16762351989746 2.3988332748413086
22.869125366210938 11.162130355834961 0.22761288285255432
33.15273666381836 16.02683448791504 2.398163318634033
22.87197494506836 11.064993858337402 0.231070876121521
33.15428924560547 15.885129928588867 2.397571325302124
32.61505889892578 15.635557174682617 0.636557400226593
22.865482330322266 10.963683128356934 0.23580807447433472
33.15977096557617 15.745757102966309 2.39683198928833
32.69847106933594 15.535555839538574 0.6316388845443726
22.867525100708008 10.866811752319336 0.23927052319049835
33.173736572265625 15.610795021057129 2.3957948684692383
32.774818420410156 15.431977272033691 0.627305269241333
22.86692237854004 10.768998146057129 0.24305489659309387
33.169036865234375 15.467479705810547 2.3953611850738525
33.01118850708008 15.402863502502441 0.6089192032814026
22.87041473388672 10.673421859741211 0.24620109796524048
33.180030822753906 15.324884414672852 2.3943591117858887
33.125999450683594 15.308991432189941 0.6012707352638245
22.868600845336914 10.570836067199707 0.25022727251052856
33.18777084350586 15.188206672668457 2.393479108810425
33.15407180786133 15.18189525604248 0.6010600328445435
22.864524841308594 10.472397804260254 0.2543385922908783
33.188140869140625 15.048566818237305 2.3928287029266357
33.19074630737305 15.058905601501465 0.6000543236732483
22.8713321685791 10.379237174987793 0.2568514049053192
33.20161437988281 14.915254592895508 2.3917243480682373
33.2110481262207 14.928695678710938 0.600436806678772
22.884553909301758 10.28920841217041 0.2584042549133301
33.20285415649414 14.783757209777832 2.3910462856292725
33.19413375854492 14.78911018371582 0.6039177775382996
22.875274658203125 10.194121360778809 0.26292484998703003
33.208431243896484 14.64763355255127 2.3901751041412354
33.188323974609375 14.648037910461426 0.6064890623092651
22.862829208374023 10.093220710754395 0.26800787448883057
33.20659255981445 14.508648872375488 2.389535427093506
33.19106674194336 14.511178016662598 0.6082693934440613
33.21794891357422 14.375810623168945 2.3884387016296387
33.18410873413086 14.370514869689941 0.6108481287956238
33.22418212890625 14.24109935760498 2.387498140335083
33.18803024291992 14.234989166259766 0.6124343276023865
33.225284576416016 14.104567527770996 2.3867130279541016
33.173065185546875 14.091817855834961 0.6156184673309326
33.23275375366211 13.971107482910156 2.3856985569000244
33.17817306518555 13.957616806030273 0.6170117259025574
33.22595977783203 13.825247764587402 2.3851077556610107
33.21966552734375 13.832132339477539 0.615289568901062
33.255428314208984 13.701600074768066 2.3833231925964355
33.21913528442383 13.696184158325195 0.6170846819877625
22.868688583374023 9.43144702911377 0.2891320586204529
33.26130294799805 13.56847858428955 2.382314920425415
33.259586334228516 13.577360153198242 0.615280270576477
22.894332885742188 9.348785400390625 0.2884429097175598
33.259708404541016 13.432676315307617 2.3815414905548096
33.25109100341797 13.438810348510742 0.6176789402961731
22.940364837646484 9.274419784545898 0.28485167026519775
33.259883880615234 13.297977447509766 2.380693197250366
33.267486572265625 13.3106689453125 0.6178769469261169
22.983856201171875 9.198925971984863 0.28157827258110046
33.20612716674805 13.149007797241211 2.381688356399536
33.22782516479492 13.167269706726074 0.6228087544441223
23.03012466430664 9.129082679748535 0.2777385413646698
33.174949645996094 13.002961158752441 2.3818678855895996
33.1666374206543 13.009391784667969 0.6296374797821045
33.17344284057617 12.869040489196777 2.3810343742370605
33.16050720214844 12.873739242553711 0.6316545009613037
33.20173263549805 12.746927261352539 2.3791797161102295
33.21432113647461 12.761526107788086 0.6284459829330444
23.3018856048584 8.955988883972168 0.24784937500953674
33.40750503540039 12.70221996307373 0.6131553649902344
23.397628784179688 8.89930248260498 0.23710967600345612
33.5400390625 12.618907928466797 0.6030773520469666
23.530384063720703 8.856023788452148 0.22118332982063293
33.71953201293945 12.542362213134766 2.358876943588257
33.75880432128906 12.566986083984375 0.5855225324630737
23.765338897705078 8.849983215332031 0.1910032331943512
33.7510871887207 12.41354751586914 2.356783390045166
33.776329040527344 12.43288516998291 0.5853716135025024
33.812904357910156 12.302525520324707 2.3536972999572754
33.805240631103516 12.309834480285645 0.5841314196586609
33.789710998535156 12.160765647888184 2.3534746170043945
33.793846130371094 12.172379493713379 0.5863261818885803
33.79418182373047 12.029369354248047 2.352299213409424
33.793643951416016 12.039332389831543 0.5875139236450195
33.793724060058594 11.903158187866211 2.351328134536743
33.804969787597656 11.917302131652832 0.5876114368438721
33.80429458618164 11.774474143981934 2.3499159812927246
33.79435729980469 11.781225204467773 0.5896133780479431
33.80728530883789 11.64341926574707 2.348745822906494
33.81619644165039 11.656734466552734 0.5887807011604309
33.819236755371094 11.515707969665527 2.347254991531372
33.806922912597656 11.521787643432617 0.590584933757782
33.80938720703125 11.380881309509277 2.346492052078247
33.81364059448242 11.392613410949707 0.5909713506698608
33.82036209106445 11.253363609313965 2.3450043201446533
33.817508697509766 11.262744903564453 0.591562032699585
33.82565689086914 11.11766242980957 2.343636989593506
33.82044982910156 11.126307487487793 0.592235267162323
33.842769622802734 10.992608070373535 2.341907262802124
33.83277893066406 10.999751091003418 0.5920146703720093
33.82135772705078 10.855352401733398 2.3414807319641113
33.82566833496094 10.86715030670166 0.5934252738952637
33.84226989746094 10.731975555419922 2.339590072631836
33.837039947509766 10.740760803222656 0.5932077169418335
33.84365463256836 10.602607727050781 2.338353157043457
33.850318908691406 10.615166664123535 0.5927863121032715
33.84033966064453 10.478527069091797 2.337322473526001
33.84226989746094 10.489619255065918 0.5941228866577148
33.861690521240234 10.349349975585938 2.3353090286254883
33.84927749633789 10.3560791015625 0.5941932797431946
33.864017486572266 10.221013069152832 2.3339946269989014
33.84920883178711 10.227092742919922 0.5947976112365723
33.87064743041992 10.09421443939209 2.3325161933898926
33.851043701171875 10.098945617675781 0.5951995253562927
33.86003494262695 9.962556838989258 2.331618070602417
33.86913299560547 9.975836753845215 0.5941673517227173
33.878387451171875 9.84606647491455 2.3297698497772217
33.87070846557617 9.854458808898926 0.594490110874176
33.89323806762695 9.722270011901855 2.327962875366211
33.88311767578125 9.730021476745605 0.5938683748245239
33.888404846191406 9.593049049377441 2.3268213272094727
33.89751052856445 9.468009948730469 2.3251824378967285
33.90134811401367 9.341696739196777 2.3237111568450928
33.8887825012207 9.348960876464844 0.5944759249687195
33.90712356567383 9.216126441955566 2.322157382965088
33.89213180541992 9.22280216217041 0.594475507736206
33.90520477294922 9.088691711425781 2.3208558559417725
33.89501190185547 9.096733093261719 0.5944764018058777
33.92453384399414 8.967124938964844 2.3187999725341797
33.90465545654297 8.97266674041748 0.5938587784767151
33.91838073730469 8.832687377929688 2.3175461292266846
33.915374755859375 8.842727661132812 0.5931181907653809
33.9271240234375 8.70867919921875 2.3158273696899414
33.92649841308594 8.719367027282715 0.5922951102256775
33.92815017700195 8.582880020141602 2.314363718032837
33.92509841918945 8.592978477478027 0.5925065279006958
33.93207550048828 8.46430778503418 2.3128550052642822
33.93143844604492 8.475038528442383 0.5920158624649048
33.934627532958984 8.339286804199219 2.3113088607788086
33.91703414916992 8.345871925354004 0.5932668447494507
33.95371627807617 8.218464851379395 2.3091678619384766
33.94573211669922 8.227468490600586 0.5907869935035706
33.94806671142578 8.091817855834961 2.307878017425537
33.94978332519531 8.10318374633789 0.5903805494308472
33.95897674560547 7.969304084777832 2.305992841720581
33.950950622558594 7.9784016609191895 0.5901833176612854
33.9610710144043 7.83864164352417 2.304325819015503
33.96516418457031 7.850589275360107 0.5888233184814453
33.97350311279297 7.716759204864502 2.3023552894592285
33.94596862792969 7.721525192260742 0.5902941226959229
33.958683013916016 7.588895320892334 2.30133056640625
33.9651985168457 7.601393222808838 0.5884339809417725
33.96289825439453 7.465517520904541 2.299619197845459
33.969398498535156 7.4780097007751465 0.587823748588562
33.97760009765625 7.350769996643066 2.2976019382476807
33.97187423706055 7.360612392425537 0.5873393416404724
33.99318313598633 7.230076313018799 2.2954583168029785
33.98981857299805 7.240468978881836 0.5854776501655579
33.99854278564453 7.107317924499512 2.293661117553711
33.98784255981445 7.116204738616943 0.5852872133255005
34.02059555053711 6.988128185272217 2.2912564277648926
34.00004959106445 6.995053768157959 0.5838431119918823
34.00059509277344 6.860471248626709 2.290330410003662
34.01669692993164 6.874889373779297 0.5819792151451111
34.01069259643555 6.732931137084961 2.288235902786255
34.014549255371094 6.744879722595215 0.5816661715507507
34.00821304321289 6.615372180938721 2.286741018295288
34.012062072753906 6.627323150634766 0.5813949108123779
33.99909210205078 6.490566253662109 2.2853851318359375
34.01518249511719 6.504857540130615 0.5805801153182983
34.011619567871094 6.370041847229004 2.2832422256469727
34.000728607177734 6.379234790802002 0.5812374949455261
34.028629302978516 6.250411033630371 2.2809221744537354
33.99561309814453 6.255594730377197 0.5810565948486328
34.03538131713867 6.128967761993408 2.278953790664673
34.01455307006836 6.13648796081543 0.5787718296051025
34.04416275024414 6.0079874992370605 2.2768962383270264
34.02082443237305 6.015158176422119 0.5775387287139893
34.063385009765625 5.882778644561768 2.274359703063965
34.0350341796875 5.889194011688232 0.5755482316017151
34.05897521972656 5.759707927703857 2.272745370864868
34.042877197265625 5.768315315246582 0.5741036534309387
34.067928314208984 5.645130634307861 2.270723342895508
34.03948211669922 5.651760578155518 0.5736297369003296
34.06266403198242 5.522214412689209 2.269111156463623
34.039100646972656 5.529753684997559 0.572819709777832
34.059425354003906 5.3997931480407715 2.2674098014831543
34.05305099487305 5.410160541534424 0.5707416534423828
34.06561279296875 5.278991222381592 2.2653536796569824
34.05180358886719 5.288244247436523 0.5699326395988464
34.06890869140625 5.157837390899658 2.2633867263793945
34.06243896484375 5.168269157409668 0.5680644512176514
34.06683349609375 5.035996437072754 2.261599063873291
34.06526184082031 5.047189712524414 0.5668329000473022
34.07915496826172 4.916369915008545 2.259273052215576
34.07258224487305 4.9268646240234375 0.5651765465736389
34.089412689208984 4.790422439575195 2.256911039352417
34.072906494140625 4.799561500549316 0.5640319585800171
34.09592056274414 4.6700758934021 2.254763603210449
34.079349517822266 4.679282188415527 0.5623750686645508
34.11439514160156 4.551394939422607 2.2521631717681885
34.0804328918457 4.558355331420898 0.5611438155174255
34.10442352294922 4.43505334854126 2.2506842613220215
34.085262298583984 4.444066524505615 0.5596133470535278
34.134464263916016 4.3178935050964355 2.2476277351379395
34.090457916259766 4.323847770690918 0.5579560995101929
34.12442398071289 4.195701599121094 2.246023178100586
34.11006164550781 4.205474853515625 0.5550180673599243
34.10451889038086 4.084056377410889 0.5542141795158386
34.12080764770508 3.9653122425079346 0.5514874458312988
33.745609283447266 3.8024604320526123 0.5825698375701904
33.54096221923828 3.649561882019043 2.2595512866973877
33.38950729370117 3.6444363594055176 0.6119940876960754
33.54903793334961 3.526115894317627 2.257138252258301
33.36772537231445 3.5184214115142822 0.6124104857444763
33.57098388671875 3.4100286960601807 2.2542948722839355
33.30276870727539 3.3941409587860107 0.616600513458252
33.64225387573242 3.298703670501709 2.2496016025543213
33.343929290771484 3.280836820602417 0.6115671992301941
33.700164794921875 3.1916277408599854 2.245485782623291
33.282508850097656 3.163454532623291 0.6154623031616211
33.691097259521484 3.0721919536590576 2.2437400817871094
33.26087951660156 3.0443484783172607 0.6158026456832886
33.69902038574219 2.9543843269348145 2.2413463592529297
33.04032897949219 2.907973051071167 0.6333677172660828
33.704044342041016 2.8363492488861084 2.2390451431274414
32.638065338134766 2.75787615776062 0.6666938662528992
33.706172943115234 2.718113899230957 2.2368361949920654
32.89305114746094 2.6638600826263428 0.6429356932640076
33.70832061767578 2.5940165519714355 2.2345027923583984
33.32203674316406 2.575739622116089 0.6039097905158997
33.719566345214844 2.476552724838257 2.2319185733795166
32.876041412353516 2.4259345531463623 0.6409786939620972
33.71792984008789 2.358170986175537 2.229802370071411
32.993404388427734 2.318877696990967 0.6290364265441895
33.72547149658203 2.2463767528533936 2.2274351119995117
33.09016799926758 2.215477228164673 0.6189305782318115
33.715553283691406 2.1275720596313477 2.225600481033325
33.06019592285156 2.0976343154907227 0.6197328567504883
33.72016906738281 2.009754180908203 2.223203182220459
32.972618103027344 1.9766024351119995 0.6255250573158264
33.68696975708008 1.8898335695266724 2.222221851348877
15.821328163146973 0.8940951824188232 2.1198627948760986
33.69575500488281 1.772396445274353 2.219635248184204
15.809322357177734 0.8380932807922363 2.119994878768921
33.721595764160156 1.6557775735855103 2.2163827419281006
15.826963424682617 0.7836599946022034 2.1175217628479004
12.546780586242676 0.5734529495239258 3.021082878112793
15.829492568969727 0.7284281253814697 2.1163506507873535
12.583697319030762 0.5289393663406372 3.0187735557556152
15.834431648254395 0.6705308556556702 2.1149027347564697
12.48057746887207 0.4809997081756592 3.021852493286133
15.844029426574707 0.6155627965927124 2.11307692527771
19.31597900390625 0.7534980773925781 0.8496152758598328
12.462162971496582 0.4367472231388092 3.0216939449310303
15.845970153808594 0.5602725744247437 2.1119039058685303
19.325712203979492 0.6863592863082886 0.8471653461456299
12.443593978881836 0.3926289975643158 3.0215377807617188
15.857677459716797 0.5052918791770935 2.1098570823669434
12.532187461853027 0.3538278639316559 3.017300844192505
15.856671333312988 0.4526509642601013 2.108959674835205
19.31963539123535 0.5545709133148193 0.8457350730895996
12.61821460723877 0.3121799826622009 3.0131008625030518
15.868000984191895 0.3975658416748047 2.1069107055664062
19.336103439331055 0.48753058910369873 0.8422609567642212
12.61169147491455 0.2679869830608368 3.0124549865722656
15.864202499389648 0.3420865535736084 2.1061723232269287
33.781005859375 0.5964913964271545 2.1929280757904053
15.862701416015625 0.28668293356895447 2.105215072631836
33.80026626586914 0.4788499176502228 2.189746141433716
15.878434181213379 0.23154552280902863 2.102724552154541
33.794189453125 0.3549192547798157 2.187405586242676
15.881549835205078 0.1733940690755844 2.101269006729126
33.79012680053711 0.23695199191570282 2.1850931644439697
32.948341369628906 0.012636209838092327 0.5908728837966919
12.67162799835205 -0.0403238907456398 3.003659248352051
32.88323974609375 -0.09639257937669754 0.5942708849906921
12.741311073303223 -0.08502094447612762 2.9999778270721436
32.97213363647461 -0.21171696484088898 0.5839009284973145
12.780858993530273 -0.12989555299282074 2.997462749481201
33.08302688598633 -0.3278871178627014 0.5715343952178955
12.785280227661133 -0.174564391374588 2.996317148208618
32.854862213134766 -0.4402756094932556 0.5891530513763428
12.674650192260742 -0.21727780997753143 2.9996988773345947
32.83796691894531 -0.5546644926071167 0.5880377292633057
12.658784866333008 -0.2611948251724243 2.9993491172790527
33.70451354980469 -0.6870102286338806 0.5084748268127441
33.83504104614258 -0.819664716720581 2.1604666709899902
33.74151611328125 -0.805569052696228 0.5024315118789673
33.82919692993164 -0.943565845489502 2.157925605773926
33.576290130615234 -0.9247233271598816 0.5141869783401489
33.83807373046875 -1.0620050430297852 2.1549148559570312
33.117149353027344 -1.0277169942855835 0.552234411239624
33.85902404785156 -1.1809542179107666 2.1514041423797607
33.17535400390625 -1.1454225778579712 0.5442290902137756
33.330406188964844 -1.261427879333496 0.527682363986969
12.933972358703613 -0.5334699749946594 2.3454861640930176
12.546004295349121 -0.5656759142875671 2.996859550476074
12.94686508178711 -0.579268753528595 2.3431899547576904
12.688619613647461 -0.6165078282356262 2.990119218826294
33.31718444824219 -1.6103835105895996 0.5200217962265015
13.005654335021973 -0.6774654388427734 2.9763364791870117
13.14125919342041 -0.6799312829971313 2.323451280593872
13.01563835144043 -0.7235414981842041 2.9748659133911133
13.131254196166992 -0.7253691554069519 2.32314133644104
12.825965881347656 -0.757876455783844 2.9814469814300537
12.986860275268555 -0.7628402709960938 2.3348755836486816
12.939159393310547 -0.7576244473457336 1.6957623958587646
12.946005821228027 -0.7531658411026001 1.0423039197921753
12.909582138061523 -0.7527113556861877 0.3861164450645447
12.80560302734375 -0.8037689924240112 2.9811501502990723
12.92175006866455 -0.8065298199653625 2.3394405841827393
12.91390609741211 -0.8036360144615173 1.6978559494018555
12.911090850830078 -0.7986106872558594 1.0473495721817017
12.879803657531738 -0.7983376383781433 0.39155182242393494
12.0100679397583 -0.7957979440689087 3.0123305320739746
12.87652587890625 -0.848823070526123 2.342275619506836
12.930649757385254 -0.8499924540519714 1.6941320896148682
12.91048812866211 -0.8438123464584351 1.0459216833114624
12.905804634094238 -0.8451767563819885 0.38355928659439087
11.979763984680176 -0.8357867002487183 3.0125491619110107
12.908167839050293 -0.8961690664291382 2.338186264038086
12.148783683776855 -0.8880917429924011 3.0047035217285156
12.919937133789062 -0.9400403499603271 2.3359296321868896
12.200360298156738 -0.9346880316734314 3.0015628337860107
12.904072761535645 -0.9841688871383667 2.3360865116119385
12.460912704467773 -0.9984481334686279 2.989863872528076
12.888054847717285 -1.0281983613967896 2.336245059967041
12.519536972045898 -1.0471410751342773 2.9863853454589844
12.906625747680664 -1.0750272274017334 2.3332650661468506
12.436132431030273 -1.0838701725006104 2.988720655441284
12.429739952087402 -1.127035140991211 2.9878952503204346
12.754387855529785 -1.2485886812210083 2.972229242324829
33.663352966308594 -3.286904811859131 0.4426480829715729
12.787181854248047 -1.2968755960464478 2.969733476638794
33.6118049621582 -3.4003379344940186 0.44373971223831177
12.807374000549316 -1.3441013097763062 2.967747688293457
33.701026916503906 -3.528238296508789 0.4319867193698883
13.244582176208496 -1.436806082725525 2.9484076499938965
33.792240142822266 -3.657071113586426 0.4199944734573364
15.942889213562012 -1.7153080701828003 0.44327816367149353
13.366299629211426 -1.4948840141296387 2.9421916007995605
33.89105224609375 -3.7815017700195312 0.4074351191520691
15.946657180786133 -1.7692257165908813 0.4402725100517273
13.36095142364502 -1.5415184497833252 2.941192865371704
33.88483428955078 -3.9005932807922363 0.4042254686355591
15.94258975982666 -1.8251311779022217 0.43861252069473267
13.248788833618164 -1.575434923171997 2.9446589946746826
33.722434997558594 -4.001197814941406 0.4152633845806122
15.870046615600586 -1.872963786125183 0.45008203387260437
12.62582015991211 -1.5459685325622559 2.9695675373077393
33.80440902709961 -4.1306281089782715 0.4039152264595032
15.907055854797363 -1.9336607456207275 0.4404521882534027
12.553390502929688 -1.5815777778625488 2.9714369773864746
33.653690338134766 -4.23146915435791 0.41384705901145935
16.068099975585938 -2.0102016925811768 0.4068821966648102
33.98691177368164 -4.405990123748779 2.067070245742798
33.61872863769531 -4.346321105957031 0.4131445288658142
15.900012016296387 -2.045550584793091 0.4366655647754669
33.992698669433594 -4.53346586227417 2.0634591579437256
33.767677307128906 -4.491469860076904 0.39530131220817566
15.879992485046387 -2.1021716594696045 0.43776556849479675
34.00625228881836 -4.656128406524658 2.059659481048584
33.867496490478516 -4.6251115798950195 0.38210177421569824
15.796900749206543 -2.1473007202148438 0.45114293694496155
33.98557662963867 -4.768145561218262 2.0574522018432617
33.92078399658203 -4.747020721435547 0.3733312487602234
15.835676193237305 -2.206089973449707 0.4410898685455322
34.020538330078125 -4.894186496734619 2.052701473236084
33.96785354614258 -4.874554634094238 0.36487868428230286
16.053699493408203 -2.293651819229126 0.3961760401725769
34.003135681152344 -5.012876033782959 2.050154447555542
15.921464920043945 -2.331488847732544 0.4189636707305908
34.022369384765625 -5.137100696563721 2.0460264682769775
15.862001419067383 -2.379368305206299 0.42765384912490845
34.01399230957031 -5.257321834564209 2.043056011199951
34.0028076171875 -5.243527412414551 0.34904471039772034
15.836379051208496 -2.43208384513855 0.4297613501548767
34.01998519897461 -5.379889965057373 2.0394489765167236
33.98897933959961 -5.362921714782715 0.3460416793823242
15.844539642333984 -2.4899914264678955 0.42527860403060913
34.03047561645508 -5.503361701965332 2.035628080368042
34.006690979003906 -5.487441539764404 0.3400692939758301
15.804004669189453 -2.540187358856201 0.430215984582901
34.00083923339844 -5.61443567276001 0.3360222280025482
15.82341480255127 -2.6028518676757812 0.4233172535896301
33.99797439575195 -5.735944747924805 0.3318732976913452
15.755892753601074 -2.648268699645996 0.4334467947483063
34.065608978271484 -5.881822109222412 2.023695707321167
34.004493713378906 -5.859193801879883 0.32680651545524597
15.714863777160645 -2.6978189945220947 0.43839743733406067
34.06303405761719 -5.997756481170654 2.020521640777588
34.076194763183594 -6.122774124145508 2.0164694786071777
34.074153900146484 -6.245253086090088 2.0130560398101807
15.82322883605957 -2.8845267295837402 0.4080079197883606
34.115867614746094 -6.37605619430542 2.007708787918091
34.0247688293457 -6.3469438552856445 0.30686551332473755
15.950403213500977 -2.965308427810669 0.37989485263824463
34.066307067871094 -6.489926338195801 2.0063319206237793
33.982601165771484 -6.461910247802734 0.30615103244781494
16.11579132080078 -3.0543322563171387 0.3442010283470154
34.08256149291992 -6.6163835525512695 2.002051591873169
33.99137496948242 -6.586607933044434 0.3006094992160797
16.027664184570312 -3.0956335067749023 0.3581189215183258
34.05424118041992 -6.734309673309326 1.999707579612732
34.04364013671875 -6.720127105712891 0.2909211218357086
16.06710433959961 -3.1614930629730225 0.34698471426963806
34.0194206237793 -6.857069492340088 1.997455358505249
34.038055419921875 -6.848742961883545 0.28639376163482666
16.084043502807617 -3.226127862930298 0.3400402069091797
33.97313690185547 -6.971222877502441 1.9958746433258057
33.97468566894531 -6.959478855133057 0.2875267267227173
16.175859451293945 -3.303356885910034 0.31848087906837463
33.93382263183594 -7.086670875549316 1.9939730167388916
33.896331787109375 -7.066807270050049 0.2900514006614685
16.13515281677246 -3.3537745475769043 0.32294726371765137
33.91120529174805 -7.205563068389893 1.9913147687911987
33.9150505065918 -7.194343090057373 0.2833471894264221
16.130308151245117 -3.4115729331970215 0.32031378149986267
33.89434051513672 -7.319526672363281 1.9885671138763428
33.86887741088867 -7.302005767822266 0.2830062210559845
16.19307518005371 -3.4810190200805664 0.304473876953125
33.912384033203125 -7.447406768798828 1.9840569496154785
33.84537124633789 -7.420677185058594 0.28022822737693787
16.13022804260254 -3.5264782905578613 0.3132108747959137
33.90312957763672 -7.569514274597168 1.9807429313659668
16.11039161682129 -3.5811355113983154 0.31342026591300964
33.92509841918945 -7.698835372924805 1.976006031036377
16.114309310913086 -3.6411097049713135 0.30888843536376953
33.87980651855469 -7.806772708892822 1.9744579792022705
33.977508544921875 -7.817239284515381 0.2525538206100464
16.130624771118164 -3.7010905742645264 0.3020423650741577
33.859527587890625 -7.926661014556885 1.9715793132781982
33.99582290649414 -7.946521282196045 0.24558867514133453
16.122150421142578 -3.7584614753723145 0.29987940192222595
33.89573287963867 -8.066288948059082 1.9659370183944702
34.02676010131836 -8.08541488647461 0.237096905708313
33.88182067871094 -8.188044548034668 1.9627243280410767
34.04890060424805 -8.216361999511719 0.22965559363365173
33.93053436279297 -8.325279235839844 1.9566453695297241
34.053611755371094 -8.343417167663574 0.22383561730384827
34.019901275634766 -8.473217010498047 1.94867742061615
34.07234573364258 -8.474210739135742 0.2166159600019455
34.08686065673828 -8.616371154785156 1.9416896104812622
34.073692321777344 -8.600972175598145 0.21102149784564972
34.10483932495117 -8.747682571411133 1.9369049072265625
34.09867477416992 -8.734025001525879 0.20309174060821533
34.11507034301758 -8.877337455749512 1.932447910308838
34.11350631713867 -8.864852905273438 0.19608955085277557
34.11756896972656 -9.005258560180664 1.928320050239563
34.14950180053711 -9.001602172851562 0.1869806945323944
34.138885498046875 -9.138472557067871 1.923297643661499
34.14167022705078 -9.1271390914917 0.18206912279129028
34.128353118896484 -9.263437271118164 1.9197196960449219
34.12858200073242 -9.25142765045166 0.17762380838394165
34.13422393798828 -9.393080711364746 1.9153581857681274
34.105430603027344 -9.373098373413086 0.17411386966705322
34.13071060180664 -9.526819229125977 1.9111994504928589
34.094566345214844 -9.504677772521973 0.1690697968006134
34.13798522949219 -9.657423973083496 1.9067184925079346
34.06572723388672 -9.624942779541016 0.16602849960327148
34.13687515258789 -9.779487609863281 1.9028111696243286
34.064491271972656 -9.74671745300293 0.1605364978313446
34.135990142822266 -9.90830135345459 1.8986597061157227
34.07304382324219 -9.877998352050781 0.1537393480539322
34.141170501708984 -10.032681465148926 1.8944088220596313
34.08046340942383 -10.002813339233398 0.14730113744735718
34.147125244140625 -10.17054557800293 1.8896713256835938
34.07432556152344 -10.136839866638184 0.14154262840747833
34.125648498535156 -10.29397201538086 1.886413812637329
33.981292724609375 -10.238441467285156 0.1446167528629303
19.763349533081055 -5.9503703117370605 0.522391140460968
34.14670944213867 -10.43050765991211 1.8811193704605103
33.968902587890625 -10.364215850830078 0.13969430327415466
19.623899459838867 -5.983198642730713 0.5387601852416992
34.15530776977539 -10.563628196716309 1.8763846158981323
34.01312255859375 -10.50766658782959 0.12911343574523926
