# .PCD v0.7 - Point Cloud Data file format
VERSION 0.7
FIELDS x y z
SIZE 4 4 4
TYPE F F F
COUNT 1 1 1
WIDTH 852
HEIGHT 1
VIEWPOINT 0 0 0 1 0 0 0
POINTS 852
DATA ascii
14.144935607910156 8.306208610534668 0.6899950504302979
14.185874938964844 8.213879585266113 0.6901583075523376
14.218523979187012 8.116966247558594 0.6919092535972595
14.278820991516113 8.035890579223633 0.6878142356872559
14.344680786132812 7.957719802856445 0.6824690103530884
14.720969200134277 8.04903507232666 0.6132904291152954
15.143936157226562 8.160304069519043 0.5347978472709656
15.434069633483887 8.1951322555542 0.48371613025665283
15.72393798828125 0.5459919571876526 0.6499163508415222
12.884568214416504 -0.659925103187561 1.1629290580749512
12.860350608825684 -0.7378094792366028 1.1650104522705078
12.861146926879883 -0.8170399069786072 1.162196159362793
16.047515869140625 -1.6138917207717896 0.5269577503204346
16.00566864013672 -1.708945631980896 0.5309122800827026
15.990582466125488 -1.806633710861206 0.5295690298080444
15.98854923248291 -1.9058295488357544 0.5255724787712097
16.008302688598633 -2.0078792572021484 0.5172094702720642
15.771400451660156 -2.076558828353882 0.558783233165741
15.825077056884766 -2.182493209838867 0.5435978174209595
15.917880058288574 -2.2949068546295166 0.5205991864204407
15.7933988571167 -2.3759913444519043 0.5400074124336243
15.954647064208984 -2.500455379486084 0.5032730102539062
15.809741020202637 -2.5772595405578613 0.5265148282051086
16.392356872558594 -2.7755661010742188 0.40640732645988464
16.29346466064453 -2.964996576309204 0.41449910402297974
16.206064224243164 -3.051973581314087 0.4259157180786133
16.240577697753906 -3.1618053913116455 0.41307199001312256
16.09632682800293 -3.2363977432250977 0.4356076121330261
16.076719284057617 -3.335252285003662 0.4332914650440216
16.134248733520508 -3.450611114501953 0.4154607355594635
16.26284408569336 -3.5826334953308105 0.3832343518733978
16.12049674987793 -3.6551849842071533 0.4050620198249817
16.06007957458496 -3.745290756225586 0.41041672229766846
16.15431022644043 -5.596296787261963 0.253585547208786
16.149765014648438 -5.7060441970825195 0.24502728879451752
16.192466735839844 -5.833232402801514 0.22635981440544128
16.171592712402344 -5.938173770904541 0.22089749574661255
16.19137954711914 -6.058547019958496 0.2066798359155655
16.093891143798828 -6.135024547576904 0.2171757072210312
16.098487854003906 -6.250290393829346 0.20587335526943207
12.674715995788574 12.888328552246094 0.36689120531082153
12.684395790100098 12.741312980651855 0.38296037912368774
12.673201560974121 12.575255393981934 0.4040227234363556
12.71877384185791 12.466992378234863 0.41030582785606384
12.689279556274414 12.286763191223145 0.43530580401420593
12.802395820617676 12.24544620513916 0.424111932516098
13.378164291381836 12.640462875366211 0.2974350154399872
12.812747955322266 11.958597183227539 0.4552287459373474
12.865926742553711 11.86178970336914 0.458471417427063
12.903854370117188 11.75152587890625 0.46528297662734985
12.932872772216797 11.634004592895508 0.4740605056285858
12.988883018493652 11.541402816772461 0.4760397970676422
13.02428150177002 11.431025505065918 0.48284605145454407
13.046182632446289 11.30968952178955 0.49269551038742065
13.081286430358887 11.200674057006836 0.49914270639419556
13.111039161682129 11.087839126586914 0.5066640377044678
13.155003547668457 10.987674713134766 0.5105984807014465
13.190646171569824 10.881124496459961 0.5163237452507019
13.221665382385254 10.771442413330078 0.5229451060295105
13.254904747009277 10.664254188537598 0.5288475155830383
13.296570777893066 10.564406394958496 0.5325916409492493
13.336739540100098 10.463838577270508 0.5365124344825745
13.376955032348633 10.363777160644531 0.5402501821517944
13.418787956237793 10.26540756225586 0.5434447526931763
13.4559965133667 10.163949012756348 0.5475365519523621
13.498774528503418 10.067121505737305 0.5501836538314819
13.528200149536133 9.96081829071045 0.5557122826576233
13.563196182250977 9.859158515930176 0.5597968697547913
13.608642578125 9.765472412109375 0.5613518357276917
13.618943214416504 9.647146224975586 0.5706688165664673
13.691980361938477 9.573591232299805 0.5657125115394592
13.652119636535645 9.421835899353027 0.5858789086341858
13.95798110961914 9.50738525390625 0.5288060307502747
14.028698921203613 9.430387496948242 0.5241609811782837
13.795793533325195 9.151689529418945 0.5865229964256287
13.837295532226562 9.057755470275879 0.5878737568855286
13.875687599182129 8.962051391601562 0.5897640585899353
13.916743278503418 8.868331909179688 0.5909251570701599
14.2002534866333 8.927299499511719 0.5390705466270447
14.061320304870605 8.720301628112793 0.5792469382286072
14.016018867492676 8.57385540008545 0.5987443327903748
14.05280590057373 8.478591918945312 0.6002543568611145
14.090642929077148 8.384204864501953 0.6013970375061035
13.990474700927734 8.209040641784668 0.6320313811302185
14.206132888793945 8.219125747680664 0.5947436094284058
14.221735000610352 8.112356185913086 0.6002442836761475
14.267413139343262 8.023058891296387 0.5991803407669067
14.457850456237793 8.014076232910156 0.5672670006752014
14.69615364074707 8.028985977172852 0.525267481803894
15.121271133422852 8.141497611999512 0.4439277648925781
15.246073722839355 8.088705062866211 0.4261110723018646
15.305449485778809 8.000519752502441 0.42198798060417175
15.722405433654785 0.540818989276886 0.561919629573822
12.855340003967285 -0.7418597340583801 1.0935900211334229
12.856095314025879 -0.8210598826408386 1.0907444953918457
15.942292213439941 -1.7074081897735596 0.4529774785041809
15.978863716125488 -1.8105522394180298 0.4413376748561859
15.997235298156738 -1.9121185541152954 0.4331951439380646
15.967275619506836 -2.007990598678589 0.4346051812171936
15.73157787322998 -2.0765159130096436 0.47721216082572937
15.709393501281738 -2.171748161315918 0.4769018292427063
16.007915496826172 -2.3131725788116455 0.4118925631046295
15.808757781982422 -2.383547306060791 0.44695138931274414
15.769207954406738 -2.476654052734375 0.4497639834880829
15.733951568603516 -2.570157766342163 0.4516046345233917
16.02006721496582 -3.022336721420288 0.37086451053619385
16.17115020751953 -3.153726100921631 0.3339715301990509
16.136653900146484 -3.249939203262329 0.3347870409488678
16.13422966003418 -3.352628707885742 0.3289188742637634
16.23468780517578 -3.4775779247283936 0.3017851412296295
16.09868812561035 -3.5519542694091797 0.323083758354187
16.115367889404297 -3.659513473510742 0.3128741979598999
16.038726806640625 -3.745797634124756 0.3217898905277252
15.946381568908691 -3.8276233673095703 0.33388057351112366
16.26824188232422 -5.641679763793945 0.13238342106342316
16.219942092895508 -5.73676872253418 0.1330111175775528
16.21625518798828 -5.847762584686279 0.12386409938335419
16.193422317504883 -5.9521708488464355 0.11870770901441574
16.13688087463379 -6.044153690338135 0.12074702233076096
16.123762130737305 -6.152430057525635 0.11319585144519806
12.674363136291504 12.758101463317871 0.2656290829181671
12.716409683227539 12.644795417785645 0.27347075939178467
12.63693904876709 12.412992477416992 0.3130214214324951
12.654580116271973 12.279143333435059 0.32659244537353516
12.729242324829102 12.201311111450195 0.3250349164009094
12.984699249267578 12.294650077819824 0.27657225728034973
12.854156494140625 12.022795677185059 0.32779979705810547
12.883208274841309 11.90306282043457 0.33748722076416016
12.925798416137695 11.796672821044922 0.34347769618034363
12.96902847290039 11.691523551940918 0.3490954637527466
13.015863418579102 11.590206146240234 0.3535999059677124
13.039068222045898 11.468634605407715 0.363840252161026
13.07982349395752 11.363323211669922 0.3694513440132141
13.12574577331543 11.2630615234375 0.37357714772224426
13.153690338134766 11.148051261901855 0.38196396827697754
13.199559211730957 11.0488862991333 0.3857133388519287
13.227289199829102 10.935176849365234 0.39372768998146057
13.24194622039795 10.811599731445312 0.4047141969203949
13.263238906860352 10.694418907165527 0.4138459265232086
13.287440299987793 10.5804443359375 0.4220501482486725
13.317696571350098 10.472038269042969 0.42858126759529114
13.35721492767334 10.371492385864258 0.4326925575733185
13.398344039916992 10.272645950317383 0.4362424314022064
13.441112518310547 10.175461769104004 0.43922990560531616
13.483983039855957 10.078726768493652 0.44202718138694763
13.50957202911377 9.969595909118652 0.4487367868423462
13.541479110717773 9.865735054016113 0.4537672698497772
13.582194328308105 9.768738746643066 0.4565563201904297
13.630240440368652 9.677299499511719 0.45747366547584534
13.684918403625488 9.590710639953613 0.4567035734653473
13.789135932922363 9.538460731506348 0.44433289766311646
14.120391845703125 9.640372276306152 0.379557728767395
13.717741966247559 9.242927551269531 0.4837384521961212
13.825313568115234 9.192893028259277 0.47021979093551636
13.892538070678711 9.115478515625 0.4658624827861786
13.929645538330078 9.018365859985352 0.4682444930076599
13.900691986083984 8.879369735717773 0.48544371128082275
13.95283317565918 8.79290771484375 0.4840731620788574
14.382316589355469 8.941038131713867 0.3976173400878906
13.996050834655762 8.582610130310059 0.49465230107307434
14.037948608398438 8.490516662597656 0.4951477646827698
14.069121360778809 8.392192840576172 0.49789613485336304
14.114008903503418 8.302268028259277 0.4974421262741089
14.17021656036377 8.219005584716797 0.49434563517570496
14.201208114624023 8.121224403381348 0.4967053532600403
14.277732849121094 8.049412727355957 0.48888057470321655
14.301543235778809 7.947867393493652 0.49255040287971497
14.719120979309082 8.06238842010498 0.4097627103328705
14.861215591430664 8.022346496582031 0.3875049650669098
15.163750648498535 8.066170692443848 0.330253928899765
15.716962814331055 0.5582932829856873 0.4606226980686188
12.899422645568848 -0.6500651240348816 1.0036345720291138
12.851810455322266 -0.7267273664474487 1.0107392072677612
12.848729133605957 -0.805653989315033 1.008656620979309
16.029117584228516 -1.5991545915603638 0.33538416028022766
15.984484672546387 -1.693813681602478 0.34031036496162415
15.99381160736084 -1.7941049337387085 0.3339913785457611
15.807952880859375 -1.8715386390686035 0.367888867855072
15.996963500976562 -1.9935287237167358 0.32415705919265747
15.756736755371094 -2.0618529319763184 0.3691732585430145
16.01799774169922 -2.196104049682617 0.3100808262825012
15.793402671813965 -2.2641313076019287 0.35172468423843384
15.778794288635254 -2.3609459400177 0.34964674711227417
15.756815910339355 -2.4566128253936768 0.34898361563682556
15.607614517211914 -2.531557083129883 0.3747844994068146
15.633864402770996 -2.6343882083892822 0.36383548378944397
16.08776092529297 -2.8125298023223877 0.2630765736103058
15.93775463104248 -2.887220859527588 0.2886822521686554
15.980911254882812 -2.996460437774658 0.2736203670501709
16.00313377380371 -3.1024255752563477 0.26279959082603455
16.061140060424805 -3.216085195541382 0.2442643642425537
16.047382354736328 -3.315910816192627 0.24072429537773132
16.065568923950195 -3.422628879547119 0.23028156161308289
16.04191780090332 -3.520670175552368 0.2285660058259964
16.061601638793945 -3.62847900390625 0.2175026386976242
16.056718826293945 -3.7311227321624756 0.21151486039161682
12.668412208557129 12.588329315185547 0.17426113784313202
12.619545936584473 12.387308120727539 0.20678071677684784
12.651866912841797 12.2680025100708 0.21684646606445312
12.99746322631836 11.853889465332031 0.21487540006637573
13.021361351013184 11.730599403381348 0.22587519884109497
13.071372985839844 11.631603240966797 0.2298068404197693
13.088223457336426 11.503921508789062 0.2421453446149826
13.118827819824219 11.389339447021484 0.2506617605686188
13.144052505493164 11.270979881286621 0.2603265345096588
13.183302879333496 11.165422439575195 0.26616403460502625
13.199170112609863 11.040916442871094 0.2777448296546936
13.230656623840332 10.930386543273926 0.2851135730743408
13.270413398742676 10.8273286819458 0.29018083214759827
13.301763534545898 10.718035697937012 0.2971636652946472
13.337650299072266 10.613040924072266 0.3028026223182678
13.374297142028809 10.5092191696167 0.3080553710460663
13.411724090576172 10.406548500061035 0.3129221796989441
13.447617530822754 10.303217887878418 0.31797850131988525
13.489011764526367 10.204570770263672 0.3214944899082184
13.508475303649902 10.089944839477539 0.3302018344402313
13.557055473327637 9.997596740722656 0.3315962255001068
13.575660705566406 9.883660316467285 0.34011077880859375
13.616488456726074 9.786476135253906 0.3430396020412445
13.655036926269531 9.68802547454834 0.34634989500045776
13.699320793151855 9.593972206115723 0.34811440110206604
13.740543365478516 9.498064041137695 0.3504530191421509
13.79171085357666 9.286083221435547 0.36207321286201477
13.84390926361084 9.198616027832031 0.36131104826927185
13.871760368347168 9.095253944396973 0.3661506474018097
13.901337623596191 8.993492126464844 0.3704085946083069
13.94011402130127 8.898041725158691 0.37234190106391907
13.964129447937012 8.793566703796387 0.37756431102752686
14.019058227539062 8.708799362182617 0.3754217326641083
14.037503242492676 8.601648330688477 0.3816097676753998
14.082030296325684 8.510833740234375 0.3815900683403015
14.122602462768555 8.417784690856934 0.3823414146900177
14.16171646118164 8.324058532714844 0.3832821547985077
14.201910972595215 8.231151580810547 0.3838302791118622
14.218503952026367 8.124920845031738 0.38962337374687195
14.325774192810059 8.070310592651367 0.3746003806591034
14.364301681518555 7.976590633392334 0.3751288652420044
14.511488914489746 7.942508220672607 0.3509170114994049
15.735647201538086 0.5540846586227417 0.3566364347934723
12.896636009216309 -0.6540628671646118 0.921901524066925
12.850997924804688 -0.7308103442192078 0.9288581609725952
12.852761268615723 -0.8100391030311584 0.9257344603538513
16.170879364013672 -1.6183184385299683 0.20249667763710022
16.01426887512207 -1.7019543647766113 0.23140035569667816
15.801839828491211 -1.7775014638900757 0.2721392810344696
15.760087966918945 -1.870802402496338 0.2764839231967926
15.899320602416992 -1.9863340854644775 0.2420874387025833
15.796192169189453 -2.0719730854034424 0.25928130745887756
16.003711700439453 -2.199165105819702 0.2099006175994873
15.934288024902344 -2.289341688156128 0.21962901949882507
15.845982551574707 -2.375997543334961 0.23332005739212036
15.792012214660645 -2.4670934677124023 0.23954883217811584
15.933514595031738 -2.589465618133545 0.20356857776641846
16.041303634643555 -2.7081329822540283 0.17462371289730072
16.059589385986328 -2.8127005100250244 0.16480542719364166
16.155139923095703 -2.9317402839660645 0.13810166716575623
16.019132614135742 -3.008737325668335 0.161407932639122
15.987446784973145 -3.1044979095458984 0.16200658679008484
16.011760711669922 -3.2113306522369385 0.1502949744462967
15.999930381774902 -3.311248779296875 0.14630170166492462
15.973125457763672 -3.4080848693847656 0.1454431712627411
12.657995223999023 12.273847579956055 0.10979561507701874
13.757378578186035 9.634791374206543 0.23365820944309235
13.802082061767578 9.540769577026367 0.23531344532966614
13.803414344787598 9.294137001037598 0.25968706607818604
13.827902793884277 9.188158988952637 0.2657155990600586
13.854889869689941 9.08437728881836 0.2709481418132782
13.89346981048584 8.988594055175781 0.2731925845146179
13.944611549377441 8.901114463806152 0.27224549651145935
14.067156791687012 8.620041847229004 0.27594852447509766
14.121016502380371 8.534625053405762 0.2737794816493988
14.174355506896973 8.448870658874512 0.27160272002220154
14.218727111816406 8.357815742492676 0.2714167535305023
14.259125709533691 8.264565467834473 0.27202510833740234
14.29891586303711 8.171130180358887 0.2726288139820099
16.172380447387695 0.768684983253479 0.17098049819469452
15.737032890319824 0.5546346306800842 0.2616889178752899
12.890603065490723 -0.653486430644989 0.8455436825752258
12.856719017028809 -0.7308672070503235 0.8501999974250793
12.856512069702148 -0.8100064992904663 0.8474595546722412
15.81284236907959 -1.9750059843063354 0.16463172435760498
15.73410701751709 -2.063310384750366 0.17703577876091003
15.823309898376465 -2.1738510131835938 0.15237835049629211
15.80922794342041 -2.2708489894866943 0.1502973884344101
15.869913101196289 -2.3790502548217773 0.1315755397081375
15.893179893493652 -2.4823575019836426 0.12094733864068985
15.771036148071289 -2.661985158920288 0.13664159178733826
13.801783561706543 9.286121368408203 0.1670241802930832
13.849071502685547 9.195350646972656 0.16754114627838135
13.863836288452148 9.083420753479004 0.17602179944515228
13.87692928314209 8.971122741699219 0.18470913171768188
13.94115924835205 8.892172813415527 0.18051238358020782
13.96766471862793 8.789305686950684 0.1855149120092392
14.062177658081055 8.259315490722656 0.21708427369594574
15.744065284729004 0.5497757792472839 0.1709168553352356
12.859710693359375 -0.7353599667549133 0.7764315009117126
12.856538772583008 -0.8143333196640015 0.7743142247200012
15.655367851257324 -1.8630019426345825 0.11429174989461899
15.666431427001953 -1.9618827104568481 0.106999471783638
15.640100479125977 -2.056142807006836 0.10799645632505417
12.855149269104004 -0.7202510833740234 0.6977725028991699
12.852058410644531 -0.7991939783096313 0.6956446170806885
12.850266456604004 -0.7263344526290894 0.6159264445304871
12.8510103225708 -0.8054907321929932 0.6128727793693542
12.840087890625 -0.7231798768043518 0.5378652215003967
12.84859561920166 -0.8027552962303162 0.5329033732414246
12.825499534606934 -0.7244648337364197 0.4701187014579773
12.830096244812012 -0.8037083148956299 0.46604523062705994
12.832897186279297 -0.7145736217498779 0.3901137113571167
12.8452730178833 -0.7943339943885803 0.3840233087539673
12.830592155456543 -0.7162368297576904 0.3047003448009491
12.847748756408691 -0.7962812185287476 0.29724496603012085
12.824904441833496 -0.7133753299713135 0.2272825837135315
12.870973587036133 -0.795161247253418 0.21199940145015717
12.814929008483887 -0.7171987295150757 0.16019733250141144
12.866677284240723 -0.7992907166481018 0.14308637380599976
12.663623809814453 12.739070892333984 1.2910443544387817
12.685009956359863 12.672012329101562 1.2941313982009888
12.788324356079102 12.775533676147461 0.37077105045318604
12.700372695922852 12.60368537902832 1.2978729009628296
12.786667823791504 12.689704895019531 0.38059356808662415
12.726434707641602 12.541878700256348 1.3000428676605225
12.692025184631348 12.508431434631348 0.413428395986557
12.739808082580566 12.467899322509766 1.304352045059204
12.719520568847656 12.448573112487793 0.41638511419296265
12.768834114074707 12.409540176391602 1.3059087991714478
12.785470008850098 12.335118293762207 1.3098677396774292
12.803187370300293 12.266406059265137 1.3132597208023071
31.027454376220703 29.526315689086914 0.33492347598075867
12.824175834655762 12.201138496398926 1.3160392045974731
31.077835083007812 29.37877082824707 0.3376542031764984
12.844558715820312 12.139819145202637 1.3185566663742065
31.074495315551758 29.171180725097656 0.3461786210536957
12.86315631866455 12.072858810424805 1.3216418027877808
12.889748573303223 12.098719596862793 0.43153586983680725
32.349151611328125 30.154800415039062 2.3992977142333984
31.128454208374023 29.018373489379883 0.3488016426563263
12.894152641296387 12.017756462097168 1.3225805759429932
12.926253318786621 12.048641204833984 0.4319164752960205
32.42108917236328 30.011173248291016 2.3981521129608154
31.145130157470703 28.8316707611084 0.3551183044910431
12.908530235290527 11.947417259216309 1.326278567314148
12.948101997375488 11.985067367553711 0.4357191026210785
32.47954177856445 29.85556983947754 2.39743971824646
31.214113235473633 28.694133758544922 0.35607802867889404
12.928053855895996 11.882159233093262 1.3290562629699707
12.969666481018066 11.921489715576172 0.43952131271362305
32.52806854248047 29.691497802734375 2.3970377445220947
31.302772521972656 28.57495880126953 0.3549986779689789
12.952781677246094 11.821928977966309 1.3309125900268555
12.98730754852295 11.854582786560059 0.4441792666912079
32.55506134033203 29.498273849487305 2.3973991870880127
13.031593322753906 11.809948921203613 2.1941308975219727
12.971932411193848 11.7527437210083 1.3339513540267944
13.017637252807617 11.795354843139648 0.44622135162353516
32.51466369628906 29.255775451660156 2.3999500274658203
13.052239418029785 11.746062278747559 2.19525408744812
12.999788284301758 11.695796966552734 1.3351918458938599
13.034683227539062 11.7284517288208 0.45087912678718567
32.48094940185547 29.03124237060547 2.402186632156372
13.064986228942871 11.67947006225586 2.196978807449341
13.016135215759277 11.632806777954102 1.3380134105682373
13.060419082641602 11.673697471618652 0.4530103802680969
32.462345123291016 28.81154441833496 2.4039416313171387
13.086915969848633 11.617259979248047 2.197916269302368
13.030505180358887 11.564269065856934 1.3414047956466675
13.076899528503418 11.606810569763184 0.4576673209667206
32.532615661621094 28.67165184020996 2.4026710987091064
13.104832649230957 11.55174446105957 2.1992244720458984
13.057583808898926 11.507251739501953 1.3426425457000732
13.096765518188477 11.543205261230469 0.4614667296409607
32.5797233581543 28.511863708496094 2.4021568298339844
13.129953384399414 11.49281120300293 2.19978928565979
13.078824043273926 11.445286750793457 1.3448026180267334
13.116349220275879 11.479602813720703 0.4652657210826874
32.598533630371094 28.33811378479004 2.4025185108184814
13.147188186645508 11.431229591369629 2.2009570598602295
13.099687576293945 11.387226104736328 1.3467001914978027
13.141106605529785 11.424758911132812 0.46739399433135986
32.60822296142578 28.147430419921875 2.4032139778137207
13.166139602661133 11.367365837097168 2.2020785808563232
13.124154090881348 11.328482627868652 1.3482428789138794
13.156425476074219 11.357922554016113 0.47205036878585815
32.59421157836914 27.93751335144043 2.4046781063079834
13.192377090454102 11.309999465942383 2.2024552822113037
13.142720222473145 11.264863967895508 1.350709319114685
13.184531211853027 11.302337646484375 0.4737012982368469
32.622032165527344 27.754735946655273 2.404758930206299
13.212737083435059 11.243816375732422 2.203529119491577
13.170506477355957 11.205387115478516 1.3518955707550049
13.208733558654785 11.23960018157959 0.4765925109386444
32.62887954711914 27.564922332763672 2.405468225479126
13.232749938964844 11.181553840637207 2.204463005065918
13.190414428710938 11.14335823059082 1.3540527820587158
13.22883415222168 11.177557945251465 0.47995927929878235
32.64436721801758 27.383438110351562 2.405862808227539
13.26012897491455 11.125699996948242 2.2046499252319336
13.206244468688965 11.078137397766113 1.3568264245986938
13.252435684204102 11.11867618560791 0.48246628046035767
32.64170455932617 27.187782287597656 2.4068386554718018
13.283447265625 11.066597938537598 2.2052090167999268
13.227502822875977 11.017704963684082 1.3586738109588623
13.264433860778809 11.05030632019043 0.48755165934562683
32.66889190673828 27.01796531677246 2.4067909717559814
13.300751686096191 11.002699851989746 2.2063276767730713
13.252323150634766 10.960417747497559 1.35990309715271
13.283709526062012 10.988266944885254 0.4909175634384155
32.67211151123047 26.829256057739258 2.4075193405151367
13.31969928741455 10.940401077270508 2.207259178161621
13.27690601348877 10.903092384338379 1.361131191253662
13.310324668884277 10.932476997375488 0.49256226420402527
32.6879768371582 26.65191078186035 2.4078006744384766
13.33837604522705 10.878104209899902 2.208190441131592
13.299327850341797 10.844161987304688 1.3626673221588135
13.329081535339355 10.87041187286377 0.4959266483783722
32.692073822021484 26.45649528503418 2.408489227294922
13.362537384033203 10.81661319732666 2.2086997032165527
13.311800956726074 10.773519515991211 1.3660112619400024
13.355183601379395 10.810667991638184 0.49795234203338623
32.70618438720703 26.27963638305664 2.408777952194214
13.384552955627441 10.757426261901855 2.2092552185058594
13.331748008728027 10.71302318572998 1.3678560256958008
13.375322341918945 10.75012493133545 0.5008850693702698
32.709693908691406 26.0952091217041 2.409396171569824
13.406320571899414 10.69821834564209 2.2098100185394287
13.347556114196777 10.649426460266113 1.3703187704086304
13.39712905883789 10.691109657287598 0.5033867359161377
32.715633392333984 25.922992706298828 2.409874200820923
13.416218757629395 10.633593559265137 2.2113494873046875
13.36707592010498 10.592801094055176 1.3719003200531006
13.412981986999512 10.631353378295898 0.5067964792251587
32.715457916259766 25.737590789794922 2.4105682373046875
13.445306777954102 10.580547332763672 2.2111523151397705
13.388198852539062 10.53382682800293 1.3734335899353027
13.430419921875 10.569266319274902 0.510158896446228
32.728179931640625 25.563270568847656 2.410809278488159
13.464366912841797 10.519755363464355 2.21189284324646
13.414938926696777 10.479414939880371 1.3740367889404297
13.443707466125488 10.504154205322266 0.5143836736679077
32.7440299987793 25.392244338989258 2.410921812057495
13.485135078430176 10.46048641204834 2.212445020675659
13.429699897766113 10.415824890136719 1.3764985799789429
13.468381881713867 10.448132514953613 0.5160204172134399
32.74126052856445 25.207691192626953 2.4116299152374268
13.50762939453125 10.40272331237793 2.212808132171631
13.454009056091309 10.359823226928711 1.3774093389511108
13.483071327209473 10.384553909301758 0.519813597202301
32.773345947265625 25.05078887939453 2.4111578464508057
13.521963119506836 10.338871002197266 2.213923931121826
13.478093147277832 10.303780555725098 1.3783191442489624
13.509218215942383 10.329974174499512 0.5210171341896057
32.77288818359375 24.869800567626953 2.4117431640625
13.54991626739502 10.285595893859863 2.2137203216552734
13.49799633026123 10.244694709777832 1.3798487186431885
13.525345802307129 10.267892837524414 0.5243780612945557
32.76757049560547 24.68610954284668 2.412466526031494
13.565715789794922 10.223252296447754 2.214646816253662
13.511707305908203 10.181118965148926 1.3823096752166748
13.54906940460205 10.211750984191895 0.5260108709335327
32.75163269042969 24.486568450927734 2.4135444164276123
13.585012435913086 10.160045623779297 2.215336322784424
13.530871391296387 10.118180274963379 1.3841010332107544
13.582213401794434 10.159097671508789 0.5258668065071106
32.732444763183594 24.294679641723633 2.414680004119873
13.60827350616455 10.10366439819336 2.2155067920684814
13.550002098083496 10.059081077575684 1.3856291770935059
13.589678764343262 10.091102600097656 0.5309546589851379
32.573490142822266 24.000938415527344 2.420421838760376
13.619267463684082 10.038372039794922 2.216810703277588
13.57287883758545 10.002914428710938 1.3865348100662231
13.634495735168457 10.050933837890625 0.5278289914131165
32.457157135009766 23.749677658081055 2.424703598022461
13.644330978393555 9.987282752990723 2.2166495323181152
13.595799446105957 9.950545310974121 1.3871761560440063
13.64765739440918 9.991145133972168 0.5312350988388062
32.450782775878906 23.571643829345703 2.4253437519073486
13.66487979888916 9.929352760314941 2.2170069217681885
13.624259948730469 9.898674011230469 1.3871451616287231
32.5043830871582 23.43779754638672 2.423978328704834
13.69126033782959 9.87578010559082 2.216794729232788
13.640449523925781 9.838019371032715 1.388981819152832
32.53102493286133 23.28495216369629 2.423485040664673
13.707297325134277 9.814885139465332 2.217529296875
13.66445255279541 9.783148765563965 1.3895710706710815
32.542728424072266 23.122074127197266 2.4234635829925537
13.735267639160156 9.762662887573242 2.2171247005462646
13.682170867919922 9.723918914794922 1.3910948038101196
13.6745023727417 9.721271514892578 0.5511605739593506
32.57208251953125 22.972362518310547 2.4228384494781494
13.74878215789795 9.70030689239502 2.218048095703125
13.70167064666748 9.666111946105957 1.3923057317733765
13.696050643920898 9.66498851776123 0.5527876019477844
32.582237243652344 22.801279067993164 2.422842502593994
13.767790794372559 9.638432502746582 2.2185425758361816
13.718534469604492 9.603049278259277 1.3940918445587158
13.72508430480957 9.610513687133789 0.5530655384063721
32.60594177246094 22.640403747558594 2.422375202178955
13.794720649719238 9.582237243652344 2.218275308609009
13.749385833740234 9.549897193908691 1.393691897392273
13.739750862121582 9.546124458312988 0.5563753247261047
32.61470413208008 22.4782657623291 2.422365665435791
13.81360912322998 9.524140357971191 2.2186267375946045
13.762045860290527 9.487789154052734 1.395837664604187
13.758566856384277 9.488347053527832 0.5584332346916199
32.50334930419922 22.243003845214844 2.42628812789917
13.830612182617188 9.468441009521484 2.219026803970337
13.783032417297363 9.435113906860352 1.396470069885254
32.524871826171875 22.09153175354004 2.425816297531128
13.857282638549805 9.415921211242676 2.218614101409912
13.80545711517334 9.379998207092285 1.3970521688461304
14.178750038146973 9.636687278747559 0.4805891513824463
32.560237884521484 21.9499568939209 2.424868106842041
13.879623413085938 9.360541343688965 2.2185816764831543
13.829717636108398 9.326227188110352 1.3973203897476196
14.17940616607666 9.565135955810547 0.4865240454673767
32.60159683227539 21.821044921875 2.4236929416656494
13.893912315368652 9.303388595581055 2.219170093536377
13.845979690551758 9.270676612854004 1.3985751867294312
14.059436798095703 9.416714668273926 0.5176944136619568
32.54631805419922 21.620033264160156 2.4256961345672607
13.915811538696289 9.24795150756836 2.2191357612609863
13.87188720703125 9.218192100524902 1.3985278606414795
13.934102058410645 9.262676239013672 0.5501357913017273
32.45664596557617 21.397663116455078 2.4288127422332764
13.933333396911621 9.189732551574707 2.219482660293579
13.893455505371094 9.162907600402832 1.3991056680679321
13.94761848449707 9.201804161071777 0.5530533790588379
32.42229461669922 21.213125228881836 2.430084228515625
13.952703475952148 9.132867813110352 2.219637870788574
13.910656929016113 9.10486888885498 1.4003088474273682
13.958824157714844 9.139603614807129 0.5564053058624268
32.41638946533203 21.04814338684082 2.430398941040039
13.982295989990234 9.082767486572266 2.218834400177002
13.925542831420898 9.045469284057617 1.4018253087997437
13.957377433776855 9.069389343261719 0.5623658299446106
32.44964599609375 20.9091739654541 2.4294023513793945
13.99914264678955 9.024470329284668 2.2191789150238037
13.950611114501953 8.992796897888184 1.4017729759216309
13.98044204711914 9.015302658081055 0.5631098747253418
32.50969696044922 20.78772735595703 2.427502393722534
14.015748977661133 8.966165542602539 2.2195229530334473
13.975476264953613 8.940057754516602 1.4017188549041748
14.017815589904785 8.970452308654785 0.5608071088790894
32.583457946777344 20.667129516601562 2.425136089324951
14.042088508605957 8.910746574401855 2.219048261642456
13.995407104492188 8.880826950073242 1.4025553464889526
14.017096519470215 8.897933959960938 0.5667200684547424
32.6024169921875 20.520021438598633 2.4245522022247314
14.06033992767334 8.853726387023926 2.219198703765869
14.021953582763672 8.82929801940918 1.4021844863891602
14.0186767578125 8.830608367919922 0.5718143582344055
32.629913330078125 20.38666534423828 2.4236676692962646
14.078953742980957 8.800464630126953 2.2192060947418213
14.042580604553223 8.77751350402832 1.4024899005889893
14.041400909423828 8.780181884765625 0.5721697211265564
32.53722381591797 20.171289443969727 2.426727056503296
14.109476089477539 8.751283645629883 2.218200206756592
14.058211326599121 8.719314575195312 1.4036879539489746
14.402259826660156 8.936178207397461 0.502332329750061
32.490257263183594 19.985612869262695 2.4282612800598145
14.129215240478516 8.695465087890625 2.2181549072265625
14.07994270324707 8.665011405944824 1.4039416313171387
14.387006759643555 8.857486724853516 0.5108910799026489
32.45093536376953 19.80571937561035 2.4295241832733154
14.150862693786621 8.640913963317871 2.2179160118103027
14.103583335876465 8.611954689025879 1.4038790464401245
32.50907897949219 19.685884475708008 2.4275565147399902
14.168037414550781 8.583736419677734 2.2180614471435547
14.120662689208984 8.554984092712402 1.4047600030899048
32.483238220214844 19.515695571899414 2.4283387660980225
14.18925952911377 8.529109954833984 2.217820167541504
14.148141860961914 8.504384994506836 1.4040651321411133
32.436363220214844 19.326190948486328 2.429790735244751
14.220311164855957 8.477065086364746 2.216754198074341
14.168388366699219 8.446146965026855 1.4045783281326294
14.163082122802734 8.44658088684082 0.5782825350761414
32.44974136352539 19.18109130859375 2.4292421340942383
14.236831665039062 8.419780731201172 2.2168965339660645
14.191208839416504 8.392873764038086 1.4045099020004272
14.175298690795898 8.387089729309082 0.5807614922523499
32.42585754394531 19.0146484375 2.4299051761627197
14.268176078796387 8.371313095092773 2.215683698654175
14.209556579589844 8.33703327178955 1.4050713777542114
14.212751388549805 8.342568397521973 0.5779999494552612
32.435768127441406 18.868709564208984 2.4294357299804688
14.282121658325195 8.312699317932129 2.216017723083496
14.223398208618164 8.27867317199707 1.4062633514404297
14.226663589477539 8.284260749816895 0.5800399780273438
32.50022506713867 18.7623233795166 2.427156925201416
14.30518913269043 8.262816429138184 2.215433359146118
14.244168281555176 8.227761268615723 1.406242847442627
14.25597095489502 8.238292694091797 0.5786347985267639
32.6022834777832 18.66990089416504 2.4236114025115967
14.331672668457031 8.211610794067383 2.214602470397949
14.272634506225586 8.178009033203125 1.4052220582962036
14.278002738952637 8.184833526611328 0.5789250135421753
32.69975280761719 18.574527740478516 2.420199155807495
14.35364055633545 8.157857894897461 2.2141575813293457
14.294455528259277 8.124484062194824 1.405147671699524
14.327655792236328 8.147135734558105 0.5735281705856323
32.74686813354492 18.450490951538086 2.4184296131134033
14.375405311584473 8.10405158996582 2.2137112617492676
14.309596061706543 8.067254066467285 1.4060205221176147
14.302175521850586 8.066873550415039 0.5834380984306335
32.78261184692383 18.320253372192383 2.4170169830322266
14.420902252197266 8.063570022583008 2.2111246585845947
14.346159934997559 8.022117614746094 1.4037284851074219
14.345054626464844 8.025335311889648 0.5793488621711731
32.841888427734375 18.203319549560547 2.414808750152588
14.382580757141113 7.976822853088379 1.4014328718185425
14.368444442749023 7.972850322723389 0.5791956186294556
32.89636993408203 18.083786010742188 2.4127418994903564
14.413209915161133 7.932164192199707 0.5746606588363647
32.937255859375 17.956918716430664 2.411104917526245
14.939663887023926 8.149646759033203 2.1692252159118652
33.0062255859375 17.84543228149414 2.408522605895996
14.933774948120117 8.079498291015625 1.3301647901535034
33.037384033203125 17.713613510131836 2.4071714878082275
27.773887634277344 14.6502685546875 1.0363985300064087
33.08867263793945 17.290390014648438 2.4043867588043213
27.79405403137207 14.53109073638916 1.0372377634048462
33.09103012084961 17.144926071166992 2.4039180278778076
27.81563949584961 14.419107437133789 1.0377861261367798
33.1016731262207 17.004226684570312 2.4031567573547363
27.814617156982422 14.295758247375488 1.0402941703796387
33.09989547729492 16.864900588989258 2.4028127193450928
27.852794647216797 14.19894790649414 1.0391782522201538
33.11831283569336 16.729013442993164 2.401761293411255
33.11830139160156 16.58424949645996 2.401303291320801
33.137840270996094 16.449689865112305 2.400181531906128
33.132171630859375 16.303058624267578 2.3998780250549316
33.148353576660156 16.16762351989746 2.3988332748413086
33.1572380065918 16.029008865356445 2.3980140686035156
33.16781234741211 15.891609191894531 2.3971221446990967
32.7274284362793 15.68941879272461 0.6266919374465942
33.16929244995117 15.74318790435791 2.3964874744415283
32.64488983154297 15.50312614440918 0.6364583373069763
33.18097686767578 15.607134819030762 2.3955249786376953
32.69406509399414 15.386998176574707 0.6345000863075256
33.18531799316406 15.468024253845215 2.394789934158325
32.98450469970703 15.383413314819336 0.6113715767860413
33.1890983581543 15.329072952270508 2.394057035446167
33.101112365722656 15.297493934631348 0.6034485101699829
33.18549728393555 15.187167167663574 2.3935554027557373
33.14274215698242 15.176708221435547 0.6020508408546448
33.19007110595703 15.05642318725586 2.392796039581299
33.17905044555664 15.060578346252441 0.600967526435852
33.192176818847656 14.917974472045898 2.3920726776123047
33.20391845703125 14.932445526123047 0.6009529829025269
33.20285415649414 14.783757209777832 2.3910462856292725
33.180477142333984 14.783025741577148 0.6051090955734253
33.208431243896484 14.64763355255127 2.3901751041412354
33.19060134887695 14.649043083190918 0.6062905788421631
33.21117401123047 14.510650634765625 2.3893826007843018
33.17964553833008 14.506187438964844 0.6092640161514282
33.21565628051758 14.3748197555542 2.3885157108306885
33.19783020019531 14.376456260681152 0.6096526384353638
33.21977233886719 14.232351303100586 2.387608289718628
33.1859245300293 14.227235794067383 0.6127126812934875
33.225440979003906 14.097795486450195 2.386669397354126
33.20074462890625 14.096741676330566 0.6133046746253967
33.23518371582031 13.96530818939209 2.385578155517578
33.231136322021484 13.973076820373535 0.6124999523162842
33.23287582397461 13.828126907348633 2.384875774383545
33.19895553588867 13.82351016998291 0.6170881390571594
33.248497009277344 13.69874382019043 2.3835561275482178
33.24908447265625 13.708531379699707 0.6144852638244629
33.254310607910156 13.572393417358398 2.3825900554656982
33.245689392089844 13.578451156616211 0.6164015531539917
33.271270751953125 13.444095611572266 2.3811943531036377
33.24644470214844 13.443678855895996 0.6179994344711304
33.257564544677734 13.303780555725098 2.3808138370513916
33.26286315917969 13.315546989440918 0.6181971430778503
33.22006607055664 13.154525756835938 2.381218671798706
33.204654693603516 13.15809154510498 0.624815046787262
33.15866470336914 12.996578216552734 2.3824164867401123
33.1504020690918 13.003023147583008 0.6310426592826843
33.17110824584961 12.868135452270508 2.3811123371124268
33.15353775024414 12.8710355758667 0.6322572827339172
33.20406723022461 12.747822761535645 2.379101514816284
33.21199417114258 12.760629653930664 0.6286468505859375
33.36545181274414 12.679574012756348 0.6168583631515503
33.525901794433594 12.606917381286621 0.6043655872344971
33.728736877441406 12.53908920288086 2.3585166931152344
33.76565170288086 12.562835693359375 0.5849965214729309
33.758121490478516 12.41613483428955 2.3565452098846436
33.75762176513672 12.425999641418457 0.5869858860969543
33.78258514404297 12.298168182373047 2.3547749519348145
33.7890625 12.310615539550781 0.5854659676551819
33.81109619140625 12.175125122070312 2.3528003692626953
33.789390563964844 12.177430152893066 0.5866518020629883
33.81327438354492 12.042810440063477 2.351702928543091
33.7774772644043 12.04020881652832 0.588850200176239
33.78900909423828 11.90149974822998 2.351487874984741
33.800262451171875 11.915643692016602 0.5880168080329895
33.79721450805664 11.77200984954834 2.3501570224761963
33.80612564086914 11.78532600402832 0.5886005759239197
33.82146072387695 11.648300170898438 2.3482630252838135
33.804420471191406 11.65267562866211 0.5897942185401917
33.811771392822266 11.506587028503418 2.347454309463501
33.81363296508789 11.517495155334473 0.5900561213493347
33.82084274291992 11.378168106079102 2.346045970916748
33.81089401245117 11.385124206542969 0.5912547707557678
33.819942474365234 11.246672630310059 2.3449625968933105
33.817100524902344 11.256056785583496 0.5916418433189392
33.83277893066406 11.120003700256348 2.3433938026428223
33.808616638183594 11.122416496276855 0.5932528972625732
33.84752655029297 10.994152069091797 2.3417446613311768
33.81145095825195 10.992819786071777 0.5938482880592346
33.84801483154297 10.870420455932617 2.3406262397766113
33.83326721191406 10.876100540161133 0.5927331447601318
33.85707473754883 10.743169784545898 2.339141368865967
33.8470458984375 10.750433921813965 0.5923112630844116
33.851348876953125 10.611501693725586 2.338148593902588
33.853233337402344 10.622566223144531 0.5925012826919556
33.86182403564453 10.485177993774414 2.3365845680236816
33.85893630981445 10.494782447814941 0.5926921963691711
33.85929489135742 10.348618507385254 2.3353917598724365
33.86119079589844 10.359724044799805 0.5931705236434937
33.86162567138672 10.220292091369629 2.3340768814086914
33.86113357543945 10.230695724487305 0.5937742590904236
33.862831115722656 10.085453033447266 2.3327226638793945
33.87189483642578 10.098733901977539 0.5934367179870605
33.8696174621582 9.965375900268555 2.331286907196045
33.864349365234375 9.974427223205566 0.5945777297019958
33.88010787963867 9.840154647827148 2.3296456336975098
33.87480545043945 9.84924602508545 0.5941608548164368
33.88123321533203 9.718827247619629 2.328378200531006
33.880714416503906 9.72933292388916 0.5940731763839722
33.89801788330078 9.595768928527832 2.326488971710205
33.8902702331543 9.604257583618164 0.5936577916145325
33.907142639160156 9.470698356628418 2.3248486518859863
33.894569396972656 9.477890014648438 0.5936543941497803
33.910980224609375 9.344350814819336 2.3233766555786133
33.89838409423828 9.35161018371582 0.5936522483825684
33.91114044189453 9.210865020751953 2.3219499588012695
33.89613723754883 9.21754264831543 0.5941455960273743
33.91160583496094 9.084066390991211 2.3205642700195312
33.89418411254883 9.09017276763916 0.5945583581924438
33.8995246887207 8.954187393188477 2.319601058959961
33.91102600097656 8.968026161193848 0.5933220982551575
33.894203186035156 8.826391220092773 2.3183884620666504
33.917781829833984 8.843356132507324 0.5929121971130371
33.903831481933594 8.709005355834961 2.316710948944092
33.9105110168457 8.721563339233398 0.5936599373817444
22.951581954956055 5.906921863555908 0.357464075088501
33.92422866821289 8.58818531036377 2.3145716190338135
33.92361068725586 8.598896980285645 0.5926307439804077
33.922386169433594 8.461889266967773 2.3131940364837646
33.92660140991211 8.473830223083496 0.5924302935600281
33.939483642578125 8.340478897094727 2.311138868331909
33.93638610839844 8.350632667541504 0.5916088223457336
33.94643020629883 8.21670150756836 2.309422254562378
33.94573211669922 8.227468490600586 0.5907869935035706
33.94218444824219 8.084157943725586 2.308009624481201
33.94391632080078 8.095527648925781 0.5908799171447754
33.95793151855469 7.9628095626831055 2.3059535026550293
33.95475387573242 7.973046779632568 0.589851975440979
33.94646453857422 7.835270404815674 2.304839849472046
33.94816970825195 7.846662521362305 0.5902793407440186
33.96376419067383 7.714547634124756 2.3026983737945557
33.9556884765625 7.723735809326172 0.5894608497619629
22.922870635986328 5.2182440757751465 0.3690016567707062
33.923221588134766 7.587188243865967 2.302658796310425
33.95415496826172 7.605142116546631 0.5893919467926025
22.934982299804688 5.141149044036865 0.3680678606033325
33.94940185546875 7.468760013580322 2.3001744747161865
33.97783660888672 7.48607873916626 0.5871137380599976
22.933183670043945 5.056825637817383 0.36903250217437744
33.982486724853516 7.351826190948486 2.297429323196411
33.97431182861328 7.361140727996826 0.5871307849884033
22.943191528320312 4.975201606750488 0.36834466457366943
33.9760627746582 7.226437568664551 2.2960638999938965
33.987388610839844 7.239950180053711 0.5856865048408508
22.955326080322266 4.894084453582764 0.3673255145549774
34.00831985473633 7.1093621253967285 2.2933149337768555
33.99028396606445 7.116714954376221 0.5850786566734314
22.942922592163086 4.807862758636475 0.3696160316467285
34.01691436767578 6.981186866760254 2.2913060188293457
33.996376037597656 6.9881181716918945 0.5841370820999146
22.93828582763672 4.719282627105713 0.3708314597606659
34.03362274169922 6.860955715179443 2.2890732288360596
34.00079345703125 6.865503787994385 0.5833207964897156
22.930091857910156 4.634310722351074 0.37246379256248474
34.0204963684082 6.7348713874816895 2.2878870964050293
34.00477600097656 6.7429423332214355 0.5825055241584778
22.931303024291992 4.551381587982178 0.37277141213417053
34.02293014526367 6.618234634399414 2.2862160205841064
34.00472640991211 6.625894069671631 0.5820240378379822
22.933876037597656 4.4729743003845215 0.37283265590667725
34.01872634887695 6.4943132400512695 2.284684419631958
34.010284423828125 6.5039215087890625 0.5810004472732544
22.936941146850586 4.390598773956299 0.3728100061416626
34.02635192871094 6.372799873352051 2.2827155590057373
34.01051712036133 6.3810715675354 0.5803965330123901
22.93483543395996 4.307339191436768 0.37345147132873535
34.004051208496094 6.245898246765137 2.281802177429199
34.022560119628906 6.260552406311035 0.578741729259491
22.929996490478516 4.223699569702148 0.37442654371261597
34.02554702758789 6.127197265625 2.279306411743164
34.01455307006836 6.13648796081543 0.5787718296051025
22.939477920532227 4.142786502838135 0.37340885400772095
34.0490837097168 6.00885534286499 2.276719808578491
34.02818298339844 6.016458511352539 0.5769069790840149
22.929161071777344 4.058404445648193 0.37505075335502625
34.04021072387695 5.88489294052124 2.2752819061279297
34.03156661987305 5.894707679748535 0.5758837461471558
22.933176040649414 3.976682424545288 0.3746982514858246
34.062896728515625 5.766483783721924 2.2726924419403076
34.02468490600586 5.771338939666748 0.575706422328949
22.92224884033203 3.8924942016601562 0.37634339928627014
34.05412292480469 5.636740207672119 2.2711315155029297
34.04045867919922 5.645821571350098 0.5735044479370117
22.926332473754883 3.80686616897583 0.3759082853794098
34.071022033691406 5.517468452453613 2.2687184810638428
34.032676696777344 5.522617816925049 0.5733290314674377
22.931901931762695 3.725656509399414 0.37522321939468384
34.077632904052734 5.396584510803223 2.26665997505188
34.0515251159668 5.4038286209106445 0.5708279609680176
22.929845809936523 3.6432883739471436 0.3755391538143158
34.07887268066406 5.274957180023193 2.2647812366485596
34.062564849853516 5.283830165863037 0.5689603090286255
22.93238639831543 3.561739206314087 0.37518832087516785
34.073848724365234 5.158585548400879 2.263206720352173
34.07229232788086 5.169764041900635 0.5672169923782349
22.92179298400879 3.4823572635650635 0.3765914738178253
34.07424545288086 5.0370917320251465 2.2613298892974854
34.0701904296875 5.047919750213623 0.5664085149765015
22.928668975830078 3.4016311168670654 0.3755738437175751
34.0742073059082 4.915656566619873 2.259453058242798
34.09230422973633 4.929715633392334 0.5634775757789612
22.92544937133789 3.3194785118103027 0.3758924603462219
34.07868576049805 4.794979095458984 2.257397174835205
34.096744537353516 4.808984279632568 0.5620313286781311
22.936656951904297 3.239466428756714 0.3742057979106903
34.080265045166016 4.673989772796631 2.2554311752319336
34.0958137512207 4.6876020431518555 0.5610120892524719
34.101219177246094 4.555694580078125 2.2527413368225098
34.09199523925781 4.565954685211182 0.5602052807807922
34.105194091796875 4.429103374481201 2.250558614730835
34.10826110839844 4.441013813018799 0.5575695037841797
34.120338439941406 4.310060024261475 2.248047351837158
34.08378982543945 4.316962242126465 0.5584700703620911
34.125152587890625 4.1897478103637695 2.2458975315093994
34.07369613647461 4.194960117340088 0.5580945611000061
34.08967590332031 4.082279682159424 0.5554962158203125
22.99555778503418 2.75832462310791 0.3643966615200043
34.08617401123047 3.961289167404175 0.5544813275337219
22.958049774169922 2.6726326942443848 0.369080513715744
22.98177146911621 2.594177484512329 0.36537280678749084
33.56083297729492 3.6517224311828613 2.2588160037994385
23.019994735717773 2.517202377319336 0.35964640974998474
