# .PCD v0.7 - Point Cloud Data file format
VERSION 0.7
FIELDS x y z
SIZE 4 4 4
TYPE F F F
COUNT 1 1 1
WIDTH 845
HEIGHT 1
VIEWPOINT 0 0 0 1 0 0 0
POINTS 845
DATA ascii
12.929803848266602 11.631142616271973 0.9892406463623047
12.97766399383545 11.531270027160645 0.9923076629638672
12.99432373046875 11.404508590698242 1.0015449523925781
13.042040824890137 11.305821418762207 1.0043063163757324
13.084532737731934 11.203120231628418 1.0079678297042847
13.120973587036133 11.09585189819336 1.0126826763153076
13.152799606323242 10.98538875579834 1.0181506872177124
13.192154884338379 10.881871223449707 1.021956205368042
13.224604606628418 10.77328872680664 1.0269688367843628
13.260844230651855 10.66843318939209 1.0310726165771484
13.298619270324707 10.565382957458496 1.03472101688385
13.334853172302246 10.461658477783203 1.038517951965332
13.370315551757812 10.357887268066406 1.0423132181167603
13.405011177062988 10.254072189331055 1.0461065769195557
13.440513610839844 10.151411056518555 1.049594521522522
13.476848602294922 10.049881935119629 1.0527769327163696
13.51881217956543 9.952975273132324 1.054741382598877
13.540908813476562 9.8419828414917 1.0603508949279785
13.579018592834473 9.743194580078125 1.0627665519714355
13.616426467895508 9.644305229187012 1.0651792287826538
13.657994270324707 9.548722267150879 1.066674828529358
13.703782081604004 9.456358909606934 1.0672523975372314
13.728532791137695 9.349881172180176 1.071637749671936
13.767257690429688 9.253378868103027 1.0732758045196533
13.808611869812012 9.158937454223633 1.0742993354797363
13.834441184997559 9.05459213256836 1.0780699253082275
13.874454498291016 8.959925651550293 1.0790866613388062
13.914663314819336 8.865636825561523 1.079946756362915
13.950054168701172 8.768561363220215 1.0815682411193848
13.986457824707031 8.67242431640625 1.0828801393508911
14.023052215576172 8.576685905456543 1.0840353965759277
14.064075469970703 8.48388385772705 1.0842660665512085
14.105337142944336 8.391406059265137 1.084338903427124
14.147698402404785 8.2997407913208 1.0840991735458374
14.192888259887695 8.209847450256348 1.0832394361495972
14.22720718383789 8.113836288452148 1.0842205286026
14.260883331298828 8.01771068572998 1.085198163986206
14.422680854797363 7.9928460121154785 1.0632097721099854
14.713895797729492 8.036873817443848 1.018206238746643
15.242799758911133 8.20501708984375 0.9311559796333313
14.590361595153809 7.624768257141113 1.0599031448364258
19.231609344482422 0.7763357758522034 0.4495321214199066
19.231658935546875 0.6582362055778503 0.4476824402809143
19.25760269165039 0.5409124493598938 0.4414169490337372
12.865808486938477 -0.744751513004303 1.474563479423523
12.854815483093262 -0.8232672214508057 1.473872184753418
16.265504837036133 -2.968487501144409 0.8188055157661438
16.27277946472168 -3.0731260776519775 0.8121233582496643
16.299697875976562 -3.181931972503662 0.8019042015075684
16.07175064086914 -3.239973306655884 0.8359395861625671
16.257740020751953 -3.3814196586608887 0.7977731823921204
16.15729522705078 -3.464127540588379 0.8094480633735657
16.28744888305664 -3.5967257022857666 0.7806608080863953
16.16763687133789 -3.674494504928589 0.7955588102340698
16.09067726135254 -3.76102352142334 0.8028826713562012
16.100481033325195 -3.867692232131958 0.7948371171951294
19.00113868713379 -5.94594144821167 0.19114939868450165
18.85968017578125 -6.0290656089782715 0.2075597047805786
18.787240982055664 -6.133306980133057 0.21136941015720367
16.19127655029297 -5.396241188049316 0.6762638092041016
16.193866729736328 -5.507810592651367 0.6674431562423706
16.303674697875977 -5.657074451446533 0.6387714147567749
16.40852928161621 -5.806578159332275 0.6107494831085205
16.446352005004883 -5.9338459968566895 0.5948582887649536
16.06527328491211 -5.9081268310546875 0.6564469933509827
15.960074424743652 -5.980966091156006 0.6670021414756775
18.80535316467285 -7.178990840911865 0.12712126970291138
18.799989700317383 -7.309536457061768 0.11722509562969208
18.825788497924805 -7.452976703643799 0.10130524635314941
16.264238357543945 -7.142935752868652 0.521266758441925
16.2907657623291 -7.274269104003906 0.5054396390914917
16.301937103271484 -7.399685382843018 0.492365300655365
16.314861297607422 -7.526751518249512 0.4787617325782776
16.216251373291016 -7.60242223739624 0.48661863803863525
16.15556526184082 -7.695379257202148 0.4870445430278778
16.59889030456543 -8.412957191467285 0.3520980775356293
16.52728271484375 -8.504685401916504 0.35369327664375305
16.29281997680664 -8.511058807373047 0.3876606822013855
16.480012893676758 -8.738121032714844 0.3374185860157013
16.403125762939453 -8.826895713806152 0.3397316336631775
16.168479919433594 -8.829177856445312 0.37378567457199097
16.184221267700195 -8.967296600341797 0.3573042154312134
16.37998390197754 -9.20773696899414 0.3039763271808624
16.073850631713867 -9.16610050201416 0.3526015281677246
16.14730453491211 -9.339924812316895 0.32369059324264526
16.24724006652832 -9.531432151794434 0.28897932171821594
16.162647247314453 -9.615793228149414 0.2920377552509308
12.56309986114502 12.770578384399414 0.8299627900123596
12.602505683898926 12.654787063598633 0.8369347453117371
12.636056900024414 12.5341215133667 0.8449894785881042
12.674249649047852 12.419053077697754 0.8518045544624329
12.724286079406738 12.316353797912598 0.8558273911476135
12.754979133605957 12.195755958557129 0.863879919052124
12.784676551818848 12.075243949890137 0.871932864189148
12.829266548156738 11.969651222229004 0.8765694499015808
12.870138168334961 11.861288070678711 0.8818247318267822
12.90432357788086 11.747553825378418 0.8883218169212341
12.933195114135742 11.62987995147705 0.8957517147064209
12.96923542022705 11.519509315490723 0.9014696478843689
13.011093139648438 11.414998054504395 0.905784547328949
13.045440673828125 11.304582595825195 0.9114993214607239
13.08417797088623 11.198671340942383 0.9161214828491211
13.120601654052734 11.091431617736816 0.9210537075996399
13.1630277633667 10.98986530303955 0.9245789647102356
13.194034576416016 10.87939453125 0.9302882552146912
13.225717544555664 10.77020263671875 0.9356845021247864
13.261177062988281 10.664746284484863 0.940141499042511
13.285015106201172 10.550657272338867 0.9467880725860596
13.336709022521973 10.459232330322266 0.9476412534713745
13.36826229095459 10.352445602416992 0.9524058103561401
13.398223876953125 10.24506664276123 0.9573265910148621
13.439985275268555 10.147229194641113 0.9597361087799072
13.479467391967773 10.04808521270752 0.9624561071395874
13.514265060424805 9.945907592773438 0.9659585952758789
13.545920372009277 9.841938018798828 0.9699302911758423
13.579218864440918 9.739681243896484 0.9734289646148682
13.62628173828125 9.64765739440918 0.9740926027297974
13.692543029785156 9.445029258728027 0.9804471135139465
13.73029613494873 9.34753704071045 0.9825177192687988
13.765728950500488 9.248834609985352 0.9849006533622742
13.806231498718262 9.153867721557617 0.9861753582954407
13.84443473815918 9.05766773223877 0.9877620935440063
13.876172065734863 8.95759391784668 0.990452229976654
13.916364669799805 8.863304138183594 0.991399884223938
13.949234962463379 8.764654159545898 0.993610143661499
13.983098030090332 8.666973114013672 0.9955007433891296
14.027239799499512 8.575901985168457 0.9953277707099915
14.070791244506836 8.484612464904785 0.9951494336128235
14.11460018157959 8.39361572265625 0.9948071241378784
14.171446800231934 8.31039047241211 0.9919174909591675
14.189345359802246 8.204538345336914 0.9961725473403931
14.227919578552246 8.111003875732422 0.9964516758918762
14.276209831237793 8.023107528686523 0.9948166012763977
14.418943405151367 7.9875569343566895 0.9756525158882141
14.703863143920898 8.028156280517578 0.9303166270256042
15.186261177062988 8.171292304992676 0.8488652110099792
15.990126609802246 8.478086471557617 0.708877444267273
19.221649169921875 0.773114025592804 0.3476223647594452
15.724522590637207 0.5355119109153748 0.9442835450172424
19.270221710205078 0.5384482741355896 0.33553093671798706
12.872575759887695 -0.6680929064750671 1.4064385890960693
12.857129096984863 -0.7464022636413574 1.4066298007965088
12.853006362915039 -0.8253048062324524 1.4047760963439941
16.290334701538086 -1.5483568906784058 0.7903385758399963
16.31443977355957 -1.752888560295105 0.778173565864563
16.321609497070312 -1.8550240993499756 0.7727698087692261
16.280210494995117 -1.9515763521194458 0.775780439376831
16.269519805908203 -2.05163311958313 0.7732976078987122
16.25040054321289 -2.1506011486053467 0.7721918225288391
16.291175842285156 -2.2577908039093018 0.7604129314422607
16.277624130249023 -2.3578035831451416 0.7580977082252502
16.212810516357422 -2.4500904083251953 0.7647507786750793
16.197105407714844 -2.5494778156280518 0.7626169919967651
16.3435115814209 -2.778470754623413 0.72637939453125
16.38010597229004 -2.8882243633270264 0.7145403027534485
16.19602394104004 -2.958387613296509 0.7419793009757996
16.207199096679688 -3.063328981399536 0.7344741821289062
16.255390167236328 -3.1758806705474854 0.7202020287513733
16.196611404418945 -3.2677295207977295 0.7249957919120789
16.16335105895996 -3.364394426345825 0.7251149415969849
16.20751190185547 -3.477501392364502 0.7111669778823853
16.047988891601562 -3.54646635055542 0.73388671875
16.22913360595703 -3.6910951137542725 0.6948823928833008
16.103206634521484 -3.7665743827819824 0.7113664150238037
16.10527229309082 -3.8714749813079834 0.7045326232910156
16.212839126586914 -5.406219959259033 0.5799185633659363
16.507944107055664 -5.617452144622803 0.5155931711196899
16.333280563354492 -5.670182228088379 0.5398327708244324
16.166954040527344 -5.723940849304199 0.5625255703926086
16.38760757446289 -5.915526866912842 0.5114861130714417
16.3145809173584 -6.002668857574463 0.5161908268928528
16.094560623168945 -6.034217357635498 0.5490097999572754
16.076154708862305 -6.1401824951171875 0.5431499481201172
16.280872344970703 -6.333186626434326 0.4941065311431885
15.986004829406738 -6.331828594207764 0.5413451194763184
16.561477661132812 -7.276529312133789 0.3664291501045227
16.2995662689209 -7.281258583068848 0.4070990979671478
16.362592697143555 -7.430302619934082 0.38337036967277527
16.311817169189453 -7.5284504890441895 0.3820703625679016
16.362016677856445 -7.673877239227295 0.36044859886169434
16.051273345947266 -7.6488189697265625 0.4110708236694336
16.631120681762695 -8.432567596435547 0.24470050632953644
16.592636108398438 -8.541606903076172 0.2396022230386734
16.50199317932129 -8.623615264892578 0.24507535994052887
16.45269012451172 -8.726961135864258 0.24196040630340576
16.269330978393555 -8.75822925567627 0.2664743959903717
16.24076271057129 -8.871987342834473 0.25890010595321655
16.253576278686523 -9.009089469909668 0.24252496659755707
16.05350685119629 -9.027609825134277 0.2705288231372833
16.058061599731445 -9.160491943359375 0.2555970847606659
16.155242919921875 -9.347953796386719 0.22086085379123688
16.209144592285156 -9.512560844421387 0.19491294026374817
16.049448013305664 -9.551934242248535 0.21416759490966797
12.547822952270508 12.772940635681152 0.7226836681365967
12.587286949157715 12.657259941101074 0.7299792766571045
12.649618148803711 12.56522274017334 0.7318090200424194
12.683113098144531 12.445245742797852 0.7400642037391663
12.692936897277832 12.303348541259766 0.7534686923027039
12.742137908935547 12.200704574584961 0.7577019333839417
12.799882888793945 12.106735229492188 0.7598375082015991
12.823779106140137 11.981521606445312 0.7693800926208496
12.874187469482422 11.881902694702148 0.7727974057197571
12.903434753417969 11.76349925994873 0.7807276248931885
12.944186210632324 11.656411170959473 0.7859142422676086
12.98337459564209 11.548606872558594 0.7912599444389343
13.007643699645996 11.428384780883789 0.7996740937232971
13.053290367126465 11.3277006149292 0.803239107131958
13.089951515197754 11.219820976257324 0.8085798621177673
13.119004249572754 11.106180191040039 0.8153760433197021
13.156243324279785 11.000197410583496 0.8202286958694458
13.201047897338867 10.901086807250977 0.8232964277267456
13.229074478149414 10.788743019104004 0.8297660946846008
13.27005672454834 10.687603950500488 0.8333150148391724
13.303345680236816 10.580839157104492 0.838322103023529
13.340484619140625 10.477723121643066 0.8423535823822021
13.365163803100586 10.365479469299316 0.8488207459449768
13.408556938171387 10.268321990966797 0.851222574710846
13.444966316223145 10.166260719299316 0.8549221754074097
13.490117073059082 10.071219444274902 0.8566653728485107
13.522695541381836 9.96722412109375 0.8608483076095581
13.558496475219727 9.866110801696777 0.8642146587371826
13.586356163024902 9.759749412536621 0.8690470457077026
13.619863510131836 9.65798282623291 0.8725728988647461
13.657483100891113 9.559564590454102 0.8751166462898254
13.694411277770996 9.46104621887207 0.877657413482666
13.730644226074219 9.362434387207031 0.880195140838623
13.770278930664062 9.266483306884766 0.8819119334220886
13.801034927368164 9.164941787719727 0.8852626085281372
13.829414367675781 9.062288284301758 0.888939380645752
13.865340232849121 8.964984893798828 0.8909749984741211
13.907247543334961 8.871825218200684 0.891695499420166
13.955212593078613 8.782690048217773 0.8910977840423584
13.983332633972168 8.681330680847168 0.8942723870277405
14.020832061767578 8.586137771606445 0.8954732418060303
14.057689666748047 8.490809440612793 0.8966703414916992
14.104074478149414 8.401407241821289 0.8958885073661804
14.149043083190918 8.311253547668457 0.8952652215957642
14.191728591918945 8.219874382019043 0.8949657678604126
14.230399131774902 8.126324653625488 0.8953208327293396
14.274473190307617 8.035995483398438 0.8945163488388062
14.4068021774292 7.994718074798584 0.8766971826553345
14.678466796875 8.02830696105957 0.832245409488678
15.210646629333496 8.198766708374023 0.7382898926734924
19.24164581298828 0.788114607334137 0.22675149142742157
15.740405082702637 0.5481087565422058 0.8455422520637512
19.271625518798828 0.5526924729347229 0.21772629022598267
12.896258354187012 -0.579684853553772 1.3261603116989136
12.878401756286621 -0.6580632328987122 1.3269404172897339
12.862032890319824 -0.7363588213920593 1.32737135887146
12.85501480102539 -0.81510329246521 1.3260408639907837
16.2320613861084 -1.630906581878662 0.6973402500152588
16.102962493896484 -1.7177929878234863 0.7166727781295776
16.13379669189453 -1.8212676048278809 0.7069258093833923
16.072105407714844 -1.9142450094223022 0.7138665914535522
16.0118408203125 -2.0067813396453857 0.7204655408859253
15.997878074645996 -2.1048154830932617 0.7185389995574951
16.013534545898438 -2.206921339035034 0.71109539270401
15.909714698791504 -2.2921793460845947 0.7253787517547607
16.027313232421875 -2.4096086025238037 0.6990400552749634
16.007965087890625 -2.507249116897583 0.6976442337036133
15.796707153320312 -2.573572874069214 0.7314220666885376
16.290529251098633 -2.7567687034606934 0.6353658437728882
16.32331657409668 -2.8654730319976807 0.6239222884178162
16.265357971191406 -2.95831036567688 0.6291064023971558
16.221378326416016 -3.0532772541046143 0.6316170692443848
16.327497482299805 -3.177136182785034 0.606184720993042
16.04303550720215 -3.2240962982177734 0.6531582474708557
16.10733985900879 -3.340006113052368 0.6352511644363403
16.495014190673828 -3.5261383056640625 0.5568140149116516
16.10088539123535 -3.545358896255493 0.6241714358329773
16.14655876159668 -3.659477472305298 0.6092774868011475
16.140661239624023 -3.7624545097351074 0.6039040684700012
16.099668502807617 -3.8572475910186768 0.605010986328125
16.0688533782959 -5.454639434814453 0.49566492438316345
16.0922908782959 -5.5730366706848145 0.4822388291358948
16.201099395751953 -5.722384929656982 0.4518575668334961
16.262413024902344 -5.856619358062744 0.43055734038352966
16.31991195678711 -5.990805625915527 0.4097825586795807
16.108394622802734 -6.025671482086182 0.44211119413375854
16.078983306884766 -6.127499580383301 0.43831944465637207
16.040679931640625 -6.225994110107422 0.436175137758255
16.3734073638916 -7.299718856811523 0.2839203476905823
16.39234733581543 -7.42921257019043 0.2684878408908844
16.35138702392578 -7.532070636749268 0.26518842577934265
16.329364776611328 -7.6438775062561035 0.25784197449684143
16.47751235961914 -8.724699020385742 0.12407387048006058
16.367828369140625 -8.795814514160156 0.13371029496192932
16.294132232666016 -8.8856782913208 0.13558465242385864
16.225967407226562 -8.978301048278809 0.13617253303527832
16.06817054748535 -9.020397186279297 0.15606717765331268
16.158090591430664 -9.201923370361328 0.12215403467416763
12.620622634887695 12.847270011901855 0.5798983573913574
12.687681198120117 12.75844669342041 0.5810274481773376
12.705862998962402 12.621341705322266 0.5937022566795349
12.690478324890137 12.452729225158691 0.6140873432159424
12.877376556396484 12.482398986816406 0.5862104892730713
12.771744728088379 12.229331016540527 0.627390444278717
12.796720504760742 12.104034423828125 0.6373952031135559
12.827128410339355 11.98494815826416 0.645891010761261
12.880465507507324 11.888007164001465 0.6488435864448547
12.915613174438477 11.774922370910645 0.6558249592781067
12.944733619689941 11.657234191894531 0.6639825105667114
12.979531288146973 11.545527458190918 0.6706260442733765
13.016408920288086 11.436432838439941 0.6765955090522766
13.062116622924805 11.335718154907227 0.6803742051124573
13.091365814208984 11.22140121459961 0.6876878142356873
13.151302337646484 11.133899688720703 0.6879197955131531
13.156972885131836 11.001191139221191 0.7001224160194397
13.210914611816406 10.909627914428711 0.7013590931892395
13.224510192871094 10.785420417785645 0.7113721370697021
13.278534889221191 10.694843292236328 0.7122635841369629
13.317289352416992 10.592347145080566 0.7163616418838501
13.352190017700195 10.487343788146973 0.7211334109306335
13.38318920135498 10.379892349243164 0.7265808582305908
13.420418739318848 10.277846336364746 0.7305030822753906
13.452970504760742 10.172761917114258 0.735270082950592
13.491057395935059 10.072379112243652 0.7386794090270996
13.526836395263672 9.970741271972656 0.7424254417419434
13.5650634765625 9.87136173248291 0.7454897165298462
13.59618091583252 9.767284393310547 0.7499104142189026
13.6305513381958 9.666048049926758 0.7534796595573425
13.67226791381836 9.570405960083008 0.7553463578224182
13.701164245605469 9.466212272644043 0.759761393070221
13.729297637939453 9.362022399902344 0.764175295829773
13.763212203979492 9.262242317199707 0.7672258019447327
13.802987098693848 9.16675853729248 0.7689101099967957
13.833044052124023 9.065192222595215 0.7724668979644775
13.868167877197266 8.96734619140625 0.7748274803161621
13.90012264251709 8.867817878723145 0.7776975631713867
13.936381340026855 8.771383285522461 0.7795402407646179
14.004626274108887 8.695104598999023 0.7747110724449158
14.029608726501465 8.592071533203125 0.778596043586731
14.066505432128906 8.496700286865234 0.7799127101898193
14.098529815673828 8.398675918579102 0.7820823192596436
14.14177417755127 8.307562828063965 0.7818498611450195
14.185283660888672 8.216726303100586 0.7814401388168335
14.225645065307617 8.124201774597168 0.7815399169921875
14.321203231811523 8.062904357910156 0.7704719305038452
14.38294792175293 7.982094764709473 0.7660873532295227
14.960195541381836 8.183064460754395 0.6590366959571838
15.105979919433594 8.143049240112305 0.6380482316017151
15.991280555725098 8.494353294372559 0.4706827700138092
15.734848976135254 0.5487551093101501 0.735971987247467
12.833041191101074 -0.6552004814147949 1.2448118925094604
12.855956077575684 -0.7354637384414673 1.2380071878433228
12.860705375671387 -0.81491619348526 1.2344926595687866
16.075010299682617 -1.6142268180847168 0.6122238039970398
16.093740463256836 -1.7159085273742676 0.6045919060707092
16.001453399658203 -1.805433988571167 0.6177679896354675
15.974074363708496 -1.901677131652832 0.6186157464981079
15.899306297302246 -1.9917919635772705 0.628322422504425
15.81234359741211 -2.079526424407959 0.6402616500854492
15.881660461425781 -2.187861442565918 0.6224822402000427
15.868524551391602 -2.2853612899780273 0.6202086806297302
15.934481620788574 -2.394758701324463 0.6027682423591614
15.81424331665039 -2.4760239124298096 0.6206618547439575
16.401033401489258 -2.7745261192321777 0.4980581998825073
16.364910125732422 -2.871833324432373 0.4994214177131653
16.23830223083496 -2.9524590969085693 0.5180524587631226
16.197275161743164 -3.0478129386901855 0.5201835632324219
16.21645164489746 -3.1545956134796143 0.510612428188324
16.175199508666992 -3.2497329711914062 0.5125646591186523
16.212282180786133 -3.36083722114563 0.4992625415325165
16.09199333190918 -3.4390552043914795 0.5163050293922424
16.315826416015625 -3.591747522354126 0.4664677381515503
16.168514251708984 -3.663522481918335 0.488556832075119
16.158727645874023 -3.7657346725463867 0.48380666971206665
16.086191177368164 -3.8530936241149902 0.49119409918785095
16.240156173706055 -5.511831283569336 0.34148111939430237
16.14251136779785 -5.5894775390625 0.3521558344364166
16.25657844543457 -5.74101448059082 0.3195980191230774
16.235408782958984 -5.845927715301514 0.3144092559814453
16.271638870239258 -5.97211217880249 0.297305703163147
16.293128967285156 -6.093803405761719 0.28302544355392456
16.14031219482422 -6.149912357330322 0.3045245409011841
16.193391799926758 -6.284302711486816 0.28342291712760925
16.484426498413086 -7.348203659057617 0.1340845376253128
16.40460968017578 -7.43376350402832 0.13912028074264526
16.35646629333496 -7.533407211303711 0.13730448484420776
16.230363845825195 -7.5965423583984375 0.1520960032939911
16.20073890686035 -7.704366207122803 0.14610201120376587
12.637463569641113 12.85965633392334 0.47597548365592957
12.681669235229492 12.747698783874512 0.48288699984550476
12.703315734863281 12.614164352416992 0.4951517581939697
12.654196739196777 12.412558555603027 0.5245338678359985
12.71131420135498 12.316903114318848 0.5274741649627686
13.099278450012207 12.538394927978516 0.44977185130119324
13.109702110290527 12.3955717086792 0.4640862047672272
12.815869331359863 11.970050811767578 0.5513299703598022
12.866223335266113 11.870529174804688 0.555121660232544
12.915840148925781 11.770837783813477 0.5589087605476379
12.956668853759766 11.66373348236084 0.5645996332168579
12.987841606140137 11.54871654510498 0.5723709464073181
13.029932022094727 11.444153785705566 0.5773638486862183
13.030320167541504 11.304011344909668 0.5919105410575867
13.086316108703613 11.212995529174805 0.5932518243789673
13.11161994934082 11.096269607543945 0.6015447378158569
13.160920143127441 11.000494956970215 0.6040953993797302
13.203465461730957 10.899514198303223 0.6080344319343567
13.246031761169434 10.799047470092773 0.6117958426475525
13.267925262451172 10.682411193847656 0.6200859546661377
13.292740821838379 10.568973541259766 0.6275058388710022
13.353841781616211 10.484823226928711 0.6265500783920288
13.36461067199707 10.361703872680664 0.6367608308792114
13.421282768249512 10.274760246276855 0.6364938616752625
13.438119888305664 10.157819747924805 0.6449595093727112
13.484804153442383 10.064027786254883 0.6466066241264343
13.52925968170166 9.96887493133545 0.6485990285873413
13.562705993652344 9.866022109985352 0.6528632044792175
13.595401763916016 9.763134002685547 0.6571253538131714
13.636984825134277 9.667047500610352 0.6592823266983032
13.661770820617676 9.559526443481445 0.6649434566497803
13.700333595275879 9.462135314941406 0.6674458980560303
13.743098258972168 9.367955207824707 0.6688912510871887
14.035974502563477 9.442315101623535 0.6163925528526306
14.076844215393066 9.34516716003418 0.6181492209434509
14.085761070251465 9.227372169494629 0.6265861392021179
14.128486633300781 9.132264137268066 0.6276350021362305
14.178875923156738 9.04227066040039 0.626917839050293
13.999580383300781 8.807831764221191 0.6746535301208496
13.974355697631836 8.673012733459473 0.6894684433937073
14.021040916442871 8.583550453186035 0.6889462471008301
14.061258316040039 8.490276336669922 0.6896539926528931
14.098321914672852 8.395320892333984 0.6908867955207825
14.13814640045166 8.302221298217773 0.6914090514183044
14.176506996154785 8.208454132080078 0.6921038031578064
14.218523979187012 8.116966247558594 0.6919092535972595
14.279678344726562 8.036373138427734 0.6876369714736938
14.35500717163086 7.963449954986572 0.6803429126739502
14.718378067016602 8.047618865966797 0.6138224005699158
15.163862228393555 8.171042442321777 0.5307177305221558
14.55501651763916 7.614429950714111 0.6709213852882385
15.720010757446289 0.5458552837371826 0.6506621837615967
12.861028671264648 -0.6587217450141907 1.1674468517303467
12.859371185302734 -0.7377532720565796 1.1651990413665771
12.86702823638916 -0.8174128532409668 1.1610652208328247
15.954700469970703 -1.604564905166626 0.544937789440155
16.025196075439453 -1.7110289335250854 0.527124285697937
15.992531776428223 -1.806854009628296 0.5291900038719177
15.981722831726074 -1.905016541481018 0.5269001722335815
15.981999397277832 -2.004582166671753 0.5223335027694702
15.773345947265625 -2.076814889907837 0.5584037899971008
15.845500946044922 -2.1853084564208984 0.5396072864532471
15.907191276550293 -2.2933666706085205 0.522691011428833
15.79631233215332 -2.3764290809631348 0.5394362807273865
15.96337604522705 -2.5018224716186523 0.5015594363212585
15.798114776611328 -2.5753650665283203 0.5288010239601135
16.36235237121582 -2.7704882621765137 0.41231799125671387
16.337865829467773 -2.869595766067505 0.4114978611469269
16.279943466186523 -2.9625375270843506 0.4171721637248993
16.206064224243164 -3.051973581314087 0.4259157180786133
16.25984764099121 -3.165555477142334 0.4092484414577484
16.082855224609375 -3.233690023422241 0.4382860064506531
16.076719284057617 -3.335252285003662 0.4332914650440216
16.10737419128418 -3.4448659420013428 0.4208245277404785
16.29159927368164 -3.588965892791748 0.37748363614082336
16.089868545532227 -3.648242712020874 0.41120031476020813
16.07919692993164 -3.7497470378875732 0.4065779149532318
16.149675369262695 -5.594691753387451 0.25455641746520996
16.130340576171875 -5.699182987213135 0.24910499155521393
16.162010192871094 -5.822263717651367 0.23277217149734497
16.15501594543457 -5.932088851928711 0.22439739108085632
16.186786651611328 -6.056828498840332 0.20765268802642822
16.104890823364258 -6.139216423034668 0.21483953297138214
16.110376358032227 -6.254904270172119 0.20334085822105408
12.65884780883789 12.872188568115234 0.37098389863967896
12.66634750366211 12.72317886352539 0.38758906722068787
12.668312072753906 12.570403099060059 0.40526968240737915
12.704720497131348 12.453215599060059 0.4138699173927307
12.675143241882324 12.273072242736816 0.4388715326786041
12.757603645324707 12.202593803405762 0.43534934520721436
13.3953275680542 12.656682968139648 0.2931521534919739
12.825693130493164 11.970684051513672 0.45201486349105835
12.871713638305664 11.86712646484375 0.4570424258708954
12.911855697631836 11.758814811706543 0.46331730484962463
12.954083442687988 11.653088569641113 0.4688747525215149
13.002120018005371 11.553168296813965 0.47281965613365173
13.037590980529785 11.442708969116211 0.4796238839626312
13.055102348327637 11.317423820495605 0.4905463457107544
13.090252876281738 11.208353996276855 0.4969925880432129
13.111039161682129 11.087839126586914 0.5066640377044678
13.14896297454834 10.982627868652344 0.5120334625244141
13.193681716918945 10.88362979888916 0.5156058669090271
13.241494178771973 10.787599563598633 0.5182769298553467
13.276365280151367 10.681522369384766 0.5238173604011536
13.318904876708984 10.582155227661133 0.5273792147636414
13.348347663879395 10.472949028015137 0.5338148474693298
13.387062072753906 10.371609687805176 0.5379109978675842
13.42581844329834 10.270788192749023 0.5418243408203125
13.470908164978027 10.175215721130371 0.5441139936447144
13.50586986541748 10.072415351867676 0.5485619902610779
13.54166316986084 9.970734596252441 0.5526468753814697
13.58626651763916 9.875932693481445 0.5545646548271179
13.61583423614502 9.770634651184082 0.5597272515296936
13.591657638549805 9.627813339233398 0.5768100619316101
13.702458381652832 9.58091926574707 0.5633631348609924
13.652119636535645 9.421835899353027 0.5858789086341858
13.9693603515625 9.515137672424316 0.5262730121612549
14.031147956848145 9.43203353881836 0.5236179232597351
13.84250259399414 9.182682991027832 0.5761982798576355
13.84469985961914 9.062602996826172 0.5862424969673157
13.864948272705078 8.955114364624023 0.5921215415000916
13.903475761413574 8.859874725341797 0.5938283205032349
14.193593978881836 8.923110961914062 0.540523111820221
14.031235694885254 8.701641082763672 0.5857864618301392
13.989177703857422 8.557432174682617 0.6045604348182678
14.04607105255127 8.474528312683105 0.6017093658447266
14.102473258972168 8.39124584197998 0.5988495349884033
13.979449272155762 8.202569961547852 0.6343984007835388
14.219749450683594 8.227005004882812 0.5918288826942444
14.222588539123535 8.112844467163086 0.6000622510910034
14.281982421875 8.03125286102295 0.5960797667503357
14.377022743225098 7.969260215759277 0.5844223499298096
14.69615364074707 8.028985977172852 0.525267481803894
15.140315055847168 8.151753425598145 0.43990808725357056
15.228705406188965 8.079487800598145 0.4297674596309662
15.232266426086426 7.962254524230957 0.4373549222946167
15.71553897857666 0.5405818819999695 0.5632622838020325
12.8572998046875 -0.7419724464416504 1.093202829360962
12.860990524291992 -0.8213717341423035 1.0897754430770874
15.92863655090332 -1.7059476375579834 0.45570337772369385
15.965218544006348 -1.809008002281189 0.444065123796463
15.988470077514648 -1.911072015762329 0.434949666261673
15.953652381896973 -2.0062787532806396 0.43733614683151245
15.73935604095459 -2.0775418281555176 0.47565048933029175
15.716194152832031 -2.172687530517578 0.47553446888923645
16.047712326049805 -2.318917989730835 0.4038780629634857
15.826213836669922 -2.386176586151123 0.4434303939342499
15.758552551269531 -2.4749817848205566 0.4519166946411133
15.735888481140137 -2.5704736709594727 0.4512127935886383
16.057645797729492 -3.029421329498291 0.3632062077522278
16.162487030029297 -3.1520378589630127 0.3357399106025696
16.128965377807617 -3.248391628265381 0.3363600969314575
16.117908477783203 -3.3492395877838135 0.3322634994983673
16.256736755371094 -3.4822983741760254 0.2972571551799774
16.09294319152832 -3.550687789916992 0.3242659270763397
16.10198402404785 -3.656475782394409 0.3156339228153229
16.044452667236328 -3.7471346855163574 0.32060641050338745
16.24601936340332 -5.633976459503174 0.13716843724250793
16.25320053100586 -5.7485270500183105 0.12582910060882568
16.190444946289062 -5.838459014892578 0.1294538676738739
16.19618034362793 -5.953185081481934 0.11810866743326187
16.130456924438477 -6.041749000549316 0.1221461296081543
16.124677658081055 -6.152779579162598 0.11299579590559006
12.693066596984863 12.776928901672363 0.26065582036972046
12.718501091003418 12.646875381469727 0.27291789650917053
12.644652366638184 12.420567512512207 0.3109934628009796
12.651758193969727 12.276405334472656 0.32733017206192017
12.720727920532227 12.19314956665039 0.32724934816360474
12.84838581085205 12.165590286254883 0.31183570623397827
12.853438377380371 12.022124290466309 0.32798460125923157
12.87526798248291 11.895726203918457 0.33952000737190247
12.924345970153809 11.79534912109375 0.34384748339653015
12.96829891204834 11.690865516662598 0.34928062558174133
13.015863418579102 11.590206146240234 0.3535999059677124
13.039806365966797 11.469284057617188 0.363655149936676
13.080565452575684 11.363967895507812 0.3692660927772522
13.127983093261719 11.264981269836426 0.3730210065841675
13.1454439163208 11.14106273651123 0.38400378823280334
13.198805809020996 11.04825496673584 0.3858989179134369
13.21820068359375 10.927664756774902 0.3959554135799408
13.235857009887695 10.806628227233887 0.4062000513076782
13.280067443847656 10.707987785339355 0.4097581207752228
13.294357299804688 10.585953712463379 0.4203770160675049
13.327736854553223 10.479933738708496 0.4261631965637207
13.366527557373047 10.37872314453125 0.4304594397544861
13.410819053649902 10.282210350036621 0.43326348066329956
13.452079772949219 10.18376350402832 0.4366217255592346
13.487916946411133 10.081666946411133 0.4410952031612396
13.520639419555664 9.977762222290039 0.4461257755756378
13.562918663024902 9.881354331970215 0.44872966408729553
13.601336479187012 9.78250503540039 0.45207563042640686
13.636648178100586 9.681849479675293 0.45597943663597107
13.677678108215332 9.585637092590332 0.4583854675292969
13.82872486114502 9.56584358215332 0.43517065048217773
14.118769645690918 9.639264106750488 0.3799319267272949
13.832610130310059 9.320320129394531 0.45734474062919617
13.825313568115234 9.192893028259277 0.47021979093551636
13.887609481811523 9.112245559692383 0.46698692440986633
13.91232967376709 9.007156372070312 0.4721820056438446
13.888275146484375 8.871438980102539 0.4882575273513794
13.964468002319336 8.800238609313965 0.4814451038837433
14.351451873779297 8.921852111816406 0.4045664072036743
13.983491897583008 8.574909210205078 0.49747106432914734
14.048033714294434 8.49661636352539 0.49289175868034363
14.0994873046875 8.41030502319336 0.4911235570907593
14.158029556274414 8.328160285949707 0.48765385150909424
14.215243339538574 8.24512004852295 0.48436346650123596
14.20206069946289 8.121712684631348 0.49651679396629333
14.280299186706543 8.050860404968262 0.48831498622894287
14.298110008239746 7.945959568023682 0.4933048188686371
14.767354011535645 8.08880615234375 0.399191677570343
14.970097541809082 8.0811185836792 0.36370640993118286
15.126471519470215 8.046341896057129 0.3383805453777313
15.731656074523926 0.5588149428367615 0.45765411853790283
12.881807327270508 -0.6491770148277283 1.0072293281555176
12.864526748657227 -0.7274469137191772 1.0081413984298706
12.865352630615234 -0.8066968321800232 1.0052576065063477
16.040815353393555 -1.600321888923645 0.3329754173755646
16.025400161743164 -1.6981502771377563 0.3318748474121094
15.969473838806152 -1.7913743257522583 0.3390156924724579
15.859509468078613 -1.8776437044143677 0.35723042488098145
15.941557884216309 -1.9866230487823486 0.3356274366378784
15.782958984375 -2.0652847290039062 0.36373648047447205
16.010234832763672 -2.195039749145508 0.31169235706329346
15.791464805603027 -2.2638533115386963 0.35212773084640503
15.771045684814453 -2.35978627204895 0.3512606620788574
15.749074935913086 -2.4554057121276855 0.35059797763824463
15.584412574768066 -2.5277931690216064 0.37963247299194336
15.634828567504883 -2.6345510482788086 0.3636334538459778
16.06171417236328 -2.8079757690429688 0.2685376703739166
15.968399047851562 -2.9941139221191406 0.2762531638145447
16.00697898864746 -3.1031713485717773 0.26198887825012207
16.058258056640625 -3.215508460998535 0.24487291276454926
16.061767578125 -3.318883180618286 0.23768113553524017
16.080890655517578 -3.4258933067321777 0.227033793926239
16.04191780090332 -3.520670175552368 0.2285660058259964
16.0596923828125 -3.628047227859497 0.21790927648544312
16.031925201416016 -3.72536039352417 0.2168031483888626
12.672378540039062 12.747241973876953 0.15355409681797028
12.684429168701172 12.60424518585205 0.16988463699817657
12.630755424499512 12.398311614990234 0.20373447239398956
12.654685974121094 12.270735740661621 0.21608443558216095
13.006165504455566 11.86182689666748 0.21258476376533508
13.021361351013184 11.730599403381348 0.22587519884109497
13.061841011047363 11.62312126159668 0.23229087889194489
13.086749076843262 11.502625465393066 0.24252760410308838
13.11141586303711 11.382904052734375 0.2525743544101715
13.142562866210938 11.269701957702637 0.26070931553840637
13.184800148010254 11.166691780090332 0.26578107476234436
13.190135955810547 11.033358573913574 0.280043363571167
13.233683586120605 10.932886123657227 0.28434693813323975
13.270413398742676 10.8273286819458 0.29018083214759827
13.309405326843262 10.72419261932373 0.2952454686164856
13.345330238342285 10.61915111541748 0.3008835017681122
13.376611709594727 10.511038780212402 0.30747953057289124
13.411724090576172 10.406548500061035 0.3129221796989441
13.445280075073242 10.301426887512207 0.31855541467666626
13.476490020751953 10.195097923278809 0.32457152009010315
13.521841049194336 10.099928855895996 0.32693102955818176
13.542840003967285 9.987112998962402 0.33506110310554504
13.582799911499023 9.888858795166016 0.33837759494781494
13.622066497802734 9.790484428405762 0.34169092774391174
13.65743637084961 9.689729690551758 0.345771849155426
13.693694114685059 9.590032577514648 0.3494647145271301
13.742964744567871 9.499737739562988 0.3498740792274475
13.790897369384766 9.285534858703613 0.362266480922699
13.823479652404785 9.185040473937988 0.3661435842514038
13.873400688171387 9.096328735351562 0.3657638728618622
13.890628814697266 8.986563682556152 0.37292391061782837
13.954998970031738 8.907544136047363 0.36885684728622437
13.949186325073242 8.784156799316406 0.3810509443283081
14.062390327453613 8.735719680786133 0.36534371972084045
14.045031547546387 8.60626220703125 0.37986451387405396
14.072795867919922 8.50525188446045 0.3837243318557739
14.135241508483887 8.425318717956543 0.3794293999671936
14.166790962219238 8.327041625976562 0.3821166455745697
14.205305099487305 8.233119010925293 0.383052796125412
14.274713516235352 8.157042503356934 0.37678977847099304
14.306117057800293 8.059237480163574 0.37907516956329346
14.370304107666016 7.979924201965332 0.3737662732601166
14.47535228729248 7.922728061676025 0.35909730195999146
15.746408462524414 0.5544639229774475 0.3543936610221863
12.882952690124512 -0.6533694267272949 0.9247812628746033
12.866630554199219 -0.7316988110542297 0.9255651831626892
12.857645034790039 -0.8103467226028442 0.9247047305107117
16.2059268951416 -1.6218247413635254 0.19505539536476135
16.03080940246582 -1.7037115097045898 0.2278839349746704
15.809617042541504 -1.7783762216567993 0.27048367261886597
15.763975143432617 -1.8712633848190308 0.2756556272506714
15.8944673538208 -1.985728144645691 0.24312332272529602
15.832080841064453 -2.0766794681549072 0.2516094148159027
15.997897148132324 -2.198366165161133 0.21114523708820343
15.970112800598145 -2.294487953186035 0.211947962641716
15.82276725769043 -2.3725171089172363 0.23830550909042358
15.763020515441895 -2.4625649452209473 0.24578449130058289
15.937376022338867 -2.5900931358337402 0.20273661613464355
16.028764724731445 -2.7060165405273438 0.17732903361320496
16.07789421081543 -2.815905809402466 0.1608489751815796
16.135894775390625 -2.9282479286193848 0.14226913452148438
16.02009391784668 -3.008917808532715 0.16119906306266785
15.997044563293457 -3.1063618659973145 0.1599208116531372
15.992582321166992 -3.2074849605560303 0.15447008609771729
15.986522674560547 -3.308474540710449 0.14922580122947693
15.96356201171875 -3.4060444831848145 0.14753319323062897
12.614405632019043 12.382153511047363 0.10252238065004349
12.62561321258545 12.242445945739746 0.11881648749113083
13.767012596130371 9.641538619995117 0.2312755584716797
13.810142517089844 9.546341896057129 0.23332737386226654
13.783905029296875 9.280999183654785 0.26445919275283813
13.827086448669434 9.187615394592285 0.26591455936431885
13.857348442077637 9.085989952087402 0.27035096287727356
13.898405075073242 8.991787910461426 0.27199798822402954
13.957000732421875 8.909025192260742 0.2692565619945526
14.065485000610352 8.619016647338867 0.2763475179672241
14.113469123840332 8.53006362915039 0.27557626366615295
14.154998779296875 8.437331199645996 0.2761973738670349
14.21366024017334 8.354835510253906 0.27261611819267273
14.243867874145508 8.255720138549805 0.2756248712539673
14.30997371673584 8.177450180053711 0.2700275480747223
16.185077667236328 0.769289493560791 0.16826021671295166
15.747781753540039 0.5550143718719482 0.25938430428504944
12.854766845703125 -0.730756402015686 0.8506230711936951
12.858463287353516 -0.8101292252540588 0.8470360040664673
15.839990615844727 -1.9783943891525269 0.15867190062999725
15.730231285095215 -2.06280255317688 0.17788775265216827
15.814599990844727 -2.172654628753662 0.15429624915122986
15.804390907287598 -2.2701547145843506 0.15136362612247467
15.826433181762695 -2.3725359439849854 0.1411769688129425
15.893179893493652 -2.4823575019836426 0.12094733864068985
15.771997451782227 -2.6621475219726562 0.13642819225788116
13.753053665161133 9.253326416015625 0.17927300930023193
13.845808982849121 9.193184852600098 0.16835790872573853
13.876935958862305 9.092005729675293 0.17275215685367584
13.898301124572754 8.984942436218262 0.1793934404850006
13.955187797546387 8.901123046875 0.17703478038311005
13.999971389770508 8.809640884399414 0.17753343284130096
14.063865661621094 8.260308265686035 0.2166740596294403
15.741135597229004 0.5496731400489807 0.17156124114990234
12.855812072753906 -0.7351377010345459 0.7772983908653259
12.856538772583008 -0.8143333196640015 0.7743142247200012
15.642768859863281 -1.8615044355392456 0.11712589859962463
15.68386173248291 -1.964063048362732 0.10307317227125168
15.64784049987793 -2.057159423828125 0.10625029355287552
12.860015869140625 -0.7205238938331604 0.696660041809082
12.850111961364746 -0.7990729212760925 0.6960898041725159
12.864847183227539 -0.7271580696105957 0.612499475479126
12.848095893859863 -0.8053081035614014 0.6135584712028503
12.846881866455078 -0.7235618829727173 0.536225438117981
12.85053539276123 -0.802876353263855 0.5324345827102661
12.840041160583496 -0.7252838015556335 0.4665287733078003
12.851414680480957 -0.805040180683136 0.4607771039009094
12.837737083435059 -0.714843213558197 0.3888891041278839
12.85301399230957 -0.7948129177093506 0.3820631206035614
12.829626083374023 -0.7161829471588135 0.30495113134384155
12.855477333068848 -0.7967599034309387 0.2952360212802887
12.819113731384277 -0.713053822517395 0.22882211208343506
12.847822189331055 -0.7937332987785339 0.218160018324852
12.819747924804688 -0.7174675464630127 0.15888985991477966
12.896540641784668 -0.8011408448219299 0.1349773406982422
13.612472534179688 13.79414176940918 0.1470007598400116
12.654413223266602 12.734240531921387 1.2923094034194946
12.68325424194336 12.670259475708008 1.2944365739822388
12.772640228271484 12.759866714477539 0.3746109902858734
12.707846641540527 12.606710433959961 1.2969121932983398
12.802862167358398 12.7013521194458 0.37713441252708435
12.726846694946289 12.537919998168945 1.3003040552139282
12.6924409866333 12.50448989868164 0.41381070017814636
12.741973876953125 12.465676307678223 1.304307460784912
12.718158721923828 12.44290828704834 0.4171951711177826
12.75993824005127 12.400896072387695 1.3074383735656738
12.779756546020508 12.333903312683105 1.310524344444275
12.802846908569336 12.270355224609375 1.3129979372024536
31.031335830688477 29.540319442749023 0.3341103196144104
12.823851585388184 12.205084800720215 1.3157776594161987
31.061525344848633 29.363353729248047 0.3393130898475647
12.84095287322998 12.136411666870117 1.3191694021224976
31.05776023864746 29.145286560058594 0.3482837677001953
12.868873596191406 12.07400894165039 1.320984125137329
12.897235870361328 12.101526260375977 0.43020734190940857
32.326988220214844 30.12360191345215 2.4001173973083496
31.120737075805664 29.001047134399414 0.3499848246574402
12.885346412658691 12.00535774230957 1.3243756294250488
12.9247407913208 12.043027877807617 0.43272697925567627
32.415592193603516 30.006080627441406 2.3983395099639893
31.1304931640625 28.8181209564209 0.3565961718559265
12.906708717346191 11.945731163024902 1.326585292816162
12.942679405212402 11.980048179626465 0.4370032548904419
32.47401809692383 29.850494384765625 2.3976263999938965
31.2122802734375 28.69244956970215 0.35626253485679626
12.929883003234863 11.883840560913086 1.3287492990493774
12.96604061126709 11.918155670166016 0.44037747383117676
32.529911041259766 29.69318389892578 2.39697527885437
31.271469116210938 28.546382904052734 0.35814329981803894
12.952781677246094 11.821928977966309 1.3309125900268555
12.98548698425293 11.852922439575195 0.4446077346801758
32.525848388671875 29.482135772705078 2.3983278274536133
13.035080909729004 11.817245483398438 2.1936209201812744
12.97172737121582 11.756671905517578 1.3336896896362305
13.010115623474121 11.79266357421875 0.44755223393440247
32.52070617675781 29.271480560302734 2.3996870517730713
13.044636726379395 11.74333667755127 2.1958556175231934
12.990379333496094 11.691426277160645 1.3364667892456055
13.023494720458984 11.72248649597168 0.4530675411224365
32.484676361083984 29.034570693969727 2.4020607471466064
13.057551383972168 11.67282485961914 2.197720527648926
13.012433052062988 11.629498481750488 1.3386282920837402
13.049399375915527 11.663850784301758 0.45558246970176697
32.461761474609375 28.800905227661133 2.4040167331695557
13.087075233459473 11.613324165344238 2.1980559825897217
13.038081169128418 11.566934585571289 1.3404362201690674
13.066014289855957 11.593087196350098 0.460623174905777
32.52447509765625 28.654407501220703 2.4029994010925293
13.114325523376465 11.556050300598145 2.1984357833862305
13.057722091674805 11.503334045410156 1.3429044485092163
13.09876823425293 11.54092025756836 0.4614206850528717
32.601619720458984 28.52098846435547 2.401472330093384
13.12820053100586 11.487236022949219 2.2001147270202637
13.084548950195312 11.446271896362305 1.3441410064697266
13.118340492248535 11.477314949035645 0.465219646692276
32.57518005371094 28.307836532592773 2.4033560752868652
13.143534660339355 11.424031257629395 2.2014687061309814
13.097919464111328 11.381685256958008 1.347270131111145
13.137508392333984 11.417619705200195 0.46863535046577454
32.5911979675293 28.132734298706055 2.4037861824035645
13.160478591918945 11.362480163574219 2.202636957168579
13.116640090942383 11.321998596191406 1.3494750261306763
13.163884162902832 11.364359855651855 0.47033289074897766
32.622676849365234 27.96190643310547 2.4037227630615234
13.182913780212402 11.301886558532715 2.203386068344116
13.135184288024902 11.258406639099121 1.3519421815872192
13.177053451538086 11.295927047729492 0.47541892528533936
32.63051986694336 27.771764755249023 2.404426336288452
13.206985473632812 11.242890357971191 2.2039482593536377
13.157224655151367 11.198040008544922 1.3537919521331787
13.201156616210938 11.237115859985352 0.4779277741909027
32.635520935058594 27.58029556274414 2.4051995277404785
13.234610557556152 11.187081336975098 2.204136610031128
13.1865816116333 11.144057273864746 1.3544076681137085
13.223132133483887 11.176685333251953 0.48086559772491455
32.6434211730957 27.39234733581543 2.405848979949951
13.254371643066406 11.124807357788086 2.2050697803497314
13.204319953918457 11.080439567565918 1.356872797012329
13.244847297668457 11.116238594055176 0.48380225896835327
32.64464569091797 27.19987678527832 2.4066965579986572
13.270030975341797 11.05933952331543 2.20637583732605
13.229399681091309 11.023187637329102 1.3581031560897827
13.268192291259766 11.05734920501709 0.4863085150718689
32.6400032043457 26.994075775146484 2.40775728225708
13.291146278381348 10.994754791259766 2.207261800765991
13.248499870300293 10.957255363464355 1.3605211973190308
13.283709526062012 10.988266944885254 0.4909175634384155
32.65666198730469 26.816566467285156 2.408036470413208
13.317771911621094 10.93881893157959 2.2074460983276367
13.271154403686523 10.898370742797852 1.3620582818984985
13.314132690429688 10.935606002807617 0.49170154333114624
32.67634963989258 26.642431259155273 2.408188581466675
13.33837604522705 10.878104209899902 2.208190441131592
13.297403335571289 10.8425931930542 1.3629764318466187
13.329081535339355 10.87041187286377 0.4959266483783722
32.687461853027344 26.46219825744629 2.408604145050049
13.358715057373047 10.817375183105469 2.2089340686798096
13.311858177185059 10.777403831481934 1.3657488822937012
13.35139274597168 10.811448097229004 0.4984300434589386
32.69965362548828 26.283777236938477 2.4089579582214355
