# .PCD v0.7 - Point Cloud Data file format
VERSION 0.7
FIELDS x y z
SIZE 4 4 4
TYPE F F F
COUNT 1 1 1
WIDTH 855
HEIGHT 1
VIEWPOINT 0 0 0 1 0 0 0
POINTS 855
DATA ascii
33.999107360839844 -8.932049751281738 2.9655447006225586
34.111576080322266 -9.185677528381348 2.957716703414917
34.245338439941406 -9.447400093078613 2.949388265609741
34.31173324584961 -9.692627906799316 2.942331314086914
34.063289642333984 -9.848498344421387 2.9416005611419678
34.36551284790039 -10.164741516113281 2.929647207260132
34.00288772583008 -10.284764289855957 2.931265115737915
34.04700469970703 -10.526524543762207 2.9245059490203857
33.99409484863281 -10.739097595214844 2.9197230339050293
33.96650314331055 -10.960013389587402 2.914381742477417
33.984004974365234 -11.196325302124023 2.9080443382263184
33.96102523803711 -11.420197486877441 2.902526378631592
33.979129791259766 -11.658809661865234 2.8960819244384766
34.008792877197266 -11.902698516845703 2.889331579208374
33.965179443359375 -12.121848106384277 2.8841397762298584
34.011287689208984 -12.374067306518555 2.876922845840454
33.99651336669922 -12.605409622192383 2.871004819869995
44.11659240722656 -16.66625213623047 2.6360867023468018
44.136566162109375 -16.98395538330078 2.627399206161499
44.18408203125 -17.314205169677734 2.6180057525634766
44.1688346862793 -17.621593475341797 2.6099798679351807
44.20891189575195 -17.952768325805664 2.6006016731262207
44.27152633666992 -18.295406341552734 2.5906076431274414
44.282745361328125 -18.618947982788086 2.581739664077759
44.31004333496094 -18.951175689697266 2.572411060333252
29.703948974609375 -12.920510292053223 2.91605806350708
29.645980834960938 -13.11218547821045 2.911550283432007
44.4266242980957 -19.97614097595215 2.543067693710327
44.46223068237305 -20.321012496948242 2.5331830978393555
44.51249694824219 -20.67507553100586 2.5228421688079834
44.465152740478516 -20.9857177734375 2.5148541927337646
34.42645263671875 -16.506982803344727 2.7600700855255127
34.39274215698242 -16.751123428344727 2.753706216812134
34.40303039550781 -17.018077850341797 2.746159315109253
34.27732849121094 -17.218475341796875 2.742075204849243
34.15224075317383 -17.41887855529785 2.7379612922668457
34.09967041015625 -17.65654945373535 2.731919050216675
34.129539489746094 -17.938417434692383 2.723634958267212
34.448307037353516 -18.376588821411133 2.707507610321045
34.35854721069336 -18.60040855407715 2.70223069190979
34.26996994018555 -18.82526206970215 2.6968891620635986
30.569915771484375 -17.03778076171875 2.790957450866699
30.35071563720703 -17.16053009033203 2.790004253387451
34.34490966796875 -19.69790267944336 2.6711158752441406
34.410823822021484 -20.017292022705078 2.6611902713775635
34.4431037902832 -20.319942474365234 2.6521108150482178
34.494407653808594 -20.63656997680664 2.6423888206481934
34.453369140625 -20.900146484375 2.6352314949035645
34.38058090209961 -21.14566421508789 2.628937005996704
34.45283126831055 -21.482582092285156 2.6183207035064697
34.3067512512207 -21.684972763061523 2.6140635013580322
34.407798767089844 -22.045475006103516 2.6023898124694824
34.46964645385742 -22.38461685180664 2.5917577743530273
34.44678497314453 -22.671483993530273 2.5835795402526855
34.40922164916992 -22.950592041015625 2.5757713317871094
34.461456298828125 -23.292226791381836 2.5651025772094727
34.716983795166016 -23.776573181152344 2.5479557514190674
34.725563049316406 -24.096799850463867 2.5383529663085938
30.11838722229004 -21.174808502197266 2.6753623485565186
34.789371490478516 -24.779081344604492 2.5173258781433105
34.8684196472168 -25.159311294555664 2.5051000118255615
34.818199157714844 -25.44941520690918 2.496936321258545
34.856510162353516 -25.80706214904785 2.4857757091522217
34.87094497680664 -26.150541305541992 2.475270986557007
34.89122009277344 -26.501808166503906 2.464445114135742
34.9045295715332 -26.85126304626465 2.4537229537963867
34.911705017089844 -27.199413299560547 2.443079710006714
34.867252349853516 -27.510269165039062 2.434082269668579
34.8031120300293 -27.807872772216797 2.425666570663452
34.694664001464844 -28.07176971435547 2.4187116622924805
34.639183044433594 -28.38036346435547 2.4098219871520996
34.84971618652344 -28.91207504272461 2.3913567066192627
34.88126754760742 -29.301477432250977 2.379051923751831
34.8575553894043 -29.648311614990234 2.368589401245117
34.88467788696289 -30.04226303100586 2.356137990951538
34.877376556396484 -30.410724639892578 2.3447909355163574
34.944793701171875 -30.84902000427246 2.330515146255493
34.83373260498047 -31.13340950012207 2.322749614715576
34.96064376831055 -31.63489532470703 2.3058712482452393
34.92274475097656 -31.992578506469727 2.295055627822876
34.829734802246094 -32.30271911621094 2.286231756210327
34.87705612182617 -32.74702835083008 2.2718310356140137
32.32709884643555 23.988765716552734 3.3489365577697754
32.484107971191406 23.797687530517578 3.344809055328369
32.53464889526367 23.529403686523438 3.3416006565093994
32.49116134643555 23.195741653442383 3.339226484298706
32.6352653503418 22.997718811035156 3.335142135620117
32.718231201171875 22.757116317749023 3.33158802986145
32.74753952026367 22.4807071685791 3.3285117149353027
32.655479431152344 22.124027252197266 3.3265602588653564
32.59021759033203 21.789339065551758 3.3243649005889893
32.63058853149414 21.52787971496582 3.3211634159088135
32.78797912597656 21.34421730041504 3.316819906234741
33.00828552246094 21.20050621032715 3.3118298053741455
32.685791015625 20.71126365661621 3.3121178150177
33.09709548950195 20.68846321105957 3.3051915168762207
32.860755920410156 20.261457443237305 3.304651975631714
32.702449798583984 19.88802146911621 3.303359031677246
32.79807662963867 19.671606063842773 3.2995049953460693
32.62891387939453 19.298986434936523 3.2983405590057373
32.74319076538086 19.096446990966797 3.2942657470703125
32.79987335205078 18.8608341217041 3.2907631397247314
32.693965911865234 18.53400421142578 3.288951873779297
32.89429473876953 18.381879806518555 3.2839009761810303
32.75852966308594 18.043212890625 3.2824010848999023
33.353660583496094 18.10526466369629 3.2730319499969482
44.70951461791992 23.916067123413086 3.146500825881958
44.616485595703125 23.515460968017578 3.14346981048584
44.51136016845703 23.112293243408203 3.1405751705169678
44.3504524230957 22.684436798095703 3.1383087635040283
44.26189041137695 22.297672271728516 3.1352453231811523
44.00364303588867 21.830188751220703 3.1341075897216797
43.952484130859375 21.469865798950195 3.130636692047119
43.78141784667969 21.05465316772461 3.1285436153411865
43.66205978393555 20.668453216552734 3.125866651535034
43.47797775268555 20.255796432495117 3.123955488204956
43.3704833984375 19.88285255432129 3.1211607456207275
43.23817443847656 19.502126693725586 3.118666648864746
43.081817626953125 19.11444854736328 3.1164722442626953
42.979164123535156 18.754220962524414 3.1136422157287598
42.8204231262207 18.373109817504883 3.1115005016326904
42.75260925292969 18.0342960357666 3.108258008956909
42.58896255493164 17.658329010009766 3.1061980724334717
42.49270248413086 17.313724517822266 3.1033151149749756
42.3167724609375 16.940126419067383 3.1014344692230225
42.287689208984375 16.628253936767578 3.097714424133301
42.12485885620117 16.266590118408203 3.0956900119781494
41.9881706237793 15.918539047241211 3.0933449268341064
41.87504959106445 15.582545280456543 3.090705633163452
41.68613052368164 15.22178840637207 3.0890612602233887
41.61298370361328 14.906431198120117 3.085916042327881
41.542259216308594 14.594202041625977 3.082736015319824
41.34353256225586 14.240091323852539 3.0812618732452393
41.288883209228516 13.93854808807373 3.0778725147247314
41.1314697265625 13.604926109313965 3.0758697986602783
41.045719146728516 13.297801971435547 3.072903871536255
40.972049713134766 12.996777534484863 3.0697720050811768
40.815067291259766 12.671957015991211 3.0677905082702637
40.758026123046875 12.38065242767334 3.0644302368164062
40.63185119628906 12.07059097290039 3.0620346069335938
40.542789459228516 11.773981094360352 3.0591213703155518
40.40736770629883 11.466361045837402 3.0568687915802
40.36317825317383 11.186755180358887 3.053317070007324
40.238895416259766 10.886969566345215 3.0509135723114014
40.41120147705078 10.668000221252441 3.0441973209381104
40.860233306884766 10.518877029418945 3.0333666801452637
41.328338623046875 10.36950969696045 3.02213978767395
41.76699447631836 10.207670211791992 3.011233329772949
42.241188049316406 10.049397468566895 2.9996798038482666
42.67505645751953 9.876442909240723 2.9886133670806885
43.15715408325195 9.709513664245605 2.9766993522644043
43.63292694091797 9.535757064819336 2.964756488800049
44.14436721801758 9.364202499389648 2.9521384239196777
44.63279724121094 9.182092666625977 2.939743757247925
44.87353515625 8.945075035095215 2.9310922622680664
44.934349060058594 8.6709623336792 2.9251976013183594
44.974815368652344 8.392952919006348 2.919588327407837
44.84233474731445 8.083904266357422 2.9167068004608154
45.00033950805664 7.827695369720459 2.9091603755950928
45.038543701171875 7.550011157989502 2.9034926891326904
45.06023025512695 7.269763946533203 2.8980600833892822
45.090057373046875 6.9910664558410645 2.892463207244873
45.121124267578125 6.712717533111572 2.8868141174316406
45.14750671386719 6.433826446533203 2.881208896636963
45.1771125793457 6.155539512634277 2.8755173683166504
45.202030181884766 5.876743793487549 2.869870662689209
45.22920227050781 5.59836483001709 2.8641529083251953
45.25266647338867 5.319639682769775 2.858464479446411
45.276405334472656 5.04105806350708 2.85273814201355
45.30936050415039 4.763535499572754 2.8468172550201416
45.34161376953125 4.485896110534668 2.8408727645874023
45.374149322509766 4.208224773406982 2.834886312484741
45.39204025268555 3.9292004108428955 2.8291218280792236
45.34443283081055 3.6449859142303467 2.824490547180176
45.43264389038086 3.371717929840088 2.8174033164978027
12.54489803314209 0.8527692556381226 3.4061241149902344
12.556853294372559 0.7762307524681091 3.4043667316436768
45.53460693359375 2.537764072418213 2.7988064289093018
45.566192626953125 2.2592337131500244 2.792572021484375
45.585079193115234 1.9799327850341797 2.7865331172943115
19.528959274291992 0.727522075176239 3.2678041458129883
19.219219207763672 0.5979284048080444 3.2711658477783203
13.021541595458984 0.32477444410324097 3.3861305713653564
12.970279693603516 0.2438882738351822 3.385444402694702
45.7057991027832 0.5820924043655396 2.7552640438079834
12.577323913574219 0.08212707191705704 3.3896963596343994
12.610557556152344 0.004987999796867371 3.38741397857666
12.24739933013916 -0.07032236456871033 3.392878770828247
12.307694435119629 -0.14616908133029938 3.3900773525238037
12.319534301757812 -0.2218988537788391 3.3882124423980713
12.17098617553711 -0.29393357038497925 3.389540195465088
12.047008514404297 -0.3649086058139801 3.3904030323028564
11.87865924835205 -0.43277686834335327 3.392188310623169
11.967653274536133 -0.5095397233963013 3.388761043548584
13.554062843322754 -0.6602403521537781 3.354560136795044
13.188344955444336 -0.7235798239707947 3.360255002975464
12.830358505249023 -0.7829446196556091 3.365878105163574
46.09720993041992 -3.0937259197235107 2.667371988296509
12.78482723236084 -0.9377378225326538 3.3632543087005615
46.119327545166016 -3.664097785949707 2.653942108154297
12.880879402160645 -1.1038110256195068 3.357584238052368
13.315875053405762 -1.223376750946045 3.3463869094848633
11.813591003417969 -1.1586211919784546 3.3770010471343994
12.169182777404785 -1.2688757181167603 3.367539405822754
12.454289436340332 -1.3758574724197388 3.359509229660034
11.759398460388184 -1.3722302913665771 3.3730320930480957
12.818445205688477 -1.5754660367965698 3.347743272781372
13.565048217773438 -1.7516939640045166 3.329122304916382
13.538161277770996 -1.8327289819717407 3.3276963233947754
12.75055980682373 -1.8059008121490479 3.3435232639312744
12.775801658630371 -1.8894914388656616 3.341010093688965
13.560332298278809 -2.0905299186706543 3.3210179805755615
13.527475357055664 -2.1705081462860107 3.3196897506713867
13.524715423583984 -2.2552571296691895 3.317655563354492
12.772747039794922 -2.210554361343384 3.333181858062744
13.23912239074707 -2.3749642372131348 3.3201584815979004
13.619407653808594 -2.529484748840332 3.309019088745117
13.108773231506348 -2.517982244491577 3.319065809249878
29.60366439819336 -5.873348712921143 2.919527292251587
33.72650146484375 -6.906460762023926 2.8147261142730713
33.7205696105957 -7.121067523956299 2.8093655109405518
33.759185791015625 -7.345849990844727 2.802870988845825
33.75630569458008 -7.56241512298584 2.7973482608795166
12.69235897064209 -2.9261362552642822 3.31655216217041
33.74053955078125 -7.994877338409424 2.786428213119507
33.910274505615234 -8.255134582519531 2.7764217853546143
33.90156555175781 -8.473658561706543 2.7708492279052734
33.846900939941406 -8.680964469909668 2.766411542892456
33.89828872680664 -8.916143417358398 2.759213447570801
34.07063674926758 -9.185319900512695 2.748812198638916
34.069427490234375 -9.40958023071289 2.74283766746521
34.01191329956055 -9.618668556213379 2.738295793533325
33.95503616333008 -9.827959060668945 2.733708381652832
33.93329620361328 -10.047698974609375 2.7281556129455566
33.92066192626953 -10.270729064941406 2.7223165035247803
33.911338806152344 -10.49545955657959 2.716341257095337
33.96057891845703 -10.739449501037598 2.7087247371673584
33.98716735839844 -10.977679252624512 2.701658248901367
34.006412506103516 -11.214759826660156 2.6947314739227295
33.962440490722656 -11.4317626953125 2.6894984245300293
34.03337478637695 -11.688584327697754 2.6810145378112793
34.01279830932617 -11.915308952331543 2.6750240325927734
34.00954818725586 -12.148947715759277 2.6684930324554443
34.03946304321289 -12.395648956298828 2.6609604358673096
34.141658782958984 -12.670647621154785 2.651278495788574
34.31375503540039 -12.97458553314209 2.6394734382629395
34.32294845581055 -13.219319343566895 2.6322875022888184
34.333213806152344 -13.465746879577637 2.625004291534424
34.34360122680664 -13.713539123535156 2.6176507472991943
34.32908248901367 -13.952556610107422 2.6109707355499268
34.37757873535156 -14.218652725219727 2.6023430824279785
34.37987518310547 -14.46725845336914 2.5950236320495605
34.36570358276367 -14.710134506225586 2.5881378650665283
29.719486236572266 -12.937838554382324 2.722991466522217
34.42643356323242 -15.238655090332031 2.571432113647461
34.43244552612305 -15.494667053222656 2.563711404800415
34.43296813964844 -15.749664306640625 2.5560877323150635
34.410804748535156 -15.995556831359863 2.5491058826446533
34.366127014160156 -16.231952667236328 2.542773962020874
34.38382339477539 -16.499103546142578 2.534395933151245
34.36629104614258 -16.75087547302246 2.527066707611084
34.3729362487793 -17.01591682434082 2.5188844203948975
34.28026580810547 -17.232730865478516 2.513862133026123
34.174659729003906 -17.443143844604492 2.5092289447784424
34.08461380004883 -17.661649703979492 2.504049777984619
34.13473129272461 -17.954151153564453 2.4941565990448
34.298038482666016 -18.30959129333496 2.480351448059082
34.31324768066406 -18.589149475097656 2.4713938236236572
34.26762008666992 -18.83732032775879 2.464416265487671
30.685571670532227 -17.114383697509766 2.5788381099700928
30.2066593170166 -17.091142654418945 2.587617874145508
34.323036193847656 -19.69904327392578 2.436380386352539
34.32147216796875 -19.97911262512207 2.4275360107421875
34.47699737548828 -20.35390281677246 2.413038969039917
34.481689453125 -20.643043518066406 2.4037399291992188
34.43115234375 -20.900848388671875 2.396322250366211
34.49280548095703 -21.22901153564453 2.3847720623016357
34.41011047363281 -21.470355987548828 2.378347873687744
34.44400405883789 -21.78628158569336 2.367581605911255
34.434078216552734 -22.076997756958008 2.3583121299743652
34.51658630371094 -22.429946899414062 2.345494031906128
34.40906524658203 -22.661598205566406 2.339658498764038
34.42387008666992 -22.97544288635254 2.329141139984131
34.59424591064453 -23.39726448059082 2.3125624656677246
34.6997184753418 -23.780227661132812 2.2982630729675293
34.715572357177734 -24.10550308227539 2.287254571914673
30.069095611572266 -21.15396499633789 2.458233594894409
34.810001373291016 -24.80975914001465 2.2623684406280518
34.809326171875 -25.1328125 2.2515933513641357
34.81243896484375 -25.46150779724121 2.240536689758301
34.846553802490234 -25.816173553466797 2.228095293045044
34.84164047241211 -26.14521598815918 2.217083215713501
34.8889045715332 -26.516897201538086 2.20379900932312
34.888553619384766 -26.85599708557129 2.1923089027404785
34.87825012207031 -27.1905517578125 2.181089162826538
34.88867950439453 -27.544570922851562 2.1688594818115234
34.8258171081543 -27.84356689453125 2.159573793411255
34.68912124633789 -28.084970474243164 2.153327226638794
34.74864196777344 -28.487953186035156 2.1385834217071533
34.83219528198242 -28.915699005126953 2.1225969791412354
34.605003356933594 -29.087663650512695 2.1199729442596436
34.8291130065918 -29.6426944732666 2.0974538326263428
34.75922775268555 -29.952991485595703 2.0876693725585938
34.94440460205078 -30.488250732421875 2.0663304328918457
34.91831588745117 -30.84494400024414 2.0542242527008057
34.773681640625 -31.09919548034668 2.0473618507385254
34.91321563720703 -31.611759185791016 2.027360200881958
34.96597671508789 -32.05223083496094 2.011082410812378
34.88570022583008 -32.37488555908203 2.000793218612671
34.90475082397461 -32.793556213378906 1.9856836795806885
37.13930892944336 28.605566024780273 3.0376641750335693
37.54729080200195 28.19280242919922 3.0274178981781006
32.54414367675781 24.125099182128906 3.106451988220215
32.21298599243164 23.574800491333008 3.110154867172241
32.298580169677734 23.334583282470703 3.107081651687622
32.43372344970703 23.130788803100586 3.1031651496887207
32.340293884277344 22.766191482543945 3.102954626083374
32.39059829711914 22.50575065612793 3.1003665924072266
32.49995040893555 22.287403106689453 3.0967748165130615
32.45630645751953 21.96599578857422 3.0956783294677734
32.473140716552734 21.688173294067383 3.0935587882995605
32.48194885253906 21.407123565673828 3.0915465354919434
32.51871109008789 21.146408081054688 3.0890417098999023
32.65785598754883 20.953006744384766 3.0847902297973633
32.61336135864258 20.643177032470703 3.083591938018799
32.70115661621094 20.41889190673828 3.080139636993408
32.646095275878906 20.107255935668945 3.079075813293457
32.51837921142578 19.75449562072754 3.0792324542999268
32.60972595214844 19.537168502807617 3.0756397247314453
32.67552185058594 19.305227279663086 3.072449207305908
32.751792907714844 19.080259323120117 3.0690464973449707
32.424251556396484 18.62398338317871 3.0725901126861572
32.59176254272461 18.455278396606445 3.06756591796875
32.59166717529297 18.19213104248047 3.065415143966675
32.697330474853516 17.98896598815918 3.0613934993743896
32.87995147705078 17.827611923217773 3.0559847354888916
33.302574157714844 17.793338775634766 3.0463006496429443
44.65168380737305 23.506916046142578 2.843322277069092
44.53311538696289 23.096750259399414 2.84232497215271
44.36311340332031 22.664363861083984 2.842228412628174
44.28775405883789 22.284378051757812 2.840433120727539
43.99707794189453 21.800952911376953 2.8424856662750244
43.927703857421875 21.431995391845703 2.8405580520629883
43.804996490478516 21.04046630859375 2.8395771980285645
43.677337646484375 20.650400161743164 2.8386733531951904
43.489444732666016 20.236116409301758 2.8388595581054688
43.37358093261719 19.859474182128906 2.8377227783203125
43.20824432373047 19.46407127380371 2.83748459815979
43.12379837036133 19.108718872070312 2.8357467651367188
42.96788787841797 18.725175857543945 2.8353192806243896
42.82820129394531 18.352537155151367 2.8345835208892822
42.75559616088867 18.01182746887207 2.832585096359253
42.59175109863281 17.635976791381836 2.8322842121124268
42.500850677490234 17.293720245361328 2.8306028842926025
42.31452560424805 16.916126251220703 2.8307158946990967
42.27315139770508 16.599586486816406 2.8280701637268066
42.04944610595703 16.21475601196289 2.8288888931274414
41.9404411315918 15.87790584564209 2.827512502670288
41.856075286865234 15.553109169006348 2.8256497383117676
41.768367767333984 15.229602813720703 2.8238370418548584
41.6368522644043 14.892942428588867 2.822862148284912
41.53675079345703 14.570387840270996 2.821268081665039
41.35673904418945 14.222956657409668 2.8212294578552246
41.26878356933594 13.910223007202148 2.819377899169922
41.138675689697266 13.5859375 2.8183484077453613
41.10889434814453 13.297008514404297 2.8153164386749268
40.95130157470703 12.96910572052002 2.814815044403076
40.84663009643555 12.660810470581055 2.8132500648498535
40.766517639160156 12.362414360046387 2.811180353164673
40.641151428222656 12.05268383026123 2.810011863708496
40.56346130371094 11.759437561035156 2.8078675270080566
40.421180725097656 11.449885368347168 2.8070285320281982
40.319034576416016 11.154253005981445 2.8053627014160156
40.22734069824219 10.863694190979004 2.8034703731536865
40.39657211303711 10.643983840942383 2.7961621284484863
40.86963653564453 10.500994682312012 2.7824695110321045
41.336631774902344 10.351137161254883 2.768784284591675
41.768341064453125 10.18741226196289 2.755718231201172
42.20736312866211 10.020624160766602 2.7423832416534424
42.663429260253906 9.852879524230957 2.728569984436035
43.14534378051758 9.685826301574707 2.714083671569824
43.63656234741211 9.515357971191406 2.6992695331573486
44.127296447753906 9.33922290802002 2.684335231781006
44.618473052978516 9.157623291015625 2.669257640838623
44.89137268066406 8.927044868469238 2.6587817668914795
44.9275016784668 8.648097038269043 2.653378486633301
44.96778869628906 8.370139122009277 2.647841453552246
44.88434600830078 8.070068359375 2.6449835300445557
44.993953704833984 7.805179119110107 2.637838363647461
45.03593063354492 7.528200626373291 2.6321372985839844
45.058433532714844 7.248141288757324 2.6268258094787598
45.08710861206055 6.969310760498047 2.62133526802063
45.11701583862305 6.690840244293213 2.6157727241516113
45.14421844482422 6.4121246337890625 2.610229253768921
45.16771697998047 6.133057117462158 2.6047260761260986
45.191471099853516 5.854199409484863 2.5991744995117188
45.22937774658203 5.577238082885742 2.593255043029785
45.252681732177734 5.298518180847168 2.587625741958618
33.39430236816406 3.702011823654175 2.8577475547790527
33.41131591796875 3.4965708255767822 2.85353422164917
33.429054260253906 3.291255474090576 2.8492720127105713
45.350608825683594 4.185003757476807 2.56455659866333
45.38127136230469 3.90724515914917 2.558530569076538
45.36738204956055 3.625840902328491 2.553515911102295
12.515398979187012 0.9215489625930786 3.3336379528045654
45.472015380859375 3.0733025074005127 2.540194511413574
45.500850677490234 2.794980525970459 2.534020185470581
12.578047752380371 0.6937352418899536 3.327594041824341
45.557395935058594 2.2378265857696533 2.521552801132202
45.56613540649414 1.9581499099731445 2.51572322845459
19.456825256347656 0.7154208421707153 3.1534390449523926
12.05156135559082 0.36834287643432617 3.3344080448150635
12.039569854736328 0.2940638065338135 3.3331868648529053
12.343966484069824 0.22579365968704224 3.3240408897399902
12.528011322021484 0.15232166647911072 3.3178319931030273
12.653632164001465 0.07624118775129318 3.313040018081665
45.76313781738281 0.0003491354000288993 2.470184564590454
12.775498390197754 -0.07974563539028168 3.306624174118042
12.949662208557129 -0.16025005280971527 3.300466537475586
12.947397232055664 -0.23966580629348755 3.2988011837005615
12.745771408081055 -0.3141896724700928 3.3022944927215576
12.761551856994629 -0.39292100071907043 3.3001604080200195
12.450177192687988 -0.45984622836112976 3.306582450866699
12.138476371765137 -0.522966742515564 3.3130853176116943
12.949735641479492 -0.6373907327651978 3.2899203300476074
12.896635055541992 -0.7141158580780029 3.289527654647827
12.825119972229004 -0.7891115546226501 3.2896289825439453
12.849921226501465 -0.8697903752326965 3.287144422531128
12.853275299072266 -0.949260413646698 3.2852187156677246
46.12394714355469 -3.6857333183288574 2.378655195236206
13.220037460327148 -1.1395262479782104 3.271477222442627
11.954567909240723 -1.1045639514923096 3.304323196411133
12.044027328491211 -1.1873726844787598 3.300089120864868
12.193560600280762 -1.2776648998260498 3.294145107269287
12.70705795288086 -1.4102433919906616 3.2779760360717773
33.946781158447266 -3.974973440170288 2.67962908744812
11.677767753601074 -1.44142484664917 3.3031814098358154
12.72343921661377 -1.649614691734314 3.2717056274414062
12.774450302124023 -1.7359683513641357 3.268280267715454
13.801681518554688 -1.9617022275924683 3.2368078231811523
12.658170700073242 -1.8786327838897705 3.2676315307617188
14.086671829223633 -2.178809881210327 3.2241780757904053
14.3009672164917 -2.3018412590026855 3.215672731399536
13.33315372467041 -2.230203628540039 3.2417564392089844
13.246294021606445 -2.2993111610412598 3.242149591445923
13.258456230163574 -2.38529896736145 3.2396159172058105
13.207168579101562 -2.4598188400268555 3.238952159881592
12.804068565368652 -2.466174364089966 3.2488393783569336
12.690616607666016 -2.5251801013946533 3.2501070499420166
12.585740089416504 -2.584696054458618 3.2511346340179443
33.725521087646484 -7.138516902923584 2.6041650772094727
33.756160736083984 -7.361658096313477 2.5974042415618896
33.805816650390625 -7.590041160583496 2.5899956226348877
33.76238250732422 -7.798171043395996 2.5854058265686035
33.87910842895508 -8.044377326965332 2.5757837295532227
33.91832733154297 -8.273835182189941 2.5684990882873535
33.914310455322266 -8.49363899230957 2.5625112056732178
33.71428298950195 -8.663711547851562 2.562692403793335
33.89716720581055 -8.93274974822998 2.5506670475006104
34.055816650390625 -9.198360443115234 2.5392980575561523
34.04773712158203 -9.420685768127441 2.533198118209839
34.036293029785156 -9.642712593078613 2.5271530151367188
34.01763916015625 -9.86328411102295 2.521289825439453
33.98222351074219 -10.079442977905273 2.5159261226654053
33.88900375366211 -10.278426170349121 2.5124285221099854
33.934959411621094 -10.52014446258545 2.504276990890503
34.06593322753906 -10.79027271270752 2.4932029247283936
34.04650115966797 -11.01441764831543 2.4870755672454834
34.0540771484375 -11.248132705688477 2.4799795150756836
34.03164291381836 -11.472777366638184 2.4738380908966064
34.08428955078125 -11.723899841308594 2.4650678634643555
34.04742431640625 -11.945329666137695 2.459296703338623
34.05710983276367 -12.183917999267578 2.451859474182129
34.064208984375 -12.422731399536133 2.44443941116333
34.19987869262695 -12.710479736328125 2.432436227798462
34.31272888183594 -12.992573738098145 2.4211103916168213
34.31801986694336 -13.235894203186035 2.4134867191314697
34.30579376220703 -13.473557472229004 2.4064135551452637
34.320709228515625 -13.723069190979004 2.398296356201172
34.348663330078125 -13.97929859161377 2.3896262645721436
34.357215881347656 -14.229120254516602 2.381575107574463
34.37043380737305 -14.482290267944336 2.3732705116271973
34.345088958740234 -14.72040843963623 2.366305112838745
34.359344482421875 -14.976730346679688 2.357801914215088
29.613998413085938 -13.125419616699219 2.5269553661346436
34.4068717956543 -15.502628326416016 2.339818239212036
34.421817779541016 -15.76415729522705 2.3310177326202393
34.405845642089844 -16.01296043395996 2.323303699493408
34.408897399902344 -16.271984100341797 2.314781427383423
34.387535095214844 -16.520828247070312 2.307112216949463
34.35723114013672 -16.766517639160156 2.2997114658355713
34.3493766784668 -17.024436950683594 2.291358709335327
34.28607940673828 -17.255937576293945 2.2850983142852783
34.170509338378906 -17.461381912231445 2.280846357345581
34.059024810791016 -17.668819427490234 2.276395797729492
34.18593215942383 -18.001724243164062 2.262352228164673
34.306495666503906 -18.334964752197266 2.248400926589966
34.3917350769043 -18.652729034423828 2.2357189655303955
34.27386474609375 -18.86189842224121 2.2311978340148926
30.66875648498535 -17.124162673950195 2.370209217071533
30.186445236206055 -17.098718643188477 2.381683588027954
34.22196578979492 -19.66263198852539 2.2048089504241943
34.38718795776367 -20.039220809936523 2.188150644302368
34.48109436035156 -20.378408432006836 2.1743040084838867
34.36639404296875 -20.59621238708496 2.169175624847412
34.44503402709961 -20.93169593811035 2.1557087898254395
34.46298599243164 -21.2332706451416 2.1446993350982666
34.44038391113281 -21.51203155517578 2.1353232860565186
34.36752700805664 -21.76084327697754 2.1280415058135986
34.53091812133789 -22.162311553955078 2.110264539718628
34.51139831542969 -22.44999122619629 2.100382089614868
34.4454231262207 -22.709117889404297 2.0924630165100098
34.45899200439453 -23.022676467895508 2.0808725357055664
34.65288162231445 -23.461057662963867 2.0609612464904785
34.7306022644043 -23.825801849365234 2.046095371246338
34.70338821411133 -24.121660232543945 2.035869836807251
30.03302574157715 -21.150224685668945 2.24074387550354
34.795719146728516 -24.824722290039062 2.0081946849823
34.77701950073242 -25.13485336303711 1.9971421957015991
34.81951141357422 -25.49232292175293 1.98305344581604
34.81958770751953 -25.82209014892578 1.9708070755004883
34.82650375366211 -26.160015106201172 1.958075761795044
34.866363525390625 -26.526216506958008 1.9435844421386719
34.86978530883789 -26.868270874023438 1.9306800365447998
34.850616455078125 -27.19599723815918 1.9187191724777222
34.88832092285156 -27.57158088684082 1.9037848711013794
34.84469985961914 -27.886211395263672 1.8927115201950073
34.68672561645508 -28.11075210571289 1.8872488737106323
34.70960998535156 -28.483991622924805 1.8725593090057373
34.81144332885742 -28.926895141601562 1.8536332845687866
34.842613220214844 -29.316144943237305 1.8380787372589111
34.823150634765625 -29.666690826416016 1.824938416481018
34.81732940673828 -30.03244972229004 1.8109036684036255
34.91670227050781 -30.493894577026367 1.7911264896392822
34.91065216064453 -30.868330001831055 1.7766672372817993
34.8529167175293 -31.200519561767578 1.7647744417190552
34.92641830444336 -31.65460205078125 1.74562668800354
34.9647331237793 -32.08238220214844 1.7281149625778198
34.9083137512207 -32.4275016784668 1.715547800064087
34.95452117919922 -32.87237548828125 1.6971219778060913
32.3521842956543 30.096506118774414 2.865119457244873
32.510345458984375 29.873802185058594 2.861739158630371
32.82912063598633 29.797454833984375 2.854495048522949
32.37467575073242 29.024866104125977 2.8655283451080322
32.42702102661133 28.715030670166016 2.864487648010254
32.71234893798828 28.61167335510254 2.8578720092773438
37.011165618896484 28.564632415771484 2.754401683807373
37.292152404785156 28.41826057434082 2.747260093688965
32.70635986328125 24.608179092407227 2.855720281600952
32.36380386352539 24.04102325439453 2.8633599281311035
32.211456298828125 23.6226863861084 2.8664393424987793
32.21556091308594 23.32321548461914 2.865753650665283
32.32865524291992 23.104228973388672 2.8624258041381836
32.313636779785156 22.7954044342041 2.8621068000793457
32.42815399169922 22.57961654663086 2.8586528301239014
32.336891174316406 22.22284698486328 2.8600692749023438
32.32854080200195 21.92641830444336 2.859464406967163
32.35017395019531 21.652618408203125 2.858100414276123
32.39970397949219 21.399215698242188 2.856025218963623
32.27144241333008 21.03139305114746 2.8581759929656982
32.41237258911133 20.841142654418945 2.8538222312927246
32.51418685913086 20.625856399536133 2.8503620624542236
32.5366096496582 20.361312866210938 2.848768711090088
32.5553092956543 20.096221923828125 2.8472256660461426
32.42083740234375 19.739643096923828 2.849344491958618
32.236083984375 19.357168197631836 2.852651596069336
32.24229049682617 19.09283447265625 2.8513050079345703
32.367347717285156 18.899730682373047 2.847033977508545
32.40546798706055 18.656431198120117 2.8448309898376465
32.49224853515625 18.44199562072754 2.8414015769958496
32.39178466796875 18.123226165771484 2.842498779296875
32.540775299072266 17.94542694091797 2.8374686241149902
32.75555419921875 17.80276107788086 2.8307783603668213
32.98479461669922 17.666160583496094 2.8236777782440186
33.11189651489258 17.4737548828125 2.819030284881592
44.4776496887207 23.123838424682617 2.537524461746216
44.3515739440918 22.713850021362305 2.5384857654571533
44.13467025756836 22.262161254882812 2.5416574478149414
44.08850860595703 21.900720596313477 2.5405728816986084
43.8833122253418 21.464256286621094 2.5433945655822754
43.77532196044922 21.079715728759766 2.543771743774414
43.6200065612793 20.676332473754883 2.5452942848205566
43.48495864868164 20.286638259887695 2.5462825298309326
43.364952087402344 19.907726287841797 2.546862840652466
43.233741760253906 19.52735137939453 2.547691583633423
43.12234878540039 19.159482955932617 2.5479934215545654
42.934791564941406 18.76169776916504 2.5501837730407715
42.81930923461914 18.399301528930664 2.550529956817627
33.21913528442383 14.033534049987793 2.7912018299102783
42.601139068603516 17.68972396850586 2.5508081912994385
33.242347717285156 13.565256118774414 2.7864601612091064
33.29885482788086 13.350666046142578 2.7828896045684814
33.082359313964844 13.02892780303955 2.7862648963928223
33.13079071044922 12.813846588134766 2.7828381061553955
41.93971252441406 15.925688743591309 2.553976058959961
41.86599349975586 15.604574203491211 2.553023338317871
41.74203872680664 15.26745319366455 2.5533382892608643
41.6456413269043 14.943245887756348 2.5529139041900635
41.5223274230957 14.612170219421387 2.553161144256592
41.37479019165039 14.275671005249023 2.554016590118408
41.33265686035156 13.978044509887695 2.552095651626587
41.1489372253418 13.635249137878418 2.553852081298828
41.05290985107422 13.324554443359375 2.5532896518707275
40.95653533935547 13.016159057617188 2.5527093410491943
40.85792541503906 12.709447860717773 2.552161693572998
40.729366302490234 12.39599609375 2.5523829460144043
40.64833068847656 12.099432945251465 2.5513198375701904
33.86056900024414 9.853384971618652 2.729241371154785
33.89430236816406 9.638106346130371 2.7255935668945312
33.880435943603516 9.409945487976074 2.723184823989868
33.87372970581055 9.184671401977539 2.720551013946533
33.871337890625 8.961366653442383 2.717768669128418
33.870384216308594 8.739187240600586 2.7149131298065186
33.880592346191406 8.520525932312012 2.7117204666137695
33.911712646484375 8.307538032531738 2.7079217433929443
33.901634216308594 8.084981918334961 2.7052102088928223
33.91250228881836 7.868056774139404 2.7018916606903076
33.92100524902344 7.651082515716553 2.698601245880127
33.93105697631836 7.43494176864624 2.695232629776001
33.93680191040039 7.21834135055542 2.6919472217559814
33.93627166748047 7.000940322875977 2.688800573348999
33.94121170043945 6.7851881980896 2.6854655742645264
33.953617095947266 6.571348190307617 2.6818861961364746
33.96664047241211 6.357978820800781 2.678252696990967
33.967506408691406 6.142739295959473 2.6749236583709717
33.978824615478516 5.929790019989014 2.6712636947631836
33.98487091064453 5.716269493103027 2.667715311050415
34.00141525268555 5.504815101623535 2.6638312339782715
34.003807067871094 5.291372776031494 2.6603128910064697
34.01078414916992 5.078994274139404 2.6566262245178223
34.0184211730957 4.8670125007629395 2.652883768081665
34.03364944458008 4.656346321105957 2.648883104324341
34.055503845214844 4.446710586547852 2.644650936126709
34.0681266784668 4.235995292663574 2.64064621925354
34.07746505737305 4.025056838989258 2.6366982460021973
33.59079360961914 3.758812189102173 2.6472671031951904
33.529598236083984 3.5438625812530518 2.6453723907470703
33.585391998291016 3.3415801525115967 2.6399950981140137
33.65987777709961 3.1406025886535645 2.634014368057251
33.6694221496582 2.9332845211029053 2.6299140453338623
33.67769241333008 2.7259669303894043 2.6258113384246826
33.69365310668945 2.5193283557891846 2.62143874168396
12.583558082580566 0.863563060760498 3.253765344619751
33.692840576171875 2.103970527648926 2.6135571002960205
33.70598602294922 1.8973067998886108 2.6091465950012207
33.705875396728516 1.6899597644805908 2.6050984859466553
33.73046112060547 1.4838266372680664 2.6002554893493652
33.72181701660156 1.276245355606079 2.5963878631591797
19.281015396118164 0.6114710569381714 3.0379297733306885
33.73867416381836 0.8625444173812866 2.5874814987182617
33.75318908691406 0.6557610034942627 2.582775831222534
33.75444793701172 0.4486718475818634 2.578439235687256
12.83326244354248 0.09210038185119629 3.230435609817505
12.525691032409668 0.013064893893897533 3.238459587097168
33.78557205200195 -0.1726924628019333 2.5643160343170166
33.79573440551758 -0.3800729513168335 2.559525489807129
33.803627014160156 -0.5875679850578308 2.554762840270996
12.295232772827148 -0.28891417384147644 3.2391858100891113
33.81557846069336 -1.0028859376907349 2.545224905014038
12.421517372131348 -0.44441908597946167 3.231745719909668
13.049623489379883 -0.5470851063728333 3.2096455097198486
33.72209930419922 -1.621666669845581 2.5342087745666504
12.803306579589844 -0.6941996216773987 3.2140374183654785
12.795763969421387 -0.7725443243980408 3.2124600410461426
12.63117504119873 -0.8404009938240051 3.216052293777466
12.872943878173828 -0.9358474612236023 3.2062008380889893
33.897926330566406 -2.674137592315674 2.5040860176086426
13.20993423461914 -1.1234427690505981 3.1911346912384033
12.35175609588623 -1.1267951726913452 3.2179975509643555
12.173469543457031 -1.1858700513839722 3.2221522331237793
33.92293167114258 -3.515507698059082 2.4828803539276123
12.76192569732666 -1.4014781713485718 3.1983859539031982
12.754029273986816 -1.4798516035079956 3.196676254272461
33.94828414916992 -4.150917053222656 2.466219425201416
13.42770004272461 -1.7252562046051025 3.1694016456604004
12.735374450683594 -1.7157648801803589 3.191274642944336
33.95773696899414 -4.787895202636719 2.4496352672576904
13.321331977844238 -1.9614266157150269 3.1666362285614014
13.433457374572754 -2.0622165203094482 3.1605050563812256
34.00849533081055 -5.4351487159729 2.4311141967773438
12.444820404052734 -2.0670154094696045 3.1911370754241943
12.364882469177246 -2.131767749786377 3.1918869018554688
12.471540451049805 -2.229031801223755 3.1859545707702637
29.359683990478516 -5.434082508087158 2.57547926902771
34.02724838256836 -6.514212131500244 2.4014339447021484
33.97374725341797 -6.720297813415527 2.3974084854125977
33.82107925415039 -6.905979633331299 2.396968364715576
33.6234130859375 -7.080774784088135 2.3981785774230957
33.84385299682617 -7.344330787658691 2.383969306945801
33.8184814453125 -7.556373596191406 2.3787384033203125
33.888206481933594 -7.790549278259277 2.3699123859405518
33.9057502746582 -8.013912200927734 2.3629543781280518
33.95484161376953 -8.245800971984863 2.3547403812408447
33.930606842041016 -8.460700988769531 2.349220037460327
34.00956726074219 -8.702370643615723 2.339721918106079
34.04623794555664 -8.934672355651855 2.3317456245422363
34.079402923583984 -9.16723346710205 2.3238251209259033
34.08979797363281 -9.394695281982422 2.3167049884796143
34.082332611083984 -9.618016242980957 2.3102073669433594
34.083003997802734 -9.84437370300293 2.3033275604248047
34.083133697509766 -10.071383476257324 2.296400547027588
34.07219696044922 -10.295875549316406 2.2898409366607666
34.063602447509766 -10.521791458129883 2.2831220626831055
34.0706672668457 -10.753405570983887 2.2757129669189453
34.14559555053711 -11.007884979248047 2.2655105590820312
34.15603256225586 -11.243064880371094 2.2577998638153076
34.14592361450195 -11.47242259979248 2.2508416175842285
34.13994598388672 -11.704023361206055 2.243645668029785
34.15127944946289 -11.942581176757812 2.235666513442993
34.12237548828125 -12.167957305908203 2.229261875152588
34.10325622558594 -12.3975248336792 2.222386121749878
34.21940231323242 -12.678001403808594 2.2098143100738525
34.33993148803711 -12.962837219238281 2.196925401687622
34.340721130371094 -13.204440116882324 2.188934326171875
34.342628479003906 -13.44763469696045 2.180812358856201
34.3437614440918 -13.691718101501465 2.172637939453125
34.344120025634766 -13.936697959899902 2.1644108295440674
34.390785217285156 -14.20202922821045 2.154103994369507
34.361785888671875 -14.437491416931152 2.1469593048095703
34.373451232910156 -14.691198348999023 2.137969732284546
34.38695526123047 -14.947182655334473 2.1288037300109863
34.405006408691406 -15.206713676452637 2.119338274002075
34.44212341308594 -15.476448059082031 2.1089260578155518
34.43450164794922 -15.727696418762207 2.1003901958465576
34.44321060180664 -15.987847328186035 2.0910303592681885
34.44279098510742 -16.24528694152832 2.081979513168335
34.384639739990234 -16.476551055908203 2.075443744659424
34.38243865966797 -16.735702514648438 2.0662872791290283
34.38819885253906 -17.000314712524414 2.0566651821136475
34.347354888916016 -17.24321174621582 2.0490846633911133
34.234500885009766 -17.450403213500977 2.0447604656219482
34.1390266418457 -17.666501998901367 2.039581060409546
34.25889587402344 -17.99592399597168 2.0242340564727783
34.140594482421875 -18.20197296142578 2.019961357116699
34.27941131591797 -18.547033309936523 2.0034196376800537
34.24885940551758 -18.80312156677246 1.9947848320007324
34.26095962524414 -19.084325790405273 1.9839973449707031
34.33961486816406 -19.40521812438965 1.9698609113693237
34.40607833862305 -19.722322463989258 1.9561502933502197
34.30409622192383 -19.944551467895508 1.9505363702774048
34.386573791503906 -20.27588653564453 1.9357562065124512
34.338504791259766 -20.53258514404297 1.9272818565368652
34.1945915222168 -20.732471466064453 1.923499584197998
34.512535095214844 -21.216005325317383 1.8964383602142334
34.45188903808594 -21.471168518066406 1.888210415840149
34.33957290649414 -21.694900512695312 1.8825180530548096
34.55224609375 -22.127119064331055 1.8600860834121704
34.41981887817383 -22.34136962890625 1.8551934957504272
34.532283782958984 -22.71680450439453 1.8375130891799927
34.47101974487305 -22.980850219726562 1.8287010192871094
34.64539337158203 -23.405506134033203 1.807363748550415
34.68888854980469 -23.746253967285156 1.792694091796875
34.74673080444336 -24.10036849975586 1.7770689725875854
30.028825759887695 -21.102075576782227 2.018087148666382
34.81825637817383 -24.7884578704834 1.7476001977920532
34.81681442260742 -25.110851287841797 1.7346067428588867
34.82482147216797 -25.442996978759766 1.720926284790039
34.83085250854492 -25.776777267456055 1.7071762084960938
34.85887145996094 -26.130159378051758 1.6920193433761597
34.85441589355469 -26.462501525878906 1.678481936454773
34.87490463256836 -26.81708335876465 1.6633563041687012
34.91520309448242 -27.19070816040039 1.6469000577926636
34.912208557128906 -27.534282684326172 1.6326998472213745
34.87742614746094 -27.855770111083984 1.6201413869857788
34.72504806518555 -28.08489227294922 1.6142498254776
34.722652435302734 -28.437252044677734 1.5995020866394043
34.90792465209961 -28.948787689208984 1.5734773874282837
34.87018585205078 -29.280569076538086 1.5603350400924683
34.92861557006836 -29.697097778320312 1.5412508249282837
34.902976989746094 -30.046350479125977 1.5269652605056763
34.923316955566406 -30.439069747924805 1.5096839666366577
34.88021469116211 -30.780284881591797 1.4960377216339111
34.928096771240234 -31.205974578857422 1.476581335067749
34.97797393798828 -31.638765335083008 1.4567136764526367
34.990699768066406 -32.042972564697266 1.438881516456604
34.946292877197266 -32.398948669433594 1.424396276473999
35.011722564697266 -32.861541748046875 1.4027010202407837
32.3381462097168 30.085412979125977 2.5801730155944824
32.48442459106445 29.851978302001953 2.5774035453796387
32.514320373535156 29.51373291015625 2.5783395767211914
32.472068786621094 29.11418342590332 2.5815296173095703
32.42539978027344 28.715608596801758 2.584773540496826
32.577491760253906 28.495758056640625 2.581514835357666
32.56092071533203 28.130687713623047 2.5836262702941895
32.59813690185547 27.815567016601562 2.5839247703552246
32.61590576171875 27.486873626708984 2.584772825241089
32.607051849365234 27.139192581176758 2.586400032043457
32.62837600708008 26.81995391845703 2.586982488632202
32.658660888671875 26.51093101501465 2.587205410003662
32.6684455871582 26.18816566467285 2.5880126953125
32.68334197998047 25.872486114501953 2.5885844230651855
32.684574127197266 25.548994064331055 2.5895214080810547
32.71868896484375 25.25395393371582 2.5893397331237793
32.70509719848633 24.924917221069336 2.590611457824707
32.68950653076172 24.59760284423828 2.591876983642578
32.276329040527344 23.978113174438477 2.6057307720184326
32.16392517089844 23.589889526367188 2.609933853149414
32.23664855957031 23.340551376342773 2.608182668685913
32.327857971191406 23.105745315551758 2.6057825088500977
32.30467987060547 22.791168212890625 2.6069562435150146
32.324806213378906 22.509742736816406 2.6066927909851074
32.38059616088867 22.254976272583008 2.6052358150482178
32.43364715576172 21.99981117248535 2.6038060188293457
32.38261795043945 21.676435470581055 2.6056196689605713
32.33051681518555 21.355619430541992 2.607408046722412
32.27737808227539 21.037357330322266 2.609170913696289
32.40653610229492 20.839506149291992 2.6050937175750732
32.509159088134766 20.624792098999023 2.6018009185791016
32.585792541503906 20.39422607421875 2.599275588989258
32.35716247558594 19.976024627685547 2.6063807010650635
32.34918975830078 19.698135375976562 2.6064305305480957
32.400733947753906 19.458154678344727 2.6045358180999756
32.44969177246094 19.217775344848633 2.6026694774627686
32.34672164916992 18.889812469482422 2.605574607849121
32.471397399902344 18.696521759033203 2.6011953353881836
32.507110595703125 18.45256996154785 2.599588394165039
32.64573669433594 18.267459869384766 2.5946555137634277
32.710662841796875 18.04127311706543 2.5920121669769287
32.829368591308594 17.84505271911621 2.587602138519287
32.99007797241211 17.671180725097656 2.581799030303955
33.028778076171875 17.432086944580078 2.5798277854919434
33.04981994628906 17.18488121032715 2.578369140625
33.05839920043945 16.932607650756836 2.577256441116333
33.08030700683594 16.68852996826172 2.5756688117980957
33.08882522583008 16.43903923034668 2.574458122253418
33.102718353271484 16.193586349487305 2.5730268955230713
33.10403823852539 15.943377494812012 2.5719492435455322
33.114376068115234 15.698902130126953 2.5705344676971436
33.1139030456543 15.450672149658203 2.5694174766540527
33.123451232910156 15.208463668823242 2.567931652069092
33.13947296142578 14.97042465209961 2.5661895275115967
33.158390045166016 14.73478889465332 2.5643060207366943
33.16192626953125 14.493481636047363 2.562870979309082
33.1646728515625 14.253080368041992 2.5614147186279297
33.1832160949707 14.020584106445312 2.559401035308838
33.19553756713867 13.786478996276855 2.5575406551361084
33.214569091796875 13.556150436401367 2.55541729927063
33.22553253173828 13.323502540588379 2.5535080432891846
33.086097717285156 13.032618522644043 2.5564465522766113
33.132659912109375 12.816793441772461 2.553293228149414
33.582420349121094 12.754557609558105 2.536928176879883
33.67675018310547 12.554600715637207 2.5320935249328613
33.72107696533203 12.33610725402832 2.5288403034210205
33.734832763671875 12.107075691223145 2.526540994644165
33.741390228271484 11.876349449157715 2.524430990219116
33.75205612182617 11.647953033447266 2.5221407413482666
33.761192321777344 11.419873237609863 2.519855260848999
33.76026153564453 11.189290046691895 2.5178563594818115
33.77774429321289 10.965627670288086 2.5152053833007812
33.789939880371094 10.740962982177734 2.512681722640991
33.807334899902344 10.518637657165527 2.5099401473999023
33.82327651977539 10.296504974365234 2.5072014331817627
33.803279876708984 10.064302444458008 2.505615234375
33.83256912231445 9.847537994384766 2.5023391246795654
33.84701919555664 9.626964569091797 2.499513864517212
