# .PCD v0.7 - Point Cloud Data file format
VERSION 0.7
FIELDS x y z
SIZE 4 4 4
TYPE F F F
COUNT 1 1 1
WIDTH 846
HEIGHT 1
VIEWPOINT 0 0 0 1 0 0 0
POINTS 846
DATA ascii
14.195327758789062 8.207998275756836 0.9950598478317261
14.229636192321777 8.111981391906738 0.9961336255073547
14.276209831237793 8.023107528686523 0.9948166012763977
14.42239761352539 7.989471435546875 0.9750153422355652
14.689133644104004 8.020112037658691 0.9330262541770935
15.200170516967773 8.178778648376465 0.8463131189346313
16.011058807373047 8.489187240600586 0.7050465941429138
19.256120681762695 0.7745043635368347 0.3417264223098755
15.734374046325684 0.5358487367630005 0.9425976276397705
19.258398056030273 0.5381165742874146 0.3375556468963623
12.869916915893555 -0.7471425533294678 1.404413104057312
12.854971885681152 -0.8254307508468628 1.4044349193572998
16.290334701538086 -1.5483568906784058 0.7903385758399963
16.3173770904541 -1.7532039880752563 0.7776592373847961
16.306926727294922 -1.853357195854187 0.7753451466560364
16.266515731811523 -1.9499366283416748 0.7781859040260315
16.329139709472656 -2.059143543243408 0.7628100514411926
16.236726760864258 -2.1487936973571777 0.7746008038520813
16.3428897857666 -2.264951229095459 0.7512867450714111
16.31856918334961 -2.363729238510132 0.7508604526519775
16.228395462036133 -2.4524431228637695 0.7619917392730713
16.17764663696289 -2.546417236328125 0.7660685777664185
16.138994216918945 -2.641930341720581 0.7679107189178467
16.33380126953125 -2.7768213748931885 0.7281081080436707
16.35585594177246 -2.8839516639709473 0.7188642621040344
16.195053100585938 -2.9582107067108154 0.7421520948410034
16.191713333129883 -3.0604043006896973 0.7372453212738037
16.278589248657227 -3.180410146713257 0.7160416841506958
16.158958435058594 -3.2601382732391357 0.7317613363265991
16.158531188964844 -3.363391637802124 0.725982666015625
16.2065486907959 -3.477294683456421 0.7113408446311951
16.071067810058594 -3.5515635013580322 0.7297143340110779
16.263702392578125 -3.6989529132843018 0.6886193156242371
16.09457778930664 -3.764557123184204 0.7129332423210144
16.224977493286133 -5.410266876220703 0.5776304006576538
16.53310775756836 -5.626010894775391 0.5108382701873779
16.332351684570312 -5.669859409332275 0.5400092601776123
16.135404586791992 -5.712774753570557 0.5685220956802368
16.38575553894043 -5.914858341217041 0.5118393301963806
16.31827735900879 -6.004027843475342 0.515484631061554
16.105621337890625 -6.038362979888916 0.5468891263008118
16.076154708862305 -6.1401824951171875 0.5431499481201172
16.25977325439453 -6.324982643127441 0.49817705154418945
15.953977584838867 -6.319147109985352 0.5475437045097351
16.52903938293457 -7.262282371520996 0.3728310465812683
16.321128845214844 -7.29088830947876 0.4028280973434448
16.364383697509766 -7.431115627288818 0.3830142319202423
16.293947219848633 -7.520205020904541 0.3856339752674103
16.349544525146484 -7.668029308319092 0.3629451096057892
16.062822341918945 -7.654320240020752 0.4087510108947754
16.672365188598633 -8.453474998474121 0.23629248142242432
16.44182586669922 -8.592181205749512 0.2574361264705658
16.461381912231445 -8.73157024383545 0.2401680201292038
16.271928787231445 -8.759629249572754 0.2659359574317932
16.25975799560547 -8.88236141204834 0.2549511790275574
16.266481399536133 -9.016242027282715 0.23983079195022583
16.016633987426758 -9.006879806518555 0.2782571017742157
16.140092849731445 -9.207276344299316 0.23833270370960236
16.13140296936035 -9.334161758422852 0.2258995920419693
16.177753448486328 -9.49414348602295 0.2015756517648697
16.065507888793945 -9.561490058898926 0.21074381470680237
16.016218185424805 -9.665933609008789 0.20641182363033295
12.520845413208008 12.745481491088867 0.7289453744888306
12.579631805419922 12.649561882019043 0.7317466735839844
12.66572380065918 12.581219673156738 0.7281121015548706
12.673249244689941 12.435567855834961 0.7423157691955566
12.701441764831543 12.311591148376465 0.7515376210212708
12.742851257324219 12.201386451721191 0.7575409412384033
12.797731399536133 12.104700088500977 0.7603203654289246
12.823779106140137 11.981521606445312 0.7693800926208496
12.87491226196289 11.88257122039795 0.7726361155509949
12.903434753417969 11.76349925994873 0.7807276248931885
12.944920539855957 11.65707015991211 0.7857529520988464
12.987061500549316 11.551885604858398 0.790452241897583
13.010608673095703 11.430989265441895 0.7990279197692871
13.046582221984863 11.321880340576172 0.8046945333480835
13.081709861755371 11.21275806427002 0.8103597164154053
13.11825180053711 11.105542182922363 0.8155379891395569
13.160785675048828 11.003994941711426 0.8192568421363831
13.197243690490723 10.897945404052734 0.8241068124771118
13.232897758483887 10.791860580444336 0.8289551138877869
13.275435447692871 10.691937446594238 0.8321791291236877
13.301029205322266 10.578996658325195 0.8388092517852783
13.342812538146973 10.479551315307617 0.8418658971786499
13.358925819396973 10.360641479492188 0.8501213192939758
13.406206130981445 10.266522407531738 0.8517103791236877
13.444178581237793 10.165665626525879 0.8550849556922913
13.485372543334961 10.067678451538086 0.8576425313949585
13.522695541381836 9.96722412109375 0.8608483076095581
13.566474914550781 9.871915817260742 0.8625842928886414
13.575939178466797 9.752266883850098 0.8711678981781006
13.623083114624023 9.66026496887207 0.8719198703765869
13.659908294677734 9.561262130737305 0.8746263384819031
13.692788124084473 9.459924697875977 0.8779842853546143
13.736351013183594 9.366324424743652 0.8790502548217773
13.770278930664062 9.266483306884766 0.8819119334220886
13.801034927368164 9.164941787719727 0.8852626085281372
13.832715034484863 9.064449310302734 0.8882836103439331
13.87031078338623 8.968198776245117 0.8899912238121033
13.908910751342773 8.872885704040527 0.891367495059967
13.951872825622559 8.780587196350098 0.8917546272277832
13.993390083312988 8.68757438659668 0.8923012018203735
14.030085563659668 8.591803550720215 0.8936648368835449
14.048402786254883 8.485199928283691 0.8984794616699219
14.100685119628906 8.39938735961914 0.8965466618537903
14.144790649414062 8.308755874633789 0.896088719367981
14.192581176757812 8.220368385314941 0.8948009610176086
14.214982032775879 8.117521286010742 0.8982892632484436
14.28994369506836 8.04470443725586 0.8915457129478455
14.411975860595703 7.997589111328125 0.8757062554359436
14.709617614746094 8.045344352722168 0.8262967467308044
15.211514472961426 8.199234962463379 0.7381244897842407
19.246566772460938 0.7883160710334778 0.22587989270687103
15.736470222473145 0.547971785068512 0.8462399840354919
19.272611618041992 0.5527207255363464 0.21755196154117584
12.8844575881958 -0.5791540741920471 1.3282735347747803
12.888232231140137 -0.6585658192634583 1.3251780271530151
12.870877265930176 -0.7368654012680054 1.32578444480896
12.85108470916748 -0.8148540258407593 1.3267468214035034
16.2320613861084 -1.630906581878662 0.6973402500152588
16.07947540283203 -1.7152870893478394 0.7209298014640808
16.14357566833496 -1.8223718404769897 0.7051509022712708
16.027156829833984 -1.9088903665542603 0.7220376133918762
16.042110443115234 -2.010575771331787 0.7149547934532166
15.975438117980957 -2.101862907409668 0.7226306200027466
15.974542617797852 -2.2015469074249268 0.7182160019874573
15.916533470153809 -2.293161630630493 0.7241317629814148
16.014663696289062 -2.4077062606811523 0.7013579607009888
15.968108177185059 -2.5010058879852295 0.7049587368965149
15.807390213012695 -2.5753133296966553 0.7294580936431885
16.286649703979492 -2.7561118602752686 0.6360800266265869
16.35723304748535 -2.871427536010742 0.6176645159721375
16.27794075012207 -2.960599184036255 0.6267803907394409
16.203975677490234 -3.0500011444091797 0.6348394751548767
16.290800094604492 -3.169994831085205 0.6129934787750244
16.0488224029541 -3.22525954246521 0.6520825624465942
16.10830307006836 -3.3402059078216553 0.6350718140602112
16.472888946533203 -3.5214078426361084 0.5609435439109802
16.089357376098633 -3.542820453643799 0.6263277530670166
16.104347229003906 -3.649909496307373 0.6171890497207642
16.114795684814453 -3.7564244270324707 0.6087625622749329
16.096797943115234 -3.8565597534179688 0.6055508255958557
16.07630157470703 -5.457168102264404 0.49420928955078125
16.09786605834961 -5.574967384338379 0.4811464548110962
16.22798728942871 -5.731882095336914 0.4465741217136383
16.242061614990234 -5.849289417266846 0.43456795811653137
16.30052947998047 -5.983689785003662 0.413613498210907
16.07892608642578 -6.014647483825684 0.4479532241821289
16.049585342407227 -6.116295337677002 0.4441654682159424
16.070926666259766 -6.237734317779541 0.43014273047447205
16.37520408630371 -7.3005194664001465 0.2835528254508972
16.400405883789062 -7.432864665985107 0.2668326199054718
16.371028900146484 -7.541118621826172 0.261140376329422
16.334707260131836 -7.6463775634765625 0.25673720240592957
16.50877571105957 -8.741254806518555 0.11741109937429428
16.348783493041992 -8.7855806350708 0.13778449594974518
16.28895378112793 -8.882855415344238 0.13669657707214355
16.210491180419922 -8.96973705291748 0.1395103484392166
16.051889419555664 -9.01125717163086 0.15959274768829346
16.154674530029297 -9.19997787475586 0.12289697676897049
12.642731666564941 12.869775772094727 0.5745454430580139
12.717574119567871 12.788506507873535 0.5738309621810913
12.68418025970459 12.59980297088623 0.5988931059837341
12.704551696777344 12.46653938293457 0.6107368469238281
12.822871208190918 12.429564476013184 0.5991171598434448
12.77103328704834 12.228649139404297 0.6275581121444702
12.796004295349121 12.103357315063477 0.6375632286071777
12.824247360229492 11.982256889343262 0.6465625166893005
12.876118659973145 11.88399600982666 0.6498515605926514
12.919256210327148 11.778243064880371 0.6549845337867737
12.951327323913574 11.66317081451416 0.6624689698219299
12.991315841674805 11.556010246276855 0.667934238910675
13.022333145141602 11.441637992858887 0.6752490401268005
13.068817138671875 11.341532707214355 0.6788583397865295
13.095855712890625 11.225250244140625 0.6866764426231384
13.146037101745605 11.129441261291504 0.6891000270843506
13.16150951385498 11.004984855651855 0.6991102695465088
13.204073905944824 10.90397834777832 0.7028783559799194
13.24055004119873 10.798501968383789 0.7078253626823425
13.27623176574707 10.692988395690918 0.7127705812454224
13.311890602111816 10.588052749633789 0.7175450325012207
13.345213890075684 10.481863975524902 0.7226559519767761
13.380074501037598 10.377476692199707 0.7272576689720154
13.41494083404541 10.273652076721191 0.7316886186599731
13.45061206817627 10.170979499816895 0.7357785105705261
13.488689422607422 10.070610046386719 0.739188015460968
13.518902778625488 9.964893341064453 0.7441218495368958
13.557891845703125 9.866142272949219 0.7470176219940186
13.593779563903809 9.765559196472168 0.7504197955131531
13.627336502075195 9.66376781463623 0.7541594505310059
13.665809631347656 9.565885543823242 0.756706953048706
13.701973915100098 9.46677303314209 0.7595911026000977
13.733368873596191 9.364798545837402 0.7633241415023804
13.759942054748535 9.260041236877441 0.7679075002670288
13.7898530960083 9.158036231994629 0.7716376781463623
13.82315444946289 9.058711051940918 0.774513840675354
13.86154842376709 8.963065147399902 0.7761929631233215
13.90344524383545 8.869937896728516 0.7770143747329712
13.938883781433105 8.772957801818848 0.7790274620056152
13.985374450683594 8.683150291442871 0.7786438465118408
14.029608726501465 8.592071533203125 0.778596043586731
14.061445236206055 8.493643760681152 0.7809401154518127
14.10022258758545 8.39968490600586 0.7817398309707642
14.138376235961914 8.305566787719727 0.782535195350647
14.181020736694336 8.214258193969727 0.7822978496551514
14.2247896194458 8.123713493347168 0.7817115783691406
14.310044288635254 8.056621551513672 0.7727048397064209
14.397590637207031 7.9902215003967285 0.763166069984436
14.963652610778809 8.184955596923828 0.658348798751831
15.125057220458984 8.153332710266113 0.6342628002166748
15.9495210647583 8.47217082977295 0.47894716262817383
19.19149398803711 0.7872650027275085 0.10074275732040405
15.753524780273438 0.5494069457054138 0.7325301766395569
12.832059860229492 -0.6551503539085388 1.244994878768921
12.858901023864746 -0.735632061958313 1.237458348274231
12.85580062866211 -0.8146055340766907 1.2354086637496948
16.07598876953125 -1.614324927330017 0.6120399236679077
16.1064453125 -1.7172629833221436 0.6021990776062012
16.0327091217041 -1.8089593648910522 0.6118736863136292
15.970168113708496 -1.9012125730514526 0.6193533539772034
15.896378517150879 -1.991425633430481 0.6288761496543884
15.832805633544922 -2.082217216491699 0.6363856792449951
15.92060375213623 -2.193225145339966 0.6150937080383301
15.864633560180664 -2.2848010063171387 0.6209480166435242
15.977241516113281 -2.401183843612671 0.5946296453475952
15.803564071655273 -2.4743523597717285 0.6226977705955505
16.393281936645508 -2.773214817047119 0.49954110383987427
16.35232925415039 -2.8696253299713135 0.5018327236175537
16.252803802490234 -2.9550952911376953 0.5152682662010193
16.19148063659668 -3.046722888946533 0.5212980508804321
16.231884002685547 -3.157597303390503 0.5076386332511902
16.152080535888672 -3.245088815689087 0.5170284509658813
16.280590057373047 -3.374995470046997 0.48604804277420044
16.084306716918945 -3.437412738800049 0.5177947878837585
16.29759407043457 -3.5877346992492676 0.4700087010860443
16.167556762695312 -3.6633052825927734 0.48874327540397644
16.171165466308594 -3.7686331272125244 0.481380432844162
16.063262939453125 -3.847601890563965 0.49567610025405884
16.276424407958984 -5.524139881134033 0.3341246247291565
16.122098922729492 -5.582408905029297 0.356308251619339
16.24083709716797 -5.7354559898376465 0.3228088617324829
16.271440505981445 -5.858900547027588 0.30703818798065186
16.267030715942383 -5.9704203605651855 0.29825133085250854
16.276573181152344 -6.087612628936768 0.28643181920051575
16.12838363647461 -6.145367622375488 0.30698615312576294
16.182405471801758 -6.280040264129639 0.28569644689559937
16.41802215576172 -7.439840793609619 0.13626156747341156
16.376079559326172 -7.542441368103027 0.13310933113098145
16.222362518310547 -7.59279727935791 0.15381371974945068
12.663697242736816 12.886353492736816 0.46941646933555603
12.690699577331543 12.756776809692383 0.4806419014930725
12.669069290161133 12.580156326293945 0.5036182403564453
12.66263484954834 12.420836448669434 0.5224595069885254
12.727582931518555 12.33266830444336 0.5234963893890381
13.099278450012207 12.538394927978516 0.44977185130119324
13.058894157409668 12.347525596618652 0.4763782322406769
12.821627616882324 11.975430488586426 0.5499442219734192
12.864775657653809 11.869193077087402 0.5554681420326233
12.907105445861816 11.7628755569458 0.5609894394874573
12.941299438476562 11.649894714355469 0.5682427287101746
12.986370086669922 11.547408103942871 0.5727181434631348
13.02845287322998 11.442854881286621 0.5777111649513245
13.031808853149414 11.305302619934082 0.5915627479553223
13.087063789367676 11.213637351989746 0.593078076839447
13.126652717590332 11.108993530273438 0.5980658531188965
13.135988235473633 10.979652404785156 0.6098386645317078
13.189038276672363 10.887603759765625 0.6113427877426147
13.234583854675293 10.789713859558105 0.6144092679023743
13.276360511779785 10.689205169677734 0.618168294429779
13.324339866638184 10.594100952148438 0.6203548312187195
13.354615211486816 10.485431671142578 0.626375675201416
13.384063720703125 10.376787185668945 0.6323959231376648
13.411901473999023 10.267577171325684 0.638590395450592
13.45697021484375 10.172070503234863 0.6407641172409058
13.484015464782715 10.063438415527344 0.6467814445495605
13.528467178344727 9.968290328979492 0.6487739086151123
13.558725357055664 9.863126754760742 0.6537385582923889
13.604198455810547 9.769452095031738 0.6551981568336487
13.64501667022705 9.672741889953613 0.6575294733047485
13.667417526245117 9.563477516174316 0.6637157797813416
13.700333595275879 9.462135314941406 0.6674458980560303
13.735777854919434 9.362963676452637 0.6704716682434082
14.028623580932617 9.437368392944336 0.6179736852645874
14.076024055480957 9.344622611999512 0.6183249950408936
14.08493709564209 9.226832389831543 0.6267620921134949
14.140061378479004 9.13974666595459 0.6251708269119263
14.179705619812012 9.042799949645996 0.6267417073249817
14.007079124450684 8.81255054473877 0.673067569732666
13.96766471862793 8.668859481811523 0.6908788084983826
14.027756690979004 8.587661743164062 0.6875349283218384
14.05957317352295 8.489258766174316 0.6900068521499634
14.101704597473145 8.397335052490234 0.6901803016662598
14.151725769042969 8.310196876525879 0.688581109046936
14.176506996154785 8.208454132080078 0.6921038031578064
14.218523979187012 8.116966247558594 0.6919092535972595
14.270245552062988 8.031063079833984 0.6895848512649536
14.346402168273926 7.958674907684326 0.6821145415306091
14.708016395568848 8.041952133178711 0.615949809551239
15.154332160949707 8.16590690612793 0.5326690673828125
15.748482704162598 0.546846330165863 0.6452556252479553
12.873780250549316 -0.6593735814094543 1.1649998426437378
12.860350608825684 -0.7378094792366028 1.1650104522705078
12.857227325439453 -0.8167911767959595 1.1629502773284912
15.954700469970703 -1.604564905166626 0.544937789440155
15.985164642333984 -1.70675790309906 0.5348894596099854
16.002288818359375 -1.8079556226730347 0.5272948145866394
16.009021759033203 -1.9082683324813843 0.5215898752212524
15.99953556060791 -2.0067803859710693 0.5189175605773926
15.780160903930664 -2.077711820602417 0.5570741295814514
15.725872993469238 -2.1688199043273926 0.562981367111206
15.900388717651367 -2.292386531829834 0.5240218639373779
15.781749725341797 -2.374239683151245 0.5422908067703247
15.939130783081055 -2.4980244636535645 0.506319522857666
15.786486625671387 -2.5734705924987793 0.5310876965522766
16.355575561523438 -2.769341468811035 0.41365280747413635
16.266422271728516 -2.960078239440918 0.419845312833786
16.19931411743164 -3.0507025718688965 0.4272531270980835
16.253103256225586 -3.16424298286438 0.4105866849422455
16.070344924926758 -3.2311758995056152 0.4407730996608734
16.078641891479492 -3.33565092086792 0.4329085052013397
16.096817016601562 -3.4426088333129883 0.4229314923286438
16.26284408569336 -3.5826334953308105 0.3832343518733978
16.087955474853516 -3.647808790206909 0.41158387064933777
16.113603591918945 -3.757768392562866 0.39966800808906555
16.151531219482422 -5.595333576202393 0.2541678547859192
16.134965896606445 -5.7008161544799805 0.24813427031040192
16.162933349609375 -5.822595596313477 0.23257823288440704
16.186325073242188 -5.943582534790039 0.2177864909172058
16.17576026916504 -6.052704334259033 0.20998723804950714
16.108556747436523 -6.140613555908203 0.2140607088804245
16.11860466003418 -6.258098602294922 0.20158737897872925
12.684375762939453 12.898151397705078 0.3643999695777893
12.674677848815918 12.731548309326172 0.38545265793800354
12.67180347442627 12.573868751525879 0.4043789803981781
12.71877384185791 12.466992378234863 0.41030582785606384
12.701294898986816 12.29840087890625 0.43227511644363403
13.067595481872559 12.499162673950195 0.35757941007614136
13.378164291381836 12.640462875366211 0.2974350154399872
12.819220542907715 11.964639663696289 0.4536218047142029
12.861586570739746 11.8577880859375 0.45954322814941406
12.903127670288086 11.750864028930664 0.46546199917793274
12.937261581420898 11.63795280456543 0.4729877710342407
12.977852821350098 11.531599044799805 0.4787234961986542
13.029457092285156 11.435569763183594 0.4815930724143982
13.049899101257324 11.312912940979004 0.49180012941360474
13.096978187561035 11.214113235473633 0.49537989497184753
13.120052337646484 11.095462799072266 0.5045129656791687
13.13839340209961 10.973797798156738 0.5145446062088013
13.175470352172852 10.868602752685547 0.5199130177497864
13.214038848876953 10.765227317810059 0.5247407555580139
13.267934799194336 10.674737930297852 0.5257933139801025
13.318135261535645 10.581543922424316 0.5275587439537048
13.354537963867188 10.47780704498291 0.5323759913444519
13.388617515563965 10.372815132141113 0.53755122423172
13.418787956237793 10.26540756225586 0.5434447526931763
13.45835018157959 10.165727615356445 0.5469961166381836
13.487735748291016 10.05888843536377 0.5527069568634033
13.519487380981445 9.954401969909668 0.5576960444450378
13.556035995483398 9.85395336151123 0.5614208579063416
13.59266185760498 9.75400161743164 0.5649624466896057
13.610116004943848 9.640892028808594 0.5726557374000549
13.691980361938477 9.573591232299805 0.5657125115394592
13.652119636535645 9.421835899353027 0.5858789086341858
13.953104972839355 9.50406265258789 0.5298913717269897
14.023802757263184 9.427095413208008 0.5252472758293152
13.814641952514648 9.164196014404297 0.582356870174408
13.842231750488281 9.06098747253418 0.5867863893508911
13.894686698913574 8.974325180053711 0.5855934619903564
13.942450523376465 8.884716987609863 0.5853006839752197
14.195259094238281 8.924159049987793 0.5401597619056702
14.048785209655762 8.712526321411133 0.5819717049598694
14.015179634094238 8.573342323303223 0.5989260077476501
14.066275596618652 8.486721992492676 0.5973448157310486
14.115147590637207 8.398789405822754 0.5961200594902039
13.978602409362793 8.202073097229004 0.6345805525779724
14.210389137268066 8.221588134765625 0.5938330292701721
14.22942066192627 8.116742134094238 0.5986039638519287
14.287123680114746 8.03414535522461 0.59498530626297
14.419156074523926 7.992621898651123 0.5754798650741577
14.68580150604248 8.023327827453613 0.5274587273597717
15.122138023376465 8.141963958740234 0.4437451660633087
15.220890045166016 8.07534122467041 0.43141305446624756
15.34029769897461 8.0187406539917 0.4146703779697418
15.731232643127441 0.5411238670349121 0.5601941347122192
12.860237121582031 -0.7421415448188782 1.0926215648651123
12.853157997131348 -0.8208727240562439 1.0913258790969849
15.93741512298584 -1.7068865299224854 0.45395103096961975
15.960346221923828 -1.808456540107727 0.4450394809246063
16.006973266601562 -1.9132813215255737 0.4312455356121063
15.958516120910645 -2.006890296936035 0.4363611340522766
15.728660583496094 -2.0761313438415527 0.4777979850769043
15.721052169799805 -2.173358201980591 0.4745577275753021
15.936088562011719 -2.302802801132202 0.42635780572891235
15.830094337463379 -2.386760950088501 0.4426477551460266
15.765334129333496 -2.476046085357666 0.45054665207862854
15.738790512084961 -2.5709476470947266 0.4506256878376007
16.058610916137695 -3.0296030044555664 0.3630097210407257
16.166337966918945 -3.1527884006500244 0.33495399355888367
16.13953971862793 -3.2505195140838623 0.33419740200042725
16.112150192260742 -3.348043441772461 0.3334440290927887
16.199214935302734 -3.469984292984009 0.3090694844722748
16.09103012084961 -3.5502655506134033 0.3246597647666931
16.103897094726562 -3.656909704208374 0.31523990631103516
16.068321228027344 -3.7527055740356445 0.31567519903182983
16.251575469970703 -5.635901927947998 0.13597236573696136
16.18307113647461 -5.835800647735596 0.13105054199695587
16.20353889465332 -5.955888748168945 0.1165107786655426
16.11760902404785 -6.036938667297363 0.12494412064552307
16.117353439331055 -6.1499857902526855 0.11459566652774811
12.690988540649414 12.774836540222168 0.2612082362174988
12.700379371643066 12.628856658935547 0.27770933508872986
12.638341903686523 12.414369583129883 0.31265273690223694
12.665160179138184 12.289408683776855 0.32382556796073914
12.761881828308105 12.23259449005127 0.31654632091522217
12.847672462463379 12.164915084838867 0.31202030181884766
12.853438377380371 12.022124290466309 0.32798460125923157
12.877433776855469 11.897727012634277 0.33896565437316895
12.928702354431152 11.799324035644531 0.34273818135261536
12.963919639587402 11.686917304992676 0.35039040446281433
13.01366138458252 11.588245391845703 0.3541548550128937
13.038331031799316 11.467985153198242 0.36402562260627747
13.087984085083008 11.370412826538086 0.3674134612083435
13.136932373046875 11.272659301757812 0.3707970082759857
13.155938148498535 11.149956703186035 0.38140779733657837
13.189009666442871 11.040056228637695 0.38831081986427307
13.243950843811035 10.94895076751709 0.3896438777446747
13.235857009887695 10.806628227233887 0.4062000513076782
13.254825592041016 10.68763542175293 0.41589000821113586
13.292051315307617 10.58411693572998 0.4209347665309906
13.335461616516113 10.486006736755371 0.4243033230304718
13.37739372253418 10.387158393859863 0.42785415053367615
13.424854278564453 10.292970657348633 0.429911732673645
13.448163032531738 10.180798530578613 0.437553346157074
13.480048179626465 10.075784683227539 0.4429592192173004
13.51589584350586 9.974262237548828 0.4472448527812958
13.547037124633789 9.869784355163574 0.4524613618850708
13.589372634887695 9.773900985717773 0.4548763036727905
13.636648178100586 9.681849479675293 0.45597943663597107
13.688136100769043 9.592966079711914 0.4559559226036072
13.838419914245605 9.572549819946289 0.4329266846179962
14.133373260498047 9.6492338180542 0.3765644431114197
13.75684642791748 9.26927375793457 0.4747534692287445
13.815497398376465 9.186366081237793 0.4724673926830292
13.887609481811523 9.112245559692383 0.46698692440986633
13.913979530334473 9.008223533630371 0.4718068540096283
13.906486511230469 8.883070945739746 0.48413026332855225
13.945354461669922 8.788195610046387 0.48576250672340393
14.371472358703613 8.934296607971191 0.4000588357448578
14.018658638000488 8.59647274017334 0.48957860469818115
14.053075790405273 8.499666213989258 0.4917634427547455
14.095270156860352 8.40778923034668 0.49206405878067017
14.139405250549316 8.317206382751465 0.49179506301879883
14.18295955657959 8.226395606994629 0.49152040481567383
14.20547103881836 8.123661994934082 0.49576297402381897
14.283720970153809 8.052789688110352 0.48756054043769836
14.299826622009277 7.946913242340088 0.4929274916648865
14.707062721252441 8.055784225463867 0.4124056100845337
14.849980354309082 8.016282081604004 0.3899604082107544
15.160283088684082 8.064326286315918 0.3310098648071289
15.731656074523926 0.5588149428367615 0.45765411853790283
12.867128372192383 -0.6484369039535522 1.0102245807647705
12.849853515625 -0.7266167998313904 1.011138916015625
12.846773147583008 -0.8055313229560852 1.009056806564331
16.041790008544922 -1.6004191637039185 0.3327747881412506
15.985459327697754 -1.6939170360565186 0.3401094377040863
15.944162368774414 -1.7885346412658691 0.3442414700984955
15.860482215881348 -1.8777588605880737 0.3570294678211212
15.947389602661133 -1.9873501062393188 0.33442020416259766
15.813068389892578 -2.069225311279297 0.35749438405036926
15.946187973022461 -2.1862573623657227 0.32499057054519653
15.811824798583984 -2.266772508621216 0.3478938341140747
15.796229362487793 -2.3635551929473877 0.3460155129432678
15.753913879394531 -2.456160068511963 0.349589079618454
15.584412574768066 -2.5277931690216064 0.37963247299194336
15.633864402770996 -2.6343882083892822 0.36383548378944397
16.06943130493164 -2.8093252182006836 0.26691943407058716
15.775866508483887 -2.8578901290893555 0.3226819932460785
15.980911254882812 -2.996460437774658 0.2736203670501709
16.0079402923584 -3.1033575534820557 0.26178622245788574
16.051536560058594 -3.214162588119507 0.24629198014736176
16.056974411010742 -3.317892551422119 0.23869536817073822
16.06365203857422 -3.4222207069396973 0.23068776726722717
16.063915252685547 -3.525498151779175 0.22389379143714905
16.067333221435547 -3.6297736167907715 0.21628297865390778
16.033830642700195 -3.725803852081299 0.21639631688594818
12.666322708129883 12.58625316619873 0.17483188211917877
12.65107250213623 12.418254852294922 0.1982138454914093
12.658914566040039 12.274835586547852 0.21494171023368835
12.98875904083252 11.845952033996582 0.2171662151813507
13.047616004943848 11.754251480102539 0.21899960935115814
13.061841011047363 11.62312126159668 0.23229087889194489
13.084537506103516 11.500680923461914 0.24310088157653809
13.109192848205566 11.380973815917969 0.25314825773239136
13.14330768585205 11.270339965820312 0.2605181336402893
13.178060531616211 11.160982131958008 0.26750388741493225
13.192394256591797 11.035248756408691 0.2794688045978546
13.2382230758667 10.936636924743652 0.2831971049308777
13.271933555603027 10.828570365905762 0.2897973656654358
13.307876586914062 10.72296142578125 0.2956291735172272
13.339186668395996 10.614263534545898 0.30241861939430237
13.36966609954834 10.505581855773926 0.3092077076435089
13.410172462463379 10.405345916748047 0.3133062422275543
13.447617530822754 10.303217887878418 0.31797850131988525
13.481968879699707 10.199241638183594 0.32322537899017334
13.516337394714355 10.095818519592285 0.3282777667045593
13.548368453979492 9.991189956665039 0.3337136209011078
13.57883358001709 9.885970115661621 0.3393406569957733
13.61967658996582 9.788766860961914 0.3422689139842987
13.66303825378418 9.693704605102539 0.344422310590744
13.694498062133789 9.590596199035645 0.34927186369895935
13.742964744567871 9.499737739562988 0.3498740792274475
13.810429573059082 9.298686981201172 0.3576298952102661
13.843092918395996 9.19807243347168 0.36150431632995605
13.840581893920898 9.074809074401855 0.3734995722770691
13.901337623596191 8.993492126464844 0.3704085946083069
13.957479476928711 8.909127235412598 0.3682762384414673
13.961639404296875 8.791998863220215 0.37814560532569885
14.04072380065918 8.722259521484375 0.37038278579711914
14.045031547546387 8.60626220703125 0.37986451387405396
14.079512596130371 8.50931167602539 0.38217201828956604
14.123444557189941 8.418286323547363 0.38214701414108276
14.16171646118164 8.324058532714844 0.3832821547985077
14.201910972595215 8.231151580810547 0.3838302791118622
14.252570152282715 8.144389152526855 0.3818454444408417
14.335144996643066 7.960399150848389 0.381747305393219
14.53988265991211 7.9580488204956055 0.3444894254207611
15.736625671386719 0.5541191101074219 0.35643237829208374
12.904454231262207 -0.6544591188430786 0.9202561974525452
12.867607116699219 -0.7317543029785156 0.9253594279289246
12.847878456115723 -0.8097315430641174 0.9267639517784119
16.18256187438965 -1.6194871664047241 0.20001645386219025
16.015243530273438 -1.7020577192306519 0.23119351267814636
15.819339752197266 -1.7794694900512695 0.26841405034065247
15.741630554199219 -1.8686116933822632 0.28041863441467285
15.899320602416992 -1.9863340854644775 0.2420874387025833
15.826260566711426 -2.075916290283203 0.2528535723686218
16.007587432861328 -2.199697732925415 0.20907063782215118
15.911048889160156 -2.286003828048706 0.22461162507534027
15.801483154296875 -2.369326591491699 0.24287572503089905
15.761086463928223 -2.4622631072998047 0.24620011448860168
15.947030067443848 -2.5916616916656494 0.20065683126449585
16.03841209411621 -2.707644462585449 0.17524798214435577
16.040319442749023 -2.809326171875 0.16897031664848328
16.14166831970215 -2.929295539855957 0.14101874828338623
16.039318084716797 -3.0125279426574707 0.1570294350385666
15.983604431152344 -3.103752374649048 0.1628413200378418
15.993542671203613 -3.2076773643493652 0.15426118671894073
15.987479209899902 -3.3086726665496826 0.14901722967624664
15.962606430053711 -3.4058403968811035 0.14774207770824432
12.664329528808594 12.279991149902344 0.10803061723709106
13.77664566040039 9.648285865783691 0.2288932502269745
13.810142517089844 9.546341896057129 0.23332737386226654
13.783905029296875 9.280999183654785 0.26445919275283813
13.827086448669434 9.187615394592285 0.26591455936431885
13.826208114624023 9.065568923950195 0.2779146730899811
13.890178680419922 8.986464500427246 0.27398917078971863
13.94874095916748 8.903751373291016 0.27124926447868347
14.066320419311523 8.619528770446777 0.27614790201187134
14.118500709533691 8.533105850219727 0.2743784785270691
14.176880836486816 8.450376510620117 0.2710033059120178
14.219573020935059 8.358311653137207 0.27121680974960327
14.259125709533691 8.264565467834473 0.27202510833740234
14.338895797729492 8.19398021697998 0.26322442293167114
16.184101104736328 0.7692429423332214 0.16846929490566254
15.743873596191406 0.5548762679100037 0.2602223753929138
12.887674331665039 -0.6533382534980774 0.8461775779724121
12.853791236877441 -0.7307010293006897 0.8508344888687134
12.842856407165527 -0.8091474771499634 0.8504214882850647
15.853565216064453 -1.980088710784912 0.15569180250167847
15.73410701751709 -2.063310384750366 0.17703577876091003
15.82814884185791 -2.1745150089263916 0.15131308138370514
15.799555778503418 -2.269460439682007 0.15242986381053925
15.859286308288574 -2.377457857131958 0.13392236828804016
15.881595611572266 -2.4805493354797363 0.12350935488939285
15.771036148071289 -2.661985158920288 0.13664159178733826
13.781478881835938 9.272456169128418 0.17212794721126556
13.846625328063965 9.1937255859375 0.1681535840034485
13.877755165100098 9.09254264831543 0.1725478321313858
13.898301124572754 8.984942436218262 0.1793934404850006
13.94446086883545 8.894278526306152 0.1796940565109253
13.950267791748047 8.778356552124023 0.18981267511844635
14.062177658081055 8.259315490722656 0.21708427369594574
15.755777359008789 0.5501863360404968 0.16833893954753876
12.843141555786133 -0.7344152331352234 0.7801159024238586
12.852641105651855 -0.8140870928764343 0.7751816511154175
15.658276557922363 -1.8633474111557007 0.11363750696182251
15.66836929321289 -1.9621250629425049 0.10656312853097916
15.645904541015625 -2.0569052696228027 0.10668705403804779
12.855149269104004 -0.7202510833740234 0.6977725028991699
12.872490882873535 -0.8004651665687561 0.6909691691398621
12.849295616149902 -0.7262795567512512 0.6161547899246216
12.868499755859375 -0.8065862655639648 0.6087580919265747
12.842999458312988 -0.7233436703681946 0.5371624827384949
12.84471321105957 -0.8025132417678833 0.5338407754898071
12.839071273803711 -0.7252292037010193 0.4667680263519287
12.844632148742676 -0.8046164512634277 0.4624536335468292
12.835801124572754 -0.7147353887557983 0.38937896490097046
12.853981971740723 -0.7948727607727051 0.3818180561065674
12.822860717773438 -0.7158055305480957 0.3067082166671753
12.845816612243652 -0.7961615324020386 0.2977472245693207
12.824904441833496 -0.7133753299713135 0.2272825837135315
12.882550239562988 -0.7958751916885376 0.20891912281513214
12.815893173217773 -0.7172524333000183 0.15993589162826538
12.876310348510742 -0.7998875379562378 0.1404705047607422
12.661873817443848 12.737310409545898 1.2913496494293213
12.67929744720459 12.670719146728516 1.2947863340377808
12.773910522460938 12.76557731628418 0.37380242347717285
12.700372695922852 12.60368537902832 1.2978729009628296
12.784918785095215 12.687969207763672 0.3810204267501831
12.724668502807617 12.540139198303223 1.3003484010696411
12.714836120605469 12.530909538269043 0.40787774324417114
12.745128631591797 12.473106384277344 1.3034348487854004
12.731843948364258 12.46063232421875 0.41339564323425293
12.761717796325684 12.402626037597656 1.307132363319397
12.781899452209473 12.331674575805664 1.310479760169983
12.808563232421875 12.271553993225098 1.3123409748077393
31.02953338623047 29.538602828979492 0.3342946767807007
12.829244613647461 12.210216522216797 1.3148586750030518
31.070585250854492 29.371919631958008 0.3383912742137909
12.842755317687988 12.138114929199219 1.318862795829773
31.054500579833984 29.15241050720215 0.34820792078971863
12.866775512695312 12.076253890991211 1.3210290670394897
12.88436222076416 12.093664169311523 0.432819128036499
32.367431640625 30.17184066772461 2.3986763954162598
31.110214233398438 29.00136947631836 0.3506477177143097
12.885077476501465 12.009298324584961 1.3241139650344849
12.917243003845215 12.040243148803711 0.4340561032295227
32.428428649902344 30.017963409423828 2.3979034423828125
31.10304832458496 28.79271697998047 0.3593679666519165
12.908530235290527 11.947417259216309 1.326278567314148
12.946293830871582 11.983393669128418 0.43614739179611206
32.468502044677734 29.845422744750977 2.397813558578491
31.208608627319336 28.689071655273438 0.35663238167762756
12.928053855895996 11.882159233093262 1.3290562629699707
12.96604061126709 11.918155670166016 0.44037747383117676
32.54616165161133 29.697616577148438 2.3964855670928955
31.298538208007812 28.561094284057617 0.35581398010253906
12.954835891723633 11.819670677185059 1.3308671712875366
12.987544059753418 11.850658416748047 0.4445623457431793
32.543949127197266 29.488204956054688 2.3977749347686768
12.975610733032227 11.75607681274414 1.3333370685577393
13.006684303283691 11.785431861877441 0.4487922191619873
32.50027847290039 29.253087997436523 2.4003782272338867
13.053899765014648 11.751673698425293 2.194929361343384
12.992222785949707 11.693085670471191 1.3361592292785645
13.027155876159668 11.725781440734863 0.45221060514450073
32.492130279541016 29.041236877441406 2.4018094539642334
13.064986228942871 11.67947006225586 2.196978807449341
13.01428508758545 11.631153106689453 1.3383209705352783
13.051237106323242 11.665492057800293 0.4551534950733185
32.462345123291016 28.81154441833496 2.4039416313171387
13.09064769744873 11.62057113647461 2.197545289993286
13.037927627563477 11.570855140686035 1.3401745557785034
13.069530487060547 11.600271224975586 0.459382563829422
32.51948547363281 28.66008186340332 2.403113603591919
13.112314224243164 11.558337211608887 2.198481798171997
13.06130599975586 11.510531425476074 1.3420273065567017
13.096765518188477 11.543205261230469 0.4614667296409607
32.5797233581543 28.511863708496094 2.4021568298339844
13.1243257522583 11.487886428833008 2.2003467082977295
13.08069133758545 11.446919441223145 1.3444948196411133
13.120057106018066 11.482848167419434 0.464407354593277
32.60419845581055 28.343032836914062 2.4023280143737793
13.15095329284668 11.434502601623535 2.200585126876831
13.10343074798584 11.39047908782959 1.3460841178894043
13.141106605529785 11.424758911132812 0.46739399433135986
32.6176872253418 28.15559959411621 2.402895927429199
13.162364959716797 11.364108085632324 2.202450752258301
13.118518829345703 11.323617935180664 1.3491668701171875
13.162018775939941 11.362750053405762 0.4707624912261963
32.61235809326172 27.943204879760742 2.4041171073913574
13.190559387207031 11.304451942443848 2.2027809619903564
13.146561622619629 11.264184951782227 1.350354790687561
13.188363075256348 11.301640510559082 0.4732253849506378
32.64107131958008 27.770931243896484 2.4041197299957275
13.210840225219727 11.242201805114746 2.2037153244018555
13.164837837219238 11.200565338134766 1.3528207540512085
13.208733558654785 11.23960018157959 0.4765925109386444
32.64033126831055 27.574600219726562 2.4050850868225098
13.23465347290039 11.1831636428833 2.2042763233184814
13.186624526977539 11.140156745910645 1.3546693325042725
13.232595443725586 11.18073558807373 0.47910019755363464
32.65393829345703 27.391469955444336 2.4055418968200684
13.254398345947266 11.120893478393555 2.205209493637085
13.206244468688965 11.078137397766113 1.3568264245986938
13.246774673461914 11.113926887512207 0.48375561833381653
32.655147552490234 27.198978424072266 2.4063892364501953
13.270037651062012 11.055428504943848 2.2065160274505615
13.229409217834473 11.019291877746582 1.3583649396896362
13.266325950622559 11.05188274383545 0.48712167143821716
32.66696548461914 27.01637077331543 2.406855583190918
13.293067932128906 10.996344566345215 2.2070751190185547
13.246587753295898 10.95567512512207 1.360829472541809
13.291300773620605 10.994544982910156 0.4891969859600067
32.6701774597168 26.827669143676758 2.4075839519500732
13.311992645263672 10.934072494506836 2.2080070972442627
13.271154403686523 10.898370742797852 1.3620582818984985
13.306519508361816 10.929352760314941 0.4934227466583252
32.67634963989258 26.642431259155273 2.408188581466675
13.342238426208496 10.881253242492676 2.2078161239624023
13.293557167053223 10.839459419250488 1.363594651222229
13.334805488586426 10.875081062316895 0.49463558197021484
32.69401550292969 26.458066940307617 2.408424139022827
13.3683500289917 10.821318626403809 2.2081377506256104
13.311800956726074 10.773519515991211 1.3660112619400024
13.347527503967285 10.804471969604492 0.49967464804649353
32.69060134887695 26.26711082458496 2.4092977046966553
13.384552955627441 10.757426261901855 2.2092552185058594
13.335616111755371 10.716132164001465 1.3672369718551636
13.375322341918945 10.75012493133545 0.5008850693702698
32.695377349853516 26.093120574951172 2.409837007522583
13.408356666564941 10.703669548034668 2.209482192993164
13.357340812683105 10.661040306091309 1.3685088157653809
13.391426086425781 10.690375328063965 0.5042954087257385
32.70191955566406 25.912126541137695 2.4103310108184814
13.420125961303711 10.636689186096191 2.2109742164611816
13.369020462036133 10.594341278076172 1.3715908527374268
13.414911270141602 10.632882118225098 0.5063658356666565
32.719383239746094 25.740680694580078 2.41043758392334
13.439430236816406 10.575922966003418 2.2117156982421875
13.390151023864746 10.53536319732666 1.3731238842010498
13.438158988952637 10.575355529785156 0.5084347724914551
32.72621154785156 25.561731338500977 2.410874128341675
13.460437774658203 10.51668643951416 2.212268829345703
13.416894912719727 10.48094367980957 1.3737266063690186
13.46505355834961 10.520829200744629 0.5096403360366821
32.74007797241211 25.38918113708496 2.41105318069458
13.483163833618164 10.458959579467773 2.2126331329345703
13.437541961669922 10.421904563903809 1.375258207321167
13.478109359741211 10.45567798614502 0.5138639211654663
32.757102966308594 25.21988868713379 2.4111039638519287
13.509604454040527 10.404242515563965 2.2126197814941406
13.452043533325195 10.35831069946289 1.377719759941101
13.502582550048828 10.399578094482422 0.515498697757721
32.747535705566406 25.03106117248535 2.4120147228240967
13.529884338378906 10.344927787780762 2.2131705284118652
13.476122856140137 10.302273750305176 1.3786296844482422
13.515087127685547 10.33445930480957 0.5197226405143738
32.75098419189453 24.85318374633789 2.4124703407287598
13.543959617614746 10.281075477600098 2.2142858505249023
13.49404525756836 10.24169635772705 1.380469560623169
13.531229972839355 10.272357940673828 0.5230828523635864
32.77985763549805 24.686405181884766 2.412086009979248
13.56749439239502 10.220885276794434 2.2145986557006836
13.517437934875488 10.181745529174805 1.3816401958465576
13.560673713684082 10.216794967651367 0.5238038301467896
32.77164840698242 24.501537322998047 2.412881374359131
13.583017349243164 10.158553123474121 2.2155251502990723
13.536831855773926 10.122636795043945 1.3831685781478882
13.576298713684082 10.154674530029297 0.5271629691123962
32.732444763183594 24.294679641723633 2.414680004119873
13.604269981384277 10.100693702697754 2.2158846855163574
13.557968139648438 10.064993858337402 1.3843854665756226
13.60351848602295 10.101377487182617 0.5279292464256287
32.591434478759766 24.022932052612305 2.419804096221924
13.6255464553833 10.04666519165039 2.2161026000976562
13.577130317687988 10.009696960449219 1.3856494426727295
13.622843742370605 10.046006202697754 0.5300391316413879
32.41682052612305 23.720163345336914 2.4260385036468506
13.646340370178223 9.988753318786621 2.2164604663848877
13.601805686950684 9.954939842224121 1.3862425088882446
13.643683433532715 9.988237380981445 0.5320998430252075
32.422481536865234 23.551084518432617 2.4262804985046387
13.66487979888916 9.929352760314941 2.2170069217681885
13.616231918334961 9.892842292785645 1.3883906602859497
13.67225456237793 9.936233520507812 0.5324291586875916
32.496273040771484 23.431947708129883 2.4242470264434814
13.685194969177246 9.871404647827148 2.2173633575439453
13.642461776733398 9.839470863342285 1.3886702060699463
13.686651229858398 9.874069213867188 0.5357858538627625
32.535091400146484 23.287858963012695 2.4233500957489014
13.711352348327637 9.817788124084473 2.2171499729156494
13.66848373413086 9.78603458404541 1.3889480829238892
13.68276309967041 9.799023628234863 0.543039083480835
32.55291748046875 23.12931251525879 2.4231271743774414
13.737300872802734 9.764108657836914 2.2169349193573
13.680147171020508 9.722480773925781 1.3914066553115845
13.642393112182617 9.698448181152344 0.5580892562866211
32.57004165649414 22.970922470092773 2.422905445098877
13.752507209777832 9.699344635009766 2.2178094387054443
13.70740032196045 9.666579246520996 1.3916335105895996
13.69571304321289 9.661179542541504 0.5531724691390991
32.610782623291016 22.812780380249023 2.42191481590271
13.773551940917969 9.638888359069824 2.218113422393799
13.724268913269043 9.603500366210938 1.3934189081192017
13.708597183227539 9.595415115356445 0.5569165945053101
32.610050201416016 22.64325523376465 2.422239065170288
13.79062557220459 9.57939338684082 2.218655586242676
13.74734878540039 9.548481941223145 1.3940043449401855
13.743796348571777 9.548934936523438 0.5555081963539124
32.596187591552734 22.465503692626953 2.4229772090911865
13.817713737487793 9.526969909667969 2.2182459831237793
13.774298667907715 9.496234893798828 1.39396333694458
13.770729064941406 9.496732711791992 0.5558314323425293
32.525787353515625 22.250032424926758 2.4255599975585938
13.838428497314453 9.470250129699707 2.2184059619903564
13.786720275878906 9.434112548828125 1.3961085081100464
13.97220516204834 9.564044952392578 0.51884925365448
32.51247024536133 22.08310890197754 2.4262259006500244
13.857282638549805 9.415921211242676 2.218614101409912
13.80955982208252 9.382786750793457 1.396426796913147
14.180787086486816 9.63807201385498 0.4801549017429352
32.560237884521484 21.9499568939209 2.424868106842041
13.875489234924316 9.357754707336426 2.218963146209717
13.827661514282227 9.324840545654297 1.39763343334198
14.193693161010742 9.574772834777832 0.4834858775138855
32.603675842285156 21.82243537902832 2.423624277114868
13.889768600463867 9.300614356994629 2.2195520401000977
13.848037719726562 9.272053718566895 1.3982625007629395
14.053299903869629 9.412605285644531 0.5189970135688782
32.53174591064453 21.610353469848633 2.4261765480041504
13.922039985656738 9.252090454101562 2.218562364578247
13.869820594787598 9.216819763183594 1.398841142654419
13.923849105834961 9.255861282348633 0.5523077249526978
32.504642486572266 21.42930030822754 2.4272301197052
13.9395751953125 9.193848609924316 2.2189090251922607
13.891385078430176 9.161542892456055 1.3994190692901611
13.916793823242188 9.181471824645996 0.5595701932907104
32.43693161010742 21.222700119018555 2.4296016693115234
13.958959579467773 9.136961936950684 2.2190635204315186
13.910656929016113 9.10486888885498 1.4003088474273682
13.958824157714844 9.139603614807129 0.5564053058624268
32.443641662597656 21.065834045410156 2.4295005798339844
13.984387397766113 9.084126472473145 2.2186427116394043
13.929703712463379 9.048172950744629 1.401198148727417
13.96976375579834 9.077435493469238 0.55975741147995
32.466453552246094 20.920001983642578 2.4288482666015625
14.001238822937012 9.025821685791016 2.218986988067627
13.9526948928833 8.994141578674316 1.4014593362808228
13.994925498962402 9.024640083312988 0.5600654482841492
32.52385330200195 20.788785934448242 2.427039861679077
14.019407272338867 8.96506118774414 2.219280958175659
13.9707612991333 8.933611869812012 1.402610421180725
14.017293930053711 8.966679573059082 0.5611923933029175
32.591896057128906 20.672483444213867 2.4248576164245605
14.03787899017334 8.908076286315918 2.2194323539733887
13.989121437072754 8.876838684082031 1.4034974575042725
14.033726692199707 8.908487319946289 0.563238263130188
32.59884262084961 20.52570915222168 2.424668312072754
14.06091022491455 8.85750675201416 2.2190566062927246
14.01622486114502 8.829100608825684 1.4028626680374146
14.135871887207031 8.907852172851562 0.5470490455627441
32.59600830078125 20.365480422973633 2.4247851371765137
14.081064224243164 8.801783561706543 2.2190139293670654
14.029961585998535 8.769627571105957 1.4043757915496826
14.097763061523438 8.815418243408203 0.5604106783866882
