# .PCD v0.7 - Point Cloud Data file format
VERSION 0.7
FIELDS x y z
SIZE 4 4 4
TYPE F F F
COUNT 1 1 1
WIDTH 852
HEIGHT 1
VIEWPOINT 0 0 0 1 0 0 0
POINTS 852
DATA ascii
34.84033966064453 -26.425264358520508 0.33250027894973755
34.8621940612793 -26.780611038208008 0.31011292338371277
34.880985260009766 -27.137216567993164 0.28769516944885254
34.86458969116211 -27.469755172729492 0.26834776997566223
34.84151840209961 -27.800004959106445 0.24935659766197205
34.73814010620117 -28.06833839416504 0.23792792856693268
34.75162124633789 -28.433685302734375 0.21480891108512878
34.876319885253906 -28.895030975341797 0.18033283948898315
34.88970184326172 -29.269256591796875 0.15645380318164825
34.876991271972656 -29.6253662109375 0.13483048975467682
34.89220428466797 -30.009071350097656 0.1100538894534111
30.32231330871582 -28.786813735961914 0.3981119990348816
32.343536376953125 30.86227035522461 1.2239925861358643
32.393157958984375 30.53247833251953 1.2303047180175781
32.31352996826172 30.08552360534668 1.2459664344787598
32.44792938232422 29.841463088989258 1.245604157447815
32.511085510253906 29.533769607543945 1.2503209114074707
32.454261779785156 29.121057510375977 1.2636173963546753
32.40333557128906 28.718772888183594 1.2762398719787598
32.54553985595703 28.49053382873535 1.2746275663375854
32.544166564941406 28.13884925842285 1.2832540273666382
32.56932830810547 27.81354522705078 1.2897679805755615
32.597835540771484 27.494144439697266 1.2958570718765259
32.600643157958984 27.15627098083496 1.3036023378372192
32.61287307739258 26.829551696777344 1.3104864358901978
32.63628387451172 26.515039443969727 1.3163949251174927
32.63526153564453 26.18375587463379 1.3238592147827148
32.65489196777344 25.872089385986328 1.3296838998794556
32.67900848388672 25.56670570373535 1.3350237607955933
32.67612075805664 25.243078231811523 1.3420929908752441
32.70781326293945 24.94891357421875 1.3465707302093506
32.71400451660156 24.63789176940918 1.3526698350906372
32.71921157836914 24.32892417907715 1.3586723804473877
32.722679138183594 24.02141571044922 1.3646341562271118
32.545753479003906 23.58588218688965 1.3829118013381958
32.58722686767578 23.312604904174805 1.3859026432037354
32.6445198059082 23.05238151550293 1.3876639604568481
32.69002151489258 22.785480499267578 1.3901005983352661
32.69070816040039 22.489459991455078 1.395470142364502
32.69147872924805 22.19597625732422 1.4006856679916382
32.70149612426758 21.911109924316406 1.4051246643066406
32.73091125488281 21.64127540588379 1.4081027507781982
32.726470947265625 21.351173400878906 1.4132448434829712
32.75161361694336 21.08247947692871 1.4162424802780151
32.782283782958984 20.8190975189209 1.4187343120574951
32.79826736450195 20.548181533813477 1.4220889806747437
18.43760871887207 11.393839836120605 2.392826557159424
18.44562339782715 11.243114471435547 2.3946306705474854
18.3866024017334 11.05311107635498 2.400857448577881
18.37833595275879 10.89531421661377 2.4036006927490234
32.82466506958008 19.18963050842285 1.440513253211975
32.896507263183594 18.961997985839844 1.4393773078918457
32.89128494262695 18.6912899017334 1.4432637691497803
32.82301712036133 18.38720703125 1.4512181282043457
32.87024688720703 18.149816513061523 1.4513696432113647
32.97454833984375 17.944509506225586 1.447625756263733
33.0071907043457 17.70085906982422 1.4485276937484741
33.00719451904297 17.441158294677734 1.4514751434326172
33.02207946777344 17.190881729125977 1.4533227682113647
33.02359390258789 16.935157775878906 1.4559407234191895
33.065101623535156 16.701217651367188 1.455810785293579
33.055824279785156 16.442949295043945 1.4589154720306396
33.077796936035156 16.20167350769043 1.4598536491394043
33.08637237548828 15.955106735229492 1.4615639448165894
33.097679138183594 15.711186408996582 1.4629874229431152
33.11628341674805 15.471952438354492 1.4638255834579468
33.12594985961914 15.229745864868164 1.465144395828247
33.148441314697266 14.994585037231445 1.465518593788147
33.09634017944336 14.727252960205078 1.4706660509109497
33.110801696777344 14.491144180297852 1.4713568687438965
33.12452697753906 14.255805969238281 1.4719935655593872
33.155921936035156 14.029012680053711 1.4713777303695679
33.163665771484375 13.793169975280762 1.472204566001892
33.18269729614258 13.563047409057617 1.4721958637237549
33.22239303588867 13.342137336730957 1.4707437753677368
33.081424713134766 13.050548553466797 1.4809513092041016
33.12428283691406 12.833317756652832 1.4790962934494019
33.52956771850586 12.75446891784668 1.4535810947418213
33.665809631347656 12.570558547973633 1.4454748630523682
33.71951675415039 12.355574607849121 1.4426395893096924
33.721134185791016 12.12216854095459 1.44309401512146
33.73527908325195 11.894186019897461 1.4426382780075073
33.746952056884766 11.666157722473145 1.4422481060028076
33.75048828125 11.43619155883789 1.442291498184204
33.761940002441406 11.209765434265137 1.441726565361023
33.77189636230469 10.983627319335938 1.4411656856536865
33.78224563598633 10.758394241333008 1.4404860734939575
33.78730010986328 10.532258033752441 1.4400575160980225
33.79084777832031 10.306464195251465 1.4396353960037231
33.79290008544922 10.081021308898926 1.4392176866531372
33.812625885009766 9.861529350280762 1.4375609159469604
33.8309326171875 9.64217472076416 1.435905933380127
33.83435821533203 9.419217109680176 1.435126781463623
33.84114456176758 9.197888374328613 1.434038758277893
33.847450256347656 8.977084159851074 1.4328932762145996
33.86488342285156 8.759798049926758 1.4309333562850952
33.86931610107422 8.539705276489258 1.4297304153442383
33.881046295166016 8.322030067443848 1.4279636144638062
33.90108871459961 8.106852531433105 1.425566554069519
33.89740753173828 7.886538505554199 1.424625277519226
33.90203857421875 7.66877555847168 1.4230557680130005
33.91501998901367 7.45339298248291 1.4208534955978394
33.935420989990234 7.2400126457214355 1.4180777072906494
33.94080352783203 7.023829936981201 1.4161956310272217
33.956546783447266 6.810206890106201 1.4135481119155884
33.95821762084961 6.594180107116699 1.4117335081100464
33.95655059814453 6.378019332885742 1.4100514650344849
33.976097106933594 6.166224956512451 1.4068924188613892
33.99137496948242 5.95391321182251 1.403924822807312
34.00236892700195 5.741145133972168 1.4011499881744385
34.010074615478516 5.528144359588623 1.3985058069229126
34.00855255126953 5.31403112411499 1.3963810205459595
34.01555252075195 5.101623058319092 1.3936084508895874
34.0340690612793 4.891173362731934 1.389991044998169
34.04534912109375 4.679872035980225 1.386762261390686
34.05136489868164 4.468094825744629 1.3837941884994507
34.060020446777344 4.256913185119629 1.3805646896362305
34.06935501098633 4.046027183532715 1.3772039413452148
33.543907165527344 3.775128126144409 1.4092166423797607
33.5125732421875 3.563601016998291 1.4084274768829346
33.56230926513672 3.360853672027588 1.4021674394607544
33.624725341796875 3.1589362621307373 1.394970178604126
33.643184661865234 2.952624559402466 1.390607237815857
33.651424407958984 2.7454729080200195 1.3868381977081299
33.661376953125 2.538555145263672 1.382867693901062
33.671051025390625 2.331685781478882 1.3788282871246338
33.667503356933594 2.124037027359009 1.37558913230896
33.65470886230469 1.9160640239715576 1.3728855848312378
33.66055679321289 1.709338665008545 1.3688445091247559
33.66214370727539 1.5024787187576294 1.3650028705596924
33.69536209106445 1.2969292402267456 1.3589400053024292
19.273895263671875 0.6229454278945923 2.3302552700042725
12.998734474182129 0.33992138504981995 2.753059148788452
33.73958206176758 0.6772324442863464 1.3439462184906006
12.393171310424805 0.17192883789539337 2.791044235229492
33.74575424194336 0.263286292552948 1.3350825309753418
33.75442123413086 0.05630090832710266 1.3301377296447754
12.728137969970703 -0.05762430280447006 2.7633438110351562
33.77093505859375 -0.3579883575439453 1.3200300931930542
33.77678298950195 -0.5652799606323242 1.3150050640106201
12.818349838256836 -0.293962687253952 2.7519102096557617
33.80061721801758 -0.9805787205696106 1.3038448095321655
33.80363464355469 -1.1882407665252686 1.298738956451416
33.810359954833984 -1.3961840867996216 1.2932852506637573
33.7350959777832 -1.6004302501678467 1.2934257984161377
12.830647468566895 -0.6883870959281921 2.741595506668091
12.902748107910156 -0.7716547250747681 2.7345733642578125
12.870782852172852 -0.8490145206451416 2.7347612380981445
12.817461013793945 -0.9245069026947021 2.7364184856414795
12.519046783447266 -0.9802459478378296 2.755253791809082
33.88613510131836 -2.8604087829589844 1.2504464387893677
12.80191421508789 -1.1605603694915771 2.7311010360717773
12.738840103149414 -1.2336853742599487 2.733351469039917
12.761679649353027 -1.3149677515029907 2.7295007705688477
13.957096099853516 -1.5246156454086304 2.642324447631836
13.993929862976074 -1.61557137966156 2.6371755599975586
12.438909530639648 -1.5135724544525146 2.7456135749816895
12.670703887939453 -1.6206996440887451 2.726699113845825
12.64162540435791 -1.6958720684051514 2.726381540298462
12.620991706848145 -1.7719968557357788 2.7254302501678467
12.622600555419922 -1.8512599468231201 2.722844362258911
12.623711585998535 -1.930610179901123 2.7202558517456055
12.511040687561035 -1.9920188188552856 2.725884199142456
12.488632202148438 -2.0670952796936035 2.7249529361724854
34.000125885009766 -5.839996814727783 1.1527341604232788
29.238096237182617 -5.2071099281311035 1.4940356016159058
34.01551818847656 -6.273292064666748 1.1371530294418335
34.032901763916016 -6.492659568786621 1.1284842491149902
34.00580596923828 -6.703991889953613 1.1229839324951172
33.93439865112305 -6.906487464904785 1.120666742324829
33.88911819458008 -7.1140971183776855 1.116331934928894
33.92737579345703 -7.339756965637207 1.1056824922561646
33.950504302978516 -7.563120365142822 1.096034288406372
33.977027893066406 -7.788158416748047 1.086007833480835
34.04768371582031 -8.024559020996094 1.072534203529358
34.06727600097656 -8.250151634216309 1.0627639293670654
34.08828353881836 -8.477008819580078 1.0527604818344116
34.089420318603516 -8.699750900268555 1.0441380739212036
34.11226272583008 -8.928886413574219 1.0337411165237427
34.11526870727539 -9.153721809387207 1.0247302055358887
34.114871978759766 -9.378402709960938 1.0158557891845703
34.11012268066406 -9.60261344909668 1.0071941614151
34.13456344604492 -9.835955619812012 0.99615478515625
34.12968444824219 -10.061782836914062 0.9872509837150574
34.12903594970703 -10.289648056030273 0.9778922200202942
34.15927505493164 -10.527872085571289 0.9659931063652039
34.142215728759766 -10.75247573852539 0.9576534628868103
34.11798858642578 -10.975438117980957 0.9497571587562561
34.15483856201172 -11.219045639038086 0.9369192719459534
34.16633605957031 -11.455594062805176 0.9259335994720459
34.16771697998047 -11.689801216125488 0.9156093001365662
34.1712760925293 -11.925772666931152 0.904973030090332
34.15348815917969 -12.155207633972168 0.8959057927131653
34.142608642578125 -12.387935638427734 0.8861523270606995
34.22087097167969 -12.654532432556152 0.8690617084503174
34.26914596557617 -12.912008285522461 0.8542079329490662
34.28574752807617 -13.1591215133667 0.8417554497718811
34.321964263916016 -13.41527271270752 0.8275384902954102
34.33408737182617 -13.6635160446167 0.8151254057884216
34.332435607910156 -13.907546997070312 0.8036859035491943
34.35304260253906 -14.161953926086426 0.790249764919281
34.36721420288086 -14.415207862854004 0.777177095413208
34.352054595947266 -14.657430648803711 0.7663832306861877
34.35899353027344 -14.910331726074219 0.7535866498947144
29.515783309936523 -13.024628639221191 1.1489137411117554
34.41653060913086 -15.440065383911133 0.723791778087616
34.406978607177734 -15.690176010131836 0.7118656039237976
34.41191864013672 -15.948296546936035 0.6985381245613098
34.430320739746094 -16.21428871154785 0.6838808655738831
34.435951232910156 -16.47594451904297 0.670132577419281
34.459388732910156 -16.747865676879883 0.6546615958213806
34.46379089355469 -17.012310028076172 0.6406442523002625
34.47248077392578 -17.280567169189453 0.6260645985603333
34.407196044921875 -17.512943267822266 0.6177753210067749
34.36515808105469 -17.757980346679688 0.6073029041290283
34.418514251708984 -18.05410385131836 0.5882328748703003
34.38856506347656 -18.308448791503906 0.5763282179832458
34.416419982910156 -18.595327377319336 0.5590879917144775
30.83522605895996 -16.90589714050293 0.8655967712402344
30.80375862121582 -17.135417938232422 0.8548439741134644
34.578575134277344 -19.51401138305664 0.4988745152950287
34.58325958251953 -19.797548294067383 0.48278483748435974
34.57972717285156 -20.0783748626709 0.4672280550003052
34.589500427246094 -20.369007110595703 0.45023030042648315
34.624393463134766 -20.67687225341797 0.43067845702171326
34.625247955322266 -20.966821670532227 0.4140303432941437
34.58985900878906 -21.236698150634766 0.40053999423980713
34.59561538696289 -21.533798217773438 0.38298240303993225
34.568668365478516 -21.812612533569336 0.3682712912559509
34.582420349121094 -22.119300842285156 0.34947964549064636
34.62298583984375 -22.445953369140625 0.32786914706230164
34.59084701538086 -22.72795867919922 0.3129441440105438
34.44453048706055 -22.93583106994629 0.3088184595108032
30.301908493041992 -20.447158813476562 0.6924745440483093
34.64516067504883 -23.688560485839844 0.25211474299430847
34.63640594482422 -23.9959774017334 0.23390299081802368
34.750816345214844 -24.392362594604492 0.20326952636241913
29.868379592895508 -21.240398406982422 0.6683064103126526
29.944984436035156 -21.572927474975586 0.6434938907623291
29.718297958374023 -21.688037872314453 0.648802638053894
29.661252975463867 -21.926788330078125 0.6369867324829102
29.59282112121582 -22.15848731994629 0.6261386275291443
29.567129135131836 -22.423898696899414 0.6107425689697266
29.586711883544922 -22.726255416870117 0.5904538631439209
32.4004020690918 30.874608993530273 0.9701700210571289
32.43330764770508 30.52886199951172 0.9789107441902161
32.32137680053711 30.052011489868164 0.9992226958274841
32.443031311035156 29.796472549438477 1.000247597694397
32.51323318481445 29.49563217163086 1.0052666664123535
32.463523864746094 29.08979606628418 1.0197455883026123
32.41006088256836 28.685684204101562 1.0342565774917603
32.545265197753906 28.45152473449707 1.0334285497665405
32.5632209777832 28.116971969604492 1.0417869091033936
32.59122085571289 27.794281005859375 1.0491365194320679
32.605804443359375 27.46330451965332 1.0573415756225586
32.616790771484375 27.132558822631836 1.0656218528747559
32.61185073852539 26.791942596435547 1.0749468803405762
32.645042419433594 26.48574447631836 1.081078052520752
32.64923095703125 26.15892791748047 1.0892837047576904
32.66708755493164 25.846067428588867 1.096228837966919
32.68941879272461 25.539501190185547 1.102638602256775
32.693416595458984 25.221445083618164 1.1102794408798218
32.722537994384766 24.92547035217285 1.115798830986023
32.71895980834961 24.60729217529297 1.1236521005630493
32.730342864990234 24.30318832397461 1.1301748752593994
32.7585563659668 24.014036178588867 1.1352380514144897
32.57503890991211 23.573890686035156 1.1562367677688599
32.6131477355957 23.298206329345703 1.1601741313934326
32.69314956665039 23.05400276184082 1.1607853174209595
32.728782653808594 22.780048370361328 1.164605975151062
32.71294021606445 22.472612380981445 1.1721467971801758
32.76560592651367 22.214397430419922 1.1743746995925903
32.73173141479492 21.899770736694336 1.1829392910003662
32.77935791015625 21.64194107055664 1.1852433681488037
32.769866943359375 21.3483943939209 1.191663146018982
32.821815490722656 21.09679412841797 1.1933562755584717
32.80281066894531 20.801528930664062 1.20017671585083
32.83218765258789 20.539052963256836 1.2032585144042969
18.43658447265625 11.375868797302246 2.271799087524414
18.406108856201172 11.201851844787598 2.2768332958221436
18.406709671020508 11.048157691955566 2.2794907093048096
18.36919403076172 10.873016357421875 2.2848665714263916
32.90983963012695 19.210161209106445 1.2216744422912598
32.921234130859375 18.947195053100586 1.2252471446990967
32.91935729980469 18.678409576416016 1.2296537160873413
32.831817626953125 18.363588333129883 1.2401692867279053
32.87363052368164 18.123306274414062 1.2411140203475952
32.979496002197266 17.9189395904541 1.2372817993164062
33.00843048095703 17.673439025878906 1.23892343044281
33.0250129699707 17.422670364379883 1.241337537765503
33.02027893066406 17.162235260009766 1.2451680898666382
33.0446891784668 16.91843605041504 1.2467656135559082
33.07181167602539 16.677227020263672 1.2480462789535522
33.07844924926758 16.427000045776367 1.2506837844848633
33.09761047363281 16.18433380126953 1.2522982358932495
33.088069915771484 15.929061889648438 1.2558575868606567
33.10460662841797 15.687767028808594 1.257422685623169
33.11399841308594 15.4443359375 1.2593834400177002
33.13163375854492 15.20595932006836 1.260636806488037
33.15578079223633 14.971643447875977 1.2613112926483154
33.10078811645508 14.703166007995605 1.2675288915634155
33.11141586303711 14.465492248535156 1.2689393758773804
33.1130485534668 14.225090026855469 1.270878553390503
33.13595962524414 13.994917869567871 1.2711892127990723
33.171119689941406 13.770740509033203 1.2705180644989014
33.17983627319336 13.536477088928223 1.2716227769851685
33.19248580932617 13.304853439331055 1.2723381519317627
33.07635498046875 13.023491859436035 1.2821033000946045
33.122745513916016 12.80776309967041 1.2802013158798218
33.530609130859375 12.729736328125 1.2525266408920288
33.6788215637207 12.550308227539062 1.243205189704895
33.71363830566406 12.328408241271973 1.24183189868927
33.72821807861328 12.099813461303711 1.2417898178100586
33.735618591308594 11.869516372680664 1.2421526908874512
33.7452392578125 11.64088249206543 1.2422528266906738
33.74671173095703 11.410340309143066 1.2428276538848877
33.76746368408203 11.18712043762207 1.2419332265853882
33.78390121459961 10.963150978088379 1.241241693496704
33.79411315917969 10.737887382507324 1.2408891916275024
33.79521179199219 10.510540008544922 1.241081714630127
33.79861068725586 10.284743309020996 1.241008996963501
33.79669189453125 10.058160781860352 1.2412132024765015
33.81913375854492 9.839515686035156 1.2395936250686646
33.83440399169922 9.619335174560547 1.2383811473846436
33.83094787597656 9.39452838897705 1.2383962869644165
33.8394889831543 9.17378044128418 1.2374627590179443
33.862030029296875 8.95736312866211 1.2354401350021362
33.85807418823242 8.734532356262207 1.2351969480514526
33.862335205078125 8.514518737792969 1.2342735528945923
33.88067626953125 8.298578262329102 1.2322556972503662
33.898616790771484 8.082963943481445 1.2301691770553589
33.8928337097168 7.862253189086914 1.229668378829956
33.89924240112305 7.644989967346191 1.2282063961029053
33.90913772583008 7.429009437561035 1.226401925086975
33.93034744262695 7.215892314910889 1.2236970663070679
33.947288513183594 7.002188682556152 1.2212001085281372
33.95309829711914 6.786590576171875 1.2193986177444458
33.95166778564453 6.570045471191406 1.2180167436599731
33.947879791259766 6.353588581085205 1.2167088985443115
33.974124908447266 6.143105506896973 1.2131673097610474
33.98727798461914 5.930479526519775 1.2104634046554565
34.00204849243164 5.718417167663574 1.2075486183166504
34.016483306884766 5.506555557250977 1.204561710357666
34.01382827758789 5.2922749519348145 1.2027020454406738
34.0147590637207 5.078969478607178 1.2004921436309814
34.03311538696289 4.868535041809082 1.196941614151001
34.047203063964844 4.65765905380249 1.1936004161834717
34.051082611083984 4.445628643035889 1.19089674949646
34.05760192871094 4.234216690063477 1.187909483909607
34.064788818359375 4.0231242179870605 1.1847805976867676
33.55224609375 3.754063844680786 1.2189618349075317
33.50093078613281 3.5404253005981445 1.2199019193649292
33.55148696899414 3.3378312587738037 1.2134100198745728
33.61174011230469 3.1357686519622803 1.2061177492141724
33.63599395751953 2.930058479309082 1.2013250589370728
33.649044036865234 2.7233614921569824 1.197246789932251
33.66381072998047 2.516836404800415 1.1929494142532349
33.66835021972656 2.30961537361145 1.1892987489700317
33.67559814453125 2.1026806831359863 1.1853582859039307
33.69053649902344 1.8962469100952148 1.180762767791748
33.69125747680664 1.6890572309494019 1.1771082878112793
33.7006721496582 1.4823671579360962 1.1727261543273926
33.71180725097656 1.2757363319396973 1.1681214570999146
19.257701873779297 0.6096121668815613 2.2230277061462402
33.71232223510742 0.861774742603302 1.1602189540863037
33.721641540527344 0.6550680994987488 1.1554611921310425
13.036529541015625 0.1719958484172821 2.6740148067474365
33.73847198486328 0.24142567813396454 1.1457877159118652
33.7509651184082 0.03448626399040222 1.1405030488967896
33.75520706176758 -0.17256399989128113 1.1357312202453613
12.809978485107422 -0.14534829556941986 2.6839945316314697
12.766849517822266 -0.22319523990154266 2.6854329109191895
11.688393592834473 -0.27624401450157166 2.763890504837036
12.819729804992676 -0.38147732615470886 2.677861452102661
33.802188873291016 -1.2100518941879272 1.1084822416305542
33.792808532714844 -1.417325735092163 1.1041369438171387
33.729366302490234 -1.6219966411590576 1.103751540184021
12.706457138061523 -0.6904730200767517 2.678642511367798
12.856146812438965 -0.7777082324028015 2.665358543395996
12.853996276855469 -0.8567502498626709 2.663450241088867
33.85315704345703 -2.461702346801758 1.0728583335876465
12.52616024017334 -0.9894537925720215 2.684048652648926
13.066195487976074 -1.112719178199768 2.640885591506958
12.766060829162598 -1.166133165359497 2.6614813804626465
13.051310539245605 -1.2729246616363525 2.6374595165252686
13.102641105651855 -1.359119176864624 2.6311941146850586
13.102851867675781 -1.440442681312561 2.6287901401519775
12.246801376342773 -1.422563076019287 2.6921727657318115
33.928497314453125 -4.148500919342041 1.0189396142959595
33.910972595214844 -4.3576788902282715 1.0137940645217896
33.939598083496094 -4.573187828063965 1.0049747228622437
33.92833709716797 -4.783786296844482 0.9991315603256226
33.969032287597656 -5.002262115478516 0.9891394972801208
12.88022518157959 -1.9788405895233154 2.6282999515533447
13.031152725219727 -2.083918809890747 2.613813638687134
13.111433029174805 -2.1793265342712402 2.6047651767730713
33.98012161254883 -5.85917329788208 0.9598330855369568
13.454439163208008 -2.406298875808716 2.5720386505126953
34.016754150390625 -6.296257495880127 0.9420372843742371
34.01435089111328 -6.5119147300720215 0.9345989227294922
12.598649024963379 -2.493511199951172 2.631087303161621
33.91459655761719 -6.925301551818848 0.926953136920929
33.9150276184082 -7.142439842224121 0.9189613461494446
33.89360809326172 -7.35540771484375 0.9126054048538208
33.93214416503906 -7.582075119018555 0.9013110995292664
33.95459747314453 -7.806144714355469 0.8911759257316589
34.05415725708008 -8.049345970153809 0.8746605515480042
34.04931640625 -8.269131660461426 0.8664557337760925
34.055625915527344 -8.492297172546387 0.8572189807891846
34.10103988647461 -8.72623062133789 0.8446540832519531
34.10918426513672 -8.951680183410645 0.8349965214729309
34.113914489746094 -9.177042007446289 0.8254855871200562
34.096981048583984 -9.397239685058594 0.8176309466362
34.10356521606445 -9.624613761901855 0.8077054023742676
34.12109375 -9.856019973754883 0.7967328429222107
34.1236686706543 -10.084050178527832 0.7868627309799194
34.112327575683594 -10.308735847473145 0.7780206799507141
34.18046569824219 -10.558667182922363 0.7623703479766846
34.159358978271484 -10.782222747802734 0.7540642619132996
34.15861129760742 -11.012953758239746 0.7439076900482178
34.15915298461914 -11.245016098022461 0.7334985733032227
34.16474151611328 -11.479724884033203 0.7225161194801331
34.158363342285156 -11.711368560791016 0.7124073505401611
34.18805694580078 -11.956528663635254 0.6990582942962646
34.14185333251953 -12.176048278808594 0.6920798420906067
34.12421798706055 -12.40634822845459 0.6825107932090759
34.22372817993164 -12.680867195129395 0.6626282334327698
34.281986236572266 -12.942289352416992 0.6461218595504761
34.28900909423828 -13.185945510864258 0.6338999271392822
34.29896926879883 -13.431992530822754 0.6212567687034607
34.304412841796875 -13.677553176879883 0.6088418364524841
34.30905532836914 -13.924060821533203 0.5963320136070251
34.33774948120117 -14.181791305541992 0.581514835357666
34.34159469604492 -14.430749893188477 0.5687267184257507
34.331756591796875 -14.675195693969727 0.5569909811019897
34.34579849243164 -14.93118953704834 0.5429412126541138
29.489473342895508 -13.036099433898926 0.9688189029693604
34.40194320678711 -15.460454940795898 0.5117368698120117
34.39579391479492 -15.712165832519531 0.4989514648914337
34.399600982666016 -15.969839096069336 0.48507827520370483
34.40513229370117 -16.22985076904297 0.47085636854171753
34.420448303222656 -16.496131896972656 0.45553988218307495
34.42213439941406 -16.757539749145508 0.4412841796875
34.43619918823242 -17.026657104492188 0.4256807565689087
34.444679260253906 -17.294788360595703 0.4103904068470001
34.379249572753906 -17.527006149291992 0.4018426835536957
34.31845474243164 -17.76228141784668 0.39271053671836853
34.44132614135742 -18.094789505004883 0.3660014867782593
34.358272552490234 -18.3211727142334 0.3586045801639557
34.394676208496094 -18.612661361694336 0.3396294414997101
30.811765670776367 -16.919368743896484 0.6686859130859375
30.783615112304688 -17.150712966918945 0.6571301817893982
34.54386901855469 -19.52426528930664 0.2773175835609436
34.54749298095703 -19.807140350341797 0.26050812005996704
34.52482223510742 -20.07676887512207 0.24604520201683044
34.549922943115234 -20.376222610473633 0.2266608476638794
34.56407928466797 -20.6716251373291 0.20809948444366455
34.43106460571289 -20.88014030456543 0.2039411962032318
34.42666244506836 -21.167646408081055 0.18679748475551605
34.455528259277344 -21.47801971435547 0.16606169939041138
34.4431266784668 -21.76506233215332 0.14921769499778748
34.4821891784668 -22.087146759033203 0.12689507007598877
34.5361328125 -22.421924591064453 0.10274787247180939
30.366411209106445 -20.249448776245117 0.4955238401889801
24.45914649963379 -16.5285701751709 1.0921937227249146
23.98537826538086 -16.423879623413086 1.1276986598968506
23.82655143737793 -16.53093719482422 1.1304644346237183
23.721925735473633 -16.675050735473633 1.1274882555007935
23.596954345703125 -16.804636001586914 1.1265941858291626
23.523801803588867 -16.971202850341797 1.1201064586639404
23.495346069335938 -17.171005249023438 1.1086965799331665
23.458906173706055 -17.36635971069336 1.0979701280593872
23.441679000854492 -17.577451705932617 1.084984540939331
29.575767517089844 -22.749128341674805 0.3797656297683716
33.884559631347656 -29.911975860595703 -0.3608798384666443
33.72516632080078 -30.14181137084961 -0.3685249984264374
33.66615295410156 -30.463045120239258 -0.3883325159549713
33.4406623840332 -30.6346492767334 -0.3884512782096863
33.58828353881836 -31.151426315307617 -0.43382030725479126
20.231149673461914 -18.996837615966797 1.1667747497558594
20.035221099853516 -19.0457706451416 1.1736527681350708
32.369815826416016 30.916616439819336 0.6803854703903198
31.47704315185547 29.69722557067871 0.7746279835700989
15.541080474853516 14.483799934387207 2.228306293487549
31.615108489990234 29.103416442871094 0.7869378328323364
31.620670318603516 28.752544403076172 0.7984586358070374
31.98539161682129 28.728065490722656 0.7776486277580261
32.30097961425781 28.65582275390625 0.7612149715423584
32.484798431396484 28.465045928955078 0.7564217448234558
32.52262878417969 28.14772605895996 0.7643816471099854
32.563865661621094 27.836200714111328 0.7718185782432556
32.565155029296875 27.493690490722656 0.7825338840484619
32.574974060058594 27.161800384521484 0.7922654151916504
32.6012077331543 26.846683502197266 0.8003384470939636
32.58842849731445 26.50267791748047 0.8115740418434143
32.63412094116211 26.209199905395508 0.817527174949646
32.63835525512695 25.885164260864258 0.8268479704856873
32.65556716918945 25.574365615844727 0.8348386287689209
32.67888259887695 25.271045684814453 0.8421005010604858
32.702877044677734 24.970827102661133 0.8491032123565674
32.71168518066406 24.66165542602539 0.8571984767913818
32.72914505004883 24.361658096313477 0.8643606901168823
32.754615783691406 24.070053100585938 0.8706526160240173
32.5427360534668 23.60857391357422 0.8967198133468628
32.603050231933594 23.34868812561035 0.8996602892875671
32.68503189086914 23.105653762817383 0.9006262421607971
32.700626373291016 22.8173885345459 0.9069766402244568
32.71309280395508 22.529239654541016 0.9134060740470886
32.77937316894531 22.279930114746094 0.9151946902275085
32.75518035888672 21.97119140625 0.9243153929710388
32.762542724609375 21.686166763305664 0.9306422472000122
32.79104232788086 21.417152404785156 0.935057520866394
32.81663513183594 21.1480655670166 0.9395486116409302
32.829227447509766 20.872514724731445 0.9449429512023926
32.82868957519531 20.590713500976562 0.95124751329422
32.818302154541016 20.304981231689453 0.9581873416900635
32.889102935791016 20.071077346801758 0.9583553075790405
32.84203338623047 19.767107009887695 0.9679545164108276
32.89027404785156 19.522518157958984 0.9696568250656128
32.91264343261719 19.26397132873535 0.973308801651001
32.91408157348633 18.994911193847656 0.9785017967224121
32.9221305847168 18.731494903564453 0.9830095171928406
32.82030487060547 18.408185958862305 0.9961968660354614
32.86592483520508 18.169845581054688 0.997377872467041
32.96766662597656 17.963138580322266 0.9939294457435608
33.010990142822266 17.725191116333008 0.9950345158576965
33.01383972167969 17.466859817504883 0.9992356300354004
33.02538299560547 17.214696884155273 1.002602219581604
33.03596496582031 16.963504791259766 1.0059064626693726
33.05094528198242 16.715980529785156 1.0087252855300903
33.04984664916992 16.461793899536133 1.0126838684082031
33.06390380859375 16.216594696044922 1.0153058767318726
33.081581115722656 15.974446296691895 1.0175093412399292
33.08763122558594 15.727980613708496 1.0205013751983643
33.10455322265625 15.487957000732422 1.0225040912628174
33.105281829833984 15.241643905639648 1.0256556272506714
33.14421844482422 15.014012336730957 1.0256707668304443
33.12147903442383 14.759681701660156 1.030411720275879
33.114227294921875 14.513801574707031 1.0338064432144165
33.140018463134766 14.283564567565918 1.034481406211853
33.13393020629883 14.040718078613281 1.0375345945358276
33.162940979003906 13.813819885253906 1.0377156734466553
33.179344177246094 13.582560539245605 1.0387639999389648
33.221920013427734 13.362785339355469 1.03764808177948
33.06917953491211 13.066396713256836 1.051668405532837
33.11118698120117 12.848877906799316 1.050355076789856
33.513389587402344 12.769110679626465 1.0208454132080078
33.67015838623047 12.593001365661621 1.0103834867477417
33.704307556152344 12.370772361755371 1.0093671083450317
33.72667694091797 12.144880294799805 1.0091533660888672
33.724037170410156 11.91087532043457 1.0107697248458862
33.7348747253418 11.682580947875977 1.0112228393554688
33.751739501953125 11.457164764404297 1.0110936164855957
33.75859451293945 11.229146003723145 1.0116292238235474
33.77056121826172 11.003637313842773 1.011654019355774
33.781986236572266 10.778704643249512 1.0116088390350342
33.79096984863281 10.55374813079834 1.0116418600082397
33.79179382324219 10.327045440673828 1.012197494506836
33.793975830078125 10.101583480834961 1.0125362873077393
33.81476974487305 9.882359504699707 1.0113221406936646
33.835105895996094 9.663530349731445 1.0100343227386475
33.84922790527344 9.4434814453125 1.0091197490692139
33.84653091430664 9.219429969787598 1.0094013214111328
33.854888916015625 8.99909496307373 1.0087168216705322
33.867610931396484 8.780503273010254 1.007587194442749
33.873130798339844 8.560628890991211 1.0069092512130737
33.88399887084961 8.342682838439941 1.0057092905044556
33.89250946044922 8.124691009521484 1.0045865774154663
33.90641403198242 7.908493518829346 1.0029398202896118
33.903385162353516 7.688899993896484 1.0025005340576172
33.92912292480469 7.476290702819824 0.999723494052887
33.93305969238281 7.259273529052734 0.9985345005989075
33.94244384765625 7.043905735015869 0.9968168139457703
33.94948196411133 6.828497409820557 0.995177686214447
33.95711898803711 6.613647937774658 0.9933879375457764
33.959476470947266 6.398220539093018 0.9919041991233826
33.97911071777344 6.186404705047607 0.9889731407165527
34.00233459472656 5.975450038909912 0.9856582880020142
34.00065231323242 5.760443687438965 0.9841784834861755
34.0045051574707 5.546804904937744 0.9821653962135315
34.007015228271484 5.333333492279053 0.9801534414291382
34.01015853881836 5.120335102081299 0.9779902696609497
34.02874755859375 4.90991735458374 0.9745171666145325
34.04010772705078 4.698644161224365 0.971505343914032
34.04521560668945 4.4867634773254395 0.9688796401023865
34.05988311767578 4.276360034942627 0.9654021263122559
34.072261810302734 4.065826416015625 0.9620001912117004
33.57810592651367 3.798156261444092 0.9982528686523438
33.49337387084961 3.5806775093078613 1.0023126602172852
33.53321838378906 3.3770649433135986 0.9964885115623474
33.62045669555664 3.177692413330078 0.9868250489234924
33.64791488647461 2.9721992015838623 0.9817587733268738
33.6572265625 2.76509952545166 0.9780181646347046
33.66228103637695 2.5577688217163086 0.974511981010437
33.67003631591797 2.350755453109741 0.9706902503967285
33.67750549316406 2.1438050270080566 0.9667882919311523
15.757490158081055 0.9062775373458862 2.3843495845794678
15.779519081115723 0.8104752898216248 2.3809566497802734
15.790010452270508 0.7139409184455872 2.3784291744232178
15.788954734802246 0.6168795228004456 2.3767709732055664
15.808223724365234 0.520545482635498 2.3734447956085205
15.83487319946289 0.42421069741249084 2.3694770336151123
15.831040382385254 0.32695072889328003 2.367892265319824
15.819631576538086 0.22965167462825775 2.3668670654296875
33.759334564208984 0.28254765272140503 0.9258508682250977
12.99704360961914 0.02928810380399227 2.589622735977173
13.006814956665039 -0.05047323554754257 2.587125301361084
33.75178909301758 -0.33862417936325073 0.9131218791007996
33.787593841552734 -0.5462742447853088 0.9055773615837097
33.769309997558594 -0.7531997561454773 0.9022934436798096
11.85335922241211 -0.33689168095588684 2.6733407974243164
33.805633544921875 -1.1690914630889893 0.8895063400268555
33.810420989990234 -1.3769545555114746 0.8840344548225403
33.74024963378906 -1.5814682245254517 0.8845612406730652
13.086156845092773 -0.6936166882514954 2.565491199493408
12.813881874084473 -0.7580312490463257 2.5856716632843018
12.849635124206543 -0.8392797708511353 2.5806517601013184
33.87179946899414 -2.421736001968384 0.8519632816314697
12.656268119812012 -0.9827229380607605 2.5922515392303467
33.868614196777344 -2.839568614959717 0.8406310081481934
12.99239730834961 -1.169365644454956 2.5600571632385254
33.91383743286133 -3.262850284576416 0.8248488306999207
33.91364288330078 -3.472942352294922 0.8186708688735962
33.92007064819336 -3.6840171813964844 0.8118298649787903
33.92716598510742 -3.895531415939331 0.8048170208930969
33.93095016479492 -4.107033729553223 0.7979627251625061
33.9363899230957 -4.319108963012695 0.790854275226593
33.95729064941406 -4.53364896774292 0.7823291420936584
33.96992492675781 -4.747644901275635 0.7743749618530273
33.96345901489258 -4.959375858306885 0.7679104208946228
34.000003814697266 -5.177960395812988 0.7576907873153687
34.00758361816406 -5.392810821533203 0.7497931122779846
33.98725509643555 -5.603574752807617 0.7441450357437134
12.75304889678955 -2.1828460693359375 2.5467441082000732
13.398608207702637 -2.378070116043091 2.4887123107910156
34.019371032714844 -6.254125595092773 0.7185459136962891
34.03480529785156 -6.473101615905762 0.7093490958213806
34.024391174316406 -6.687700271606445 0.7022477984428406
33.96769714355469 -6.893299102783203 0.6990229487419128
33.92927169799805 -7.102540969848633 0.694116473197937
33.95188903808594 -7.325021743774414 0.6837959885597229
34.02265930175781 -7.559072017669678 0.6691398620605469
34.05782699584961 -7.786493301391602 0.6574280261993408
34.063350677490234 -8.00801944732666 0.6481637358665466
34.084869384765625 -8.234119415283203 0.6373582482337952
34.09328842163086 -8.457908630371094 0.627561628818512
34.10409927368164 -8.68309497833252 0.6174126267433167
34.12788772583008 -8.912510871887207 0.605969250202179
34.122230529785156 -9.135074615478516 0.5969945192337036
34.114158630371094 -9.357641220092773 0.5880987644195557
34.14971923828125 -9.593119621276855 0.5751566290855408
34.1683464050293 -9.824981689453125 0.5635730624198914
34.17394256591797 -10.054061889648438 0.5530086755752563
34.17418670654297 -10.282432556152344 0.542777955532074
34.19767761230469 -10.518802642822266 0.5302906036376953
34.18342590332031 -10.74449634552002 0.5210756063461304
34.180973052978516 -10.974677085876465 0.5106400847434998
34.18738555908203 -11.208645820617676 0.49923983216285706
34.21299362182617 -11.450065612792969 0.4859146475791931
34.2095832824707 -11.68288516998291 0.475096195936203
34.23188018798828 -11.925599098205566 0.4617398977279663
34.186767578125 -12.145682334899902 0.45447614789009094
34.139305114746094 -12.365324020385742 0.44730091094970703
34.24275588989258 -12.64107608795166 0.4258553981781006
34.29841613769531 -12.901376724243164 0.4086662828922272
34.32611083984375 -13.152857780456543 0.39390829205513
34.32231140136719 -13.393575668334961 0.3819449841976166
34.33073043823242 -13.64026165008545 0.3686481714248657
34.325401306152344 -13.882699012756348 0.35648247599601746
34.34417724609375 -14.136202812194824 0.3418327569961548
34.33815383911133 -14.380839347839355 0.3293755352497101
34.311180114746094 -14.61773681640625 0.31876471638679504
34.34381866455078 -14.881380081176758 0.30220746994018555
29.53267478942871 -13.012519836425781 0.7572484016418457
34.40776824951172 -15.413540840148926 0.26858124136924744
34.37830352783203 -15.65442943572998 0.2574748992919922
34.3896598815918 -15.915201187133789 0.24217267334461212
34.387386322021484 -16.171188354492188 0.22801266610622406
34.416507720947266 -16.443639755249023 0.21053141355514526
34.40056228637695 -16.69618034362793 0.19732271134853363
34.31670379638672 -16.916555404663086 0.19073486328125
34.32494354248047 -17.183345794677734 0.1747307926416397
34.08171081542969 -17.324058532714844 0.18396134674549103
34.29916000366211 -17.700403213500977 0.1463564783334732
33.7572021484375 -17.683990478515625 0.18590062856674194
34.22184753417969 -18.19603157043457 0.12244248390197754
34.08195877075195 -18.390932083129883 0.12064014375209808
23.46675682067871 -16.239377975463867 0.985271692276001
23.450326919555664 -16.44188690185547 0.972556471824646
23.399009704589844 -16.62116241455078 0.963628351688385
23.46759605407715 -16.887664794921875 0.9407865405082703
23.35918617248535 -17.028356552124023 0.9380605816841125
23.451139450073242 -17.99386215209961 0.8642286062240601
23.383981704711914 -18.17157554626465 0.8558014631271362
33.67262268066406 -26.500394821166992 -0.39045360684394836
33.541603088378906 -26.73249053955078 -0.39898014068603516
33.51591110229492 -27.05026626586914 -0.42042991518974304
32.76372146606445 -26.777128219604492 -0.3537951409816742
32.61289596557617 -26.989643096923828 -0.3600589632987976
32.46375274658203 -27.20387077331543 -0.3666820228099823
32.294219970703125 -27.401187896728516 -0.3709365427494049
32.13180160522461 -27.604583740234375 -0.3762071430683136
31.940309524536133 -27.782848358154297 -0.3779676854610443
31.756797790527344 -27.96770477294922 -0.3808347284793854
31.423622131347656 -28.01884651184082 -0.36476749181747437
31.17599868774414 -28.143678665161133 -0.3595212399959564
31.129375457763672 -28.450551986694336 -0.3801955580711365
31.180936813354492 29.783018112182617 0.5090817809104919
31.253110885620117 29.487850189208984 0.5161677598953247
15.51499080657959 14.45986270904541 2.0931267738342285
31.30135154724121 28.81650161743164 0.5391249656677246
31.37752342224121 28.533384323120117 0.545066773891449
31.553058624267578 28.341718673706055 0.5410451889038086
31.713991165161133 28.13705825805664 0.5383094549179077
31.938106536865234 27.988018035888672 0.5292823910713196
31.93535614013672 27.641469955444336 0.5421201586723328
32.03797149658203 27.388689041137695 0.5445234775543213
32.3490104675293 27.313264846801758 0.5267183184623718
32.512489318847656 27.111778259277344 0.5229992866516113
14.550434112548828 11.982876777648926 2.246922731399536
14.635871887207031 11.903470993041992 2.2439398765563965
14.657902717590332 11.772881507873535 2.246903657913208
14.716388702392578 11.67221736907959 2.246333360671997
14.69803524017334 11.511629104614258 2.2529118061065674
14.702725410461426 11.370620727539062 2.2572128772735596
14.718130111694336 11.239067077636719 2.260410785675049
14.706997871398926 11.088540077209473 2.2659826278686523
14.760171890258789 10.987403869628906 2.2654831409454346
14.821497917175293 10.892528533935547 2.2641611099243164
14.86284351348877 10.783258438110352 2.264615774154663
14.862871170043945 10.644856452941895 2.2687902450561523
14.914690971374512 10.544280052185059 2.268125057220459
14.965836524963379 10.443467140197754 2.2674543857574463
15.04012393951416 10.358827590942383 2.2646093368530273
15.169188499450684 10.31122875213623 2.2567360401153564
15.059736251831055 10.10244083404541 2.270430564880371
15.097140312194824 9.993914604187012 2.2707200050354004
15.130440711975098 9.88312816619873 2.2713077068328857
15.15624713897705 9.767988204956055 2.272495746612549
15.186260223388672 9.656112670898438 2.273231267929077
15.218008041381836 9.545825004577637 2.2737395763397217
15.263388633728027 9.444432258605957 2.272960901260376
15.320865631103516 9.350631713867188 2.2710416316986084
15.382891654968262 9.259567260742188 2.2686591148376465
15.435802459716797 9.16300106048584 2.267026424407959
15.47433853149414 9.058074951171875 2.2666029930114746
32.914039611816406 18.997093200683594 0.7318066954612732
32.94985580444336 18.749479293823242 0.7346729636192322
32.8151741027832 18.407506942749023 0.7523561716079712
32.85817337036133 18.16776466369629 0.7542560696601868
32.95112609863281 17.956336975097656 0.7516393661499023
33.001434326171875 17.722278594970703 0.7526151537895203
33.005165100097656 17.464494705200195 0.7575072050094604
33.01848220825195 17.21332359313965 0.7614103555679321
33.03350830078125 16.96446990966797 0.7650129199028015
33.04317092895508 16.714275360107422 0.7689326405525208
33.05547332763672 16.466825485229492 0.7724739909172058
33.06061553955078 16.21721649169922 0.7764874696731567
33.0747184753418 15.973368644714355 0.7795801162719727
33.08978271484375 15.731241226196289 0.7824478149414062
33.10853958129883 15.49206256866455 0.7848554253578186
33.10931396484375 15.24574089050293 0.788669228553772
33.142822265625 15.015625 0.7895316481590271
33.12922668457031 14.76537799835205 0.7942973375320435
33.09555435180664 14.507858276367188 0.8006396889686584
33.115821838378906 14.27538013458252 0.8022258281707764
33.13539505004883 14.043585777282715 0.8037371039390564
33.15982437133789 13.814772605895996 0.8047032952308655
33.16700744628906 13.579765319824219 0.8070088028907776
33.21603012084961 13.362674713134766 0.8056198358535767
33.07172775268555 13.069649696350098 0.8205525875091553
33.110958099365234 12.851038932800293 0.8197341561317444
33.477577209472656 12.757749557495117 0.7909896373748779
33.6668815612793 12.594078063964844 0.7772125005722046
33.708518981933594 12.374624252319336 0.7758512496948242
33.726219177246094 12.147025108337402 0.7763943672180176
33.726417541503906 11.914027214050293 0.7782948613166809
33.74858093261719 11.689640998840332 0.778209388256073
33.74283218383789 11.456456184387207 0.7803609371185303
33.75819778442383 11.231331825256348 0.7806029319763184
33.76639175415039 11.004594802856445 0.7813283801078796
33.775917053222656 10.779088973999023 0.7818172574043274
33.78871154785156 10.555363655090332 0.7819100022315979
33.795265197753906 10.330429077148438 0.7824075818061829
33.78506088256836 10.101240158081055 0.7841991186141968
33.81062316894531 9.883471488952637 0.7828530073165894
33.83095932006836 9.6646728515625 0.7818295955657959
33.84123992919922 9.443582534790039 0.7815358638763428
33.84623718261719 9.221680641174316 0.7815690040588379
33.85171890258789 9.00058364868164 0.7814434766769409
33.86058044433594 8.781014442443848 0.780916690826416
33.880592346191406 8.564850807189941 0.7793330550193787
33.87889862060547 8.343762397766113 0.7794634103775024
33.88934326171875 8.126272201538086 0.7784548997879028
33.90421676635742 7.9103217124938965 0.7769577503204346
33.897308349609375 7.689863681793213 0.7771815657615662
33.9103889465332 7.474505424499512 0.7756069302558899
33.93281936645508 7.261568546295166 0.7731295228004456
33.94220733642578 7.046204566955566 0.7716379165649414
33.947296142578125 6.83040714263916 0.7703948020935059
33.956886291503906 6.6159539222717285 0.7686587572097778
33.960227966308594 6.400714874267578 0.7673379182815552
33.972015380859375 6.187467575073242 0.7651907205581665
33.98442459106445 5.974659442901611 0.7628787159919739
33.98764419555664 5.760598182678223 0.7612307667732239
33.99739074707031 5.548003673553467 0.7589200735092163
34.001861572265625 5.33488655090332 0.7569425702095032
34.00796127319336 5.122366428375244 0.7547155618667603
34.02456283569336 4.911678791046143 0.7514877319335938
34.039859771728516 4.7009782791137695 0.7482577562332153
34.04694366455078 4.489360809326172 0.7456122636795044
34.06061553955078 4.278824806213379 0.7422956824302673
34.06111526489258 4.066869735717773 0.7399861812591553
33.57612228393555 3.8002612590789795 0.7788484692573547
33.48548889160156 3.5821566581726074 0.7841097116470337
33.527286529541016 3.3787946701049805 0.777994692325592
33.606536865234375 3.1787123680114746 0.7685720324516296
33.63595199584961 2.973482608795166 0.7632791996002197
33.644248962402344 2.76637601852417 0.7596772909164429
33.65227127075195 2.5593526363372803 0.755988359451294
33.66000747680664 2.352402448654175 0.7522128224372864
33.67144775390625 2.145768404006958 0.7480101585388184
15.75010871887207 0.9065148830413818 2.282463550567627
15.786046981811523 0.8114764094352722 2.2777657508850098
15.787571907043457 0.7144975066184998 2.2759692668914795
15.787503242492676 0.6174905896186829 2.2742576599121094
15.810738563537598 0.521298885345459 2.2704851627349854
15.827407836914062 0.42468389868736267 2.2672221660614014
15.834522247314453 0.32769718766212463 2.264730215072632
15.812153816223145 0.23021668195724487 2.2647366523742676
33.74515914916992 0.28479933738708496 0.7076560258865356
33.74489974975586 0.07780654728412628 0.7033420205116272
12.198864936828613 -0.0469806008040905 2.572916030883789
12.9592924118042 -0.12937717139720917 2.5050244331359863
33.7723503112793 -0.5436475872993469 0.6872633099555969
33.786922454833984 -0.7512096762657166 0.6811991333961487
12.81687068939209 -0.3639121651649475 2.511977434158325
33.811241149902344 -1.1668959856033325 0.6691402792930603
33.8120231628418 -1.3746283054351807 0.6639336347579956
13.204612731933594 -0.6182601451873779 2.472015142440796
13.179534912109375 -0.6981368064880371 2.4721291065216064
12.824828147888184 -0.7582802772521973 2.501317262649536
12.825757026672363 -0.8373197317123413 2.499110698699951
12.722865104675293 -0.9090207815170288 2.5060627460479736
33.86335372924805 -2.627619981765747 0.6261096596717834
12.843481063842773 -1.076167345046997 2.490891456604004
12.923795700073242 -1.1627777814865112 2.481422185897827
12.927181243896484 -1.243075966835022 2.478752613067627
12.997446060180664 -1.3303544521331787 2.4700467586517334
33.91838836669922 -3.681408405303955 0.590153694152832
33.916542053222656 -3.891883611679077 0.5837427973747253
33.91240310668945 -4.102357387542725 0.5774163603782654
