# .PCD v0.7 - Point Cloud Data file format
VERSION 0.7
FIELDS x y z
SIZE 4 4 4
TYPE F F F
COUNT 1 1 1
WIDTH 845
HEIGHT 1
VIEWPOINT 0 0 0 1 0 0 0
POINTS 845
DATA ascii
32.76841735839844 0.05056332051753998 0.4070057272911072
32.8522834777832 -0.15081140398979187 0.394389271736145
12.509414672851562 -0.1354425996541977 2.398782968521118
12.502222061157227 -0.2120686173439026 2.397740364074707
12.537341117858887 -0.28959354758262634 2.3924620151519775
12.830596923828125 -0.37507668137550354 2.361522912979126
12.854744911193848 -0.45471397042274475 2.3571789264678955
12.861495018005371 -0.5339635610580444 2.354509115219116
32.894100189208984 -1.564600944519043 0.3562348783016205
13.103056907653809 -0.7050769925117493 2.326251745223999
12.841058731079102 -0.7700479030609131 2.350257158279419
12.827987670898438 -0.8482723832130432 2.3493714332580566
12.560372352600098 -0.9080408811569214 2.373976945877075
12.803393363952637 -1.0045603513717651 2.3473074436187744
12.223755836486816 -1.0346637964248657 2.403329372406006
13.572613716125488 -1.2325125932693481 2.2649850845336914
33.216041564941406 -3.2188720703125 0.27717310190200806
33.213050842285156 -3.4243826866149902 0.271011084318161
33.19989013671875 -3.6290082931518555 0.26574838161468506
33.18546676635742 -3.8336033821105957 0.2604849934577942
33.376190185546875 -4.063277721405029 0.2341936230659485
33.09065628051758 -4.234719753265381 0.2563018798828125
32.95219421386719 -4.422658920288086 0.2633504569530487
33.90036392211914 -4.76177453994751 0.15893074870109558
33.93011474609375 -4.978424549102783 0.14830262959003448
33.90340042114258 -5.187198162078857 0.14333181083202362
33.79680633544922 -5.38331937789917 0.14647236466407776
33.8088264465332 -5.598150253295898 0.13725073635578156
33.831241607666016 -5.81535530090332 0.12680040299892426
29.24424934387207 -5.212108612060547 0.5951768755912781
33.77600860595703 -6.23353385925293 0.11584924161434174
33.72006607055664 -6.437415599822998 0.11312983185052872
33.752689361572266 -6.6585564613342285 0.10101952403783798
29.44939422607422 -13.001072883605957 0.17987515032291412
20.4436092376709 -13.439391136169434 0.929878830909729
20.458045959472656 -13.629544258117676 0.9141316413879395
19.57322883605957 -13.390172004699707 1.00469172000885
19.606380462646484 -13.590361595153809 0.986371636390686
19.971982955932617 -14.395641326904297 0.8933320045471191
19.458433151245117 -14.577750205993652 0.9192862510681152
19.43796157836914 -14.74968147277832 0.906861424446106
19.399459838867188 -15.291820526123047 0.8650832772254944
19.302419662475586 -15.603589057922363 0.8464058041572571
19.302104949951172 -15.800357818603516 0.8298035264015198
27.57562255859375 -22.856172561645508 -0.3963218927383423
27.39478874206543 -22.991657257080078 -0.3942733108997345
27.18758773803711 -23.103906631469727 -0.38838744163513184
27.001134872436523 -23.23263168334961 -0.3856065273284912
26.83435821533203 -23.377567291259766 -0.38582688570022583
20.827775955200195 -18.600322723388672 0.4741328954696655
20.530073165893555 -18.562458038330078 0.49918556213378906
20.309864044189453 -18.591421127319336 0.5125876069068909
20.07477378845215 -18.604202270507812 0.5283998847007751
19.846097946166992 -18.6202449798584 0.54335618019104
19.659774780273438 -18.67387580871582 0.5518075823783875
19.4964656829834 -18.747961044311523 0.5566744804382324
15.507752418518066 14.45799732208252 1.717659831047058
12.972298622131348 11.800569534301758 2.0457844734191895
13.007943153381348 11.688166618347168 2.0486066341400146
13.031525611877441 11.565855979919434 2.052783489227295
13.080310821533203 11.466670989990234 2.053795337677002
13.114819526672363 11.3555908203125 2.0564332008361816
13.15678596496582 11.251635551452637 2.058072805404663
13.18427562713623 11.136027336120605 2.06134295463562
13.223847389221191 11.031349182128906 2.0630695819854736
13.268779754638672 10.931671142578125 2.064065933227539
13.299083709716797 10.820542335510254 2.066697120666504
13.333959579467773 10.713820457458496 2.068690299987793
13.370369911193848 10.608932495117188 2.0704078674316406
13.407564163208008 10.505230903625488 2.0719411373138428
13.441627502441406 10.399641990661621 2.0737464427948
13.476484298706055 10.29524040222168 2.075366973876953
13.514543533325195 10.193799018859863 2.0765278339385986
13.554261207580566 10.094062805175781 2.0774106979370117
13.588452339172363 9.990683555603027 2.0788414478302
13.62752914428711 9.891356468200684 2.0796267986297607
13.656184196472168 9.784967422485352 2.0815134048461914
13.693805694580078 9.68549919128418 2.082293748855591
13.73561954498291 9.58935546875 2.0825178623199463
13.771851539611816 9.489672660827637 2.08329176902771
13.803261756896973 9.387106895446777 2.0845253467559814
13.837240219116211 9.28672981262207 2.0853869915008545
13.876317977905273 9.19013786315918 2.0855982303619385
13.912233352661133 9.091782569885254 2.0860836505889893
13.956669807434082 8.999265670776367 2.085545063018799
13.98957347869873 8.899598121643066 2.086209535598755
14.026841163635254 8.80303955078125 2.086313486099243
14.065991401672363 8.707929611206055 2.086134433746338
14.103652000427246 8.612152099609375 2.0860445499420166
14.138110160827637 8.514697074890137 2.086231231689453
14.179607391357422 8.421717643737793 2.085573196411133
14.22221565246582 8.329556465148926 2.084723472595215
14.262503623962402 8.236191749572754 2.0840559005737305
14.302179336547852 8.142646789550781 2.083383560180664
14.34992790222168 8.053793907165527 2.0817675590515137
14.58181095123291 8.066825866699219 2.0602095127105713
14.918397903442383 8.134020805358887 2.027395009994507
27.531513214111328 14.792497634887695 0.6752164363861084
27.54481315612793 14.582828521728516 0.6799471378326416
27.580411911010742 14.385980606079102 0.6821331977844238
27.600467681884766 14.181966781616211 0.6858332753181458
27.640380859375 13.989033699035645 0.6872643828392029
27.711040496826172 13.812129974365234 0.6852818727493286
27.796655654907227 13.642778396606445 0.6815818548202515
27.946670532226562 13.504509925842285 0.6709314584732056
28.119400024414062 13.376030921936035 0.657777726650238
28.47551155090332 13.332039833068848 0.6251546740531921
32.72517776489258 15.077797889709473 0.18173767626285553
33.114891052246094 15.012005805969238 0.1461654007434845
33.102272033691406 14.762391090393066 0.15285919606685638
33.12065505981445 14.527889251708984 0.15611888468265533
33.10725021362305 14.280706405639648 0.1625475138425827
33.125972747802734 14.048612594604492 0.16543777287006378
33.15228271484375 13.820653915405273 0.1673717200756073
33.16322708129883 13.587240219116211 0.17075057327747345
33.213191986083984 13.370564460754395 0.16989824175834656
33.07014846801758 13.078017234802246 0.18900194764137268
33.115909576416016 12.861959457397461 0.1882629692554474
33.453208923339844 12.75754165649414 0.15707160532474518
33.59564208984375 12.5765380859375 0.14602907001972198
33.63247299194336 12.355822563171387 0.14581196010112762
33.631343841552734 12.121966361999512 0.1493767350912094
33.67272186279297 11.904176712036133 0.14838357269763947
33.66943359375 11.671339988708496 0.15186160802841187
33.6749267578125 11.442511558532715 0.1542772799730301
33.68549346923828 11.216254234313965 0.15601640939712524
33.696449279785156 10.990912437438965 0.15756449103355408
33.703060150146484 10.764947891235352 0.1594092845916748
33.7224235534668 10.543767929077148 0.15979184210300446
33.73272705078125 10.32042407989502 0.16095946729183197
33.73488998413086 10.095353126525879 0.16281786561012268
33.742252349853516 9.872596740722656 0.16399432718753815
33.76155090332031 9.65395736694336 0.16379784047603607
33.76218032836914 9.430631637573242 0.16537483036518097
33.76998519897461 9.210017204284668 0.16607050597667694
33.778282165527344 8.9901704788208 0.16657213866710663
33.790931701660156 8.772065162658691 0.1664840281009674
33.805076599121094 8.554874420166016 0.16610075533390045
33.82168960571289 8.338790893554688 0.16532345116138458
33.827247619628906 8.120499610900879 0.16553820669651031
33.82849884033203 7.9017720222473145 0.16605393588542938
33.83610916137695 7.685096740722656 0.16577854752540588
33.84330368041992 7.468836784362793 0.1654062122106552
33.854957580566406 7.254026412963867 0.16443808376789093
33.8652458190918 7.039350986480713 0.16347083449363708
33.86637878417969 6.823246955871582 0.16330507397651672
33.88859558105469 6.6117753982543945 0.16084024310112
33.90167236328125 6.398808002471924 0.1591751128435135
33.89677047729492 6.182891845703125 0.15921632945537567
33.897361755371094 5.96848201751709 0.15855823457241058
33.894630432128906 5.753961563110352 0.15810438990592957
33.91116714477539 5.543067455291748 0.15553942322731018
33.9254150390625 5.332029342651367 0.15307319164276123
33.94227981567383 5.121615886688232 0.1502024233341217
33.95685577392578 4.9110517501831055 0.14743049442768097
33.95436096191406 4.698317527770996 0.14627711474895477
33.96434020996094 4.487619876861572 0.14370717108249664
33.98880386352539 4.278961658477783 0.13951368629932404
34.01297378540039 4.070288181304932 0.13521358370780945
32.48495101928711 3.6855380535125732 0.2905443608760834
32.404640197753906 3.475292682647705 0.2968268394470215
32.34672927856445 3.268569231033325 0.30068424344062805
32.352867126464844 3.0688834190368652 0.29781609773635864
32.34786605834961 2.8683643341064453 0.2959703207015991
32.3445930480957 2.6682651042938232 0.29381948709487915
32.330169677734375 2.4675543308258057 0.29269537329673767
32.37998580932617 2.271712303161621 0.28480076789855957
32.4266357421875 2.0752220153808594 0.2770993709564209
15.7514066696167 0.9112846255302429 2.0020360946655273
15.772385597229004 0.8154754042625427 1.9983394145965576
15.783841133117676 0.7190346121788025 1.9955655336380005
15.802653312683105 0.622795820236206 1.9919626712799072
15.797018051147461 0.5255588889122009 1.990836501121521
15.817633628845215 0.4291408658027649 1.9869153499603271
15.822742462158203 0.33217576146125793 1.984544038772583
15.824271202087402 0.235118567943573 1.9824823141098022
32.52463150024414 0.2833380401134491 0.23522473871707916
32.60985565185547 0.08405578136444092 0.22213803231716156
32.58644104003906 -0.11588076502084732 0.22028033435344696
32.511085510253906 -0.3150375485420227 0.22374765574932098
32.398719787597656 -0.5127099752426147 0.23099395632743835
32.424354553222656 -0.7120771408081055 0.22362548112869263
32.42092514038086 -0.9109982252120972 0.2191806435585022
32.413291931152344 -1.1098045110702515 0.21504850685596466
12.899799346923828 -0.5206941366195679 2.2714695930480957
32.51655197143555 -1.5129261016845703 0.19385574758052826
13.05197811126709 -0.6873201727867126 2.251152515411377
12.867660522460938 -0.756790280342102 2.2685153484344482
12.863595008850098 -0.8357659578323364 2.2667253017425537
12.858052253723145 -0.9146506786346436 2.265040874481201
12.87879467010498 -0.9955700635910034 2.260500907897949
13.241888999938965 -1.1054104566574097 2.219318151473999
11.993721961975098 -1.0753117799758911 2.3504183292388916
12.835528373718262 -1.8695472478866577 2.2359566688537598
12.800049781799316 -1.9446555376052856 2.2368431091308594
29.266155242919922 -5.184555530548096 0.4106106162071228
19.545286178588867 -6.936647415161133 1.3122771978378296
19.48898696899414 -7.051663875579834 1.3112337589263916
19.41709327697754 -7.1607513427734375 1.3119827508926392
19.34180450439453 -7.26817512512207 1.313078761100769
19.2882022857666 -7.383473873138428 1.311505675315857
19.25243377685547 -7.505609512329102 1.3077021837234497
19.2149658203125 -7.6272196769714355 1.3040133714675903
19.240299224853516 -7.774342060089111 1.292589783668518
33.75014877319336 -17.404285430908203 -0.721098005771637
20.569517135620117 -13.132925033569336 0.7918033003807068
20.333934783935547 -13.1589994430542 0.8104435205459595
20.060609817504883 -13.157625198364258 0.8344676494598389
19.818689346313477 -13.173745155334473 0.8542602062225342
19.604516983032227 -13.205711364746094 0.8702733516693115
19.46782112121582 -13.288187026977539 0.875403881072998
19.381500244140625 -13.404513359069824 0.8733446002006531
19.344911575317383 -13.555623054504395 0.8640748858451843
19.32096290588379 -13.71656322479248 0.8528201580047607
19.313501358032227 -13.890477180480957 0.8389917612075806
19.304624557495117 -14.06481647491455 0.8251528739929199
19.303918838500977 -14.2466459274292 0.809900164604187
19.292158126831055 -14.421860694885254 0.7960384488105774
19.299551010131836 -14.613054275512695 0.7791215181350708
19.296649932861328 -14.798232078552246 0.7634781002998352
19.269451141357422 -14.96625804901123 0.7512253522872925
19.288522720336914 -15.17195987701416 0.7318012714385986
19.281707763671875 -15.359275817871094 0.7160021066665649
19.291091918945312 -15.561420440673828 0.6974843740463257
19.296405792236328 -15.762370109558105 0.679302990436554
19.296144485473633 -15.960806846618652 0.6616945266723633
19.31624412536621 -16.178321838378906 0.6406501531600952
19.320758819580078 -16.38512420654297 0.621710479259491
19.42214584350586 -16.677331924438477 0.5872712135314941
20.536680221557617 -18.530344009399414 0.33036765456199646
20.303434371948242 -18.547456741333008 0.34677717089653015
20.074405670166016 -18.565784454345703 0.36263903975486755
19.83795166015625 -18.574542999267578 0.3798542320728302
19.643951416015625 -18.6207218170166 0.39021527767181396
19.447267532348633 -18.662477493286133 0.40108823776245117
15.495306968688965 14.446781158447266 1.581263780593872
12.908864974975586 11.888341903686523 1.9320363998413086
12.961455345153809 11.790858268737793 1.9330519437789917
13.013336181640625 11.693177223205566 1.934062123298645
14.4051513671875 12.78520679473877 1.7606960535049438
14.453883171081543 12.671025276184082 1.7626938819885254
13.120327949523926 11.360552787780762 1.9427868127822876
13.126021385192871 11.225529670715332 1.9493176937103271
13.170853614807129 11.124900817871094 1.9507039785385132
13.222587585449219 11.030519485473633 1.951112985610962
13.267515182495117 10.930859565734863 1.9522961378097534
13.303998947143555 10.824780464172363 1.954450011253357
13.336579322814941 10.716171264648438 1.9569921493530273
13.364433288574219 10.604476928710938 1.96002197265625
13.397686958312988 10.49775505065918 1.96226966381073
13.444303512573242 10.401985168457031 1.9627546072006226
13.482342720031738 10.299995422363281 1.9642146825790405
13.506926536560059 10.188342094421387 1.9672409296035767
13.544217109680176 10.086877822875977 1.9685992002487183
13.581575393676758 9.985930442810059 1.9698566198349
13.619815826416016 9.88607120513916 1.9709148406982422
13.65734577178955 9.786116600036621 1.9719699621200562
13.694973945617676 9.686651229858398 1.9729238748550415
13.734345436096191 9.588798522949219 1.9735788106918335
13.77385139465332 9.4913911819458 1.974131464958191
13.806097984313965 9.389382362365723 1.9754714965820312
13.838438987731934 9.28788948059082 1.9767109155654907
13.87171459197998 9.187450408935547 1.9777501821517944
13.908445358276367 9.08967399597168 1.978291392326355
13.950353622436523 8.99556827545166 1.9781346321105957
13.980716705322266 8.894343376159668 1.9792652130126953
14.015420913696289 8.796259880065918 1.9797972440719604
14.053678512573242 8.700701713562012 1.9798285961151123
14.092142105102539 8.605523109436035 1.9797559976577759
14.134227752685547 8.512765884399414 1.9791808128356934
14.175707817077637 8.419816017150879 1.9786007404327393
14.216578483581543 8.326675415039062 1.9780157804489136
14.255979537963867 8.2328519821167 1.977526068687439
14.289576530456543 8.135903358459473 1.9776335954666138
14.339006423950195 8.048105239868164 1.975831151008606
14.555917739868164 8.05296516418457 1.9546325206756592
14.979564666748047 8.167874336242676 1.9096499681472778
15.884531021118164 8.53548812866211 1.8094927072525024
27.474834442138672 14.547492980957031 0.4847889840602875
27.500524520874023 14.346031188964844 0.4884794056415558
27.510623931884766 14.13752269744873 0.4937889575958252
27.546722412109375 13.943357467651367 0.4959706962108612
27.459495544433594 13.688471794128418 0.5120218396186829
27.6765079498291 13.58554744720459 0.49334123730659485
27.773252487182617 13.422464370727539 0.4882102906703949
28.083742141723633 13.360848426818848 0.458786278963089
28.410720825195312 13.30351734161377 0.42746204137802124
15.769343376159668 0.912995457649231 1.8971105813980103
15.7625150680542 0.8156388998031616 1.8963733911514282
19.298704147338867 0.7615057229995728 1.5025843381881714
19.263996124267578 0.6418295502662659 1.5043559074401855
12.895130157470703 -0.5993449687957764 2.1856465339660645
13.034920692443848 -0.6859947443008423 2.1677699089050293
12.892391204833984 -0.757831871509552 2.1816020011901855
12.876408576965332 -0.8361859917640686 2.181145191192627
12.866886138916016 -0.9148667454719543 2.1799070835113525
12.76025104522705 -1.0647871494293213 2.187204360961914
12.836430549621582 -1.150481104850769 2.1760873794555664
12.821033477783203 -1.2284345626831055 2.1753041744232178
12.819002151489258 -1.307654857635498 2.172945976257324
12.814505577087402 -1.386683702468872 2.1708123683929443
12.787802696228027 -1.4632235765457153 2.1711630821228027
12.76064395904541 -1.5394893884658813 2.1715190410614014
12.750731468200684 -1.8567851781845093 2.1610682010650635
29.248380661010742 -5.179383754730225 0.2185080647468567
19.89760398864746 -6.515101432800293 1.1639875173568726
19.48396110534668 -6.5123610496521 1.2077940702438354
19.22433090209961 -6.557051181793213 1.2325636148452759
19.138416290283203 -6.659175872802734 1.2356479167938232
19.11748695373535 -6.783740997314453 1.2305114269256592
19.126564025878906 -6.919448375701904 1.2214863300323486
19.092763900756836 -7.040065288543701 1.2177586555480957
19.100034713745117 -7.176245212554932 1.2087211608886719
19.070178985595703 -7.298938274383545 1.2042840719223022
19.11447525024414 -7.450745582580566 1.190265417098999
19.100399017333984 -7.580662727355957 1.1835697889328003
19.061508178710938 -7.701018810272217 1.1799529790878296
19.06410026550293 -7.838552474975586 1.1708807945251465
19.092283248901367 -7.987521648406982 1.1583553552627563
19.10930061340332 -8.132855415344238 1.1471226215362549
28.401613235473633 -16.22551727294922 -0.35893505811691284
28.41181755065918 -16.463605880737305 -0.37841159105300903
28.403047561645508 -16.692371368408203 -0.3954786956310272
28.34052085876465 -16.890655517578125 -0.40514519810676575
28.190828323364258 -17.036951065063477 -0.40252384543418884
28.005708694458008 -17.160783767700195 -0.39488571882247925
27.847959518432617 -17.300281524658203 -0.39123618602752686
27.718950271606445 -17.45700454711914 -0.3918292820453644
20.541698455810547 -13.113874435424805 0.636199951171875
20.21965980529785 -13.083792686462402 0.6687409281730652
19.94609260559082 -13.08128547668457 0.6943837404251099
19.7237491607666 -13.109435081481934 0.7126197218894958
19.542156219482422 -13.162518501281738 0.7248982191085815
19.400827407836914 -13.241288185119629 0.7312026023864746
19.313962936401367 -13.35664176940918 0.7293073534965515
19.260547637939453 -13.495348930358887 0.7222616672515869
19.241764068603516 -13.6591796875 0.7098062634468079
19.229745864868164 -13.829084396362305 0.6961121559143066
19.235612869262695 -14.01337718963623 0.6794509887695312
19.231948852539062 -14.19236946105957 0.6640087962150574
19.23236846923828 -14.376005172729492 0.6476902365684509
19.23758316040039 -14.564969062805176 0.6303695440292358
19.21756935119629 -14.73642349243164 0.6167436838150024
19.243196487426758 -14.944700241088867 0.5956838726997375
19.24591827392578 -15.137280464172363 0.5779481530189514
19.231473922729492 -15.318093299865723 0.5626764297485352
19.2425594329834 -15.521100044250488 0.5430517792701721
19.242645263671875 -15.717286109924316 0.524900496006012
19.247159957885742 -15.919116973876953 0.5057398676872253
19.242305755615234 -16.115222930908203 0.487807035446167
19.228193283081055 -16.305448532104492 0.4711051881313324
19.262903213500977 -16.539413452148438 0.44604411721229553
19.232553482055664 -16.719736099243164 0.43143364787101746
20.854007720947266 -18.584144592285156 0.11777213215827942
20.571203231811523 -18.560161590576172 0.14341215789318085
20.315128326416016 -18.556835174560547 0.16473372280597687
20.08245849609375 -18.571956634521484 0.18222621083259583
19.861244201660156 -18.5950984954834 0.19788573682308197
19.643386840820312 -18.61896324157715 0.2130865752696991
19.438161849975586 -18.652538299560547 0.22619664669036865
12.866069793701172 11.991175651550293 1.8245338201522827
12.939156532287598 11.91203784942627 1.8229466676712036
12.912410736083984 11.742100715637207 1.8351929187774658
14.392060279846191 12.769213676452637 1.6473931074142456
14.46762466430664 12.678733825683594 1.645921230316162
13.126516342163086 11.361924171447754 1.838220238685608
13.121651649475098 11.217854499816895 1.8466886281967163
13.170232772827148 11.120477676391602 1.8477429151535034
13.219642639160156 11.024200439453125 1.848585844039917
13.251477241516113 10.913822174072266 1.8516963720321655
13.296347618103027 10.814764976501465 1.852945327758789
13.323442459106445 10.701863288879395 1.8564667701721191
13.351213455200195 10.5902738571167 1.8597815036773682
13.390646934509277 10.488558769226074 1.8614379167556763
13.426190376281738 10.384324073791504 1.8635064363479614
13.463330268859863 10.28185749053955 1.8652615547180176
13.498927116394043 10.178727149963379 1.8671181201934814
13.53775405883789 10.078516006469727 1.8684523105621338
13.57746410369873 9.979389190673828 1.8695753812789917
13.60359001159668 9.870805740356445 1.8723632097244263
13.649109840393066 9.776759147644043 1.872542142868042
13.680994987487793 9.673335075378418 1.8743878602981567
13.725174903869629 9.578996658325195 1.874558687210083
13.764618873596191 9.481657028198242 1.8752484321594238
13.796805381774902 9.379717826843262 1.8767727613449097
13.831565856933594 9.279958724975586 1.8778756856918335
13.868109703063965 9.181771278381348 1.8786612749099731
13.908965110778809 9.086749076843262 1.8788135051727295
13.929118156433105 8.978635787963867 1.881485939025879
13.976160049438477 8.888230323791504 1.8806846141815186
14.030198097229004 8.802340507507324 1.8789288997650146
14.054959297180176 8.69832706451416 1.880752682685852
14.092554092407227 8.602630615234375 1.880886197090149
14.123540878295898 8.503207206726074 1.8817559480667114
14.16495418548584 8.41032886505127 1.8812477588653564
14.209193229675293 8.319271087646484 1.8803116083145142
14.248540878295898 8.225499153137207 1.8798993825912476
14.281227111816406 8.12811279296875 1.8802262544631958
14.330595970153809 8.040366172790527 1.878424882888794
14.488186836242676 8.012476921081543 1.8633205890655518
15.008270263671875 8.180462837219238 1.803994059562683
15.882164001464844 8.53105354309082 1.7018005847930908
27.485280990600586 14.548273086547852 0.2972577214241028
27.5030517578125 14.342636108398438 0.30232715606689453
27.500768661499023 14.127785682678223 0.3096473217010498
27.53592300415039 13.933255195617676 0.3122676908969879
27.526124954223633 13.71709156036377 0.3201388418674469
27.605756759643555 13.546250343322754 0.3170808255672455
27.735353469848633 13.3996000289917 0.3078920543193817
27.94050407409668 13.288165092468262 0.28954261541366577
28.251567840576172 13.224451065063477 0.25845345854759216
28.756122589111328 13.24643611907959 0.2042442411184311
44.880393981933594 8.184440612792969 -1.5385313034057617
19.290788650512695 0.758621871471405 1.3874527215957642
19.27195930480957 0.6395277976989746 1.3876036405563354
12.896980285644531 -0.6807246208190918 2.105659008026123
12.862627983093262 -0.7580658793449402 2.10750150680542
12.869433403015137 -0.8377177715301514 2.1044039726257324
12.877724647521973 -0.9176236391067505 2.101067304611206
12.742780685424805 -1.3018661737442017 2.104611873626709
12.747193336486816 -1.3813891410827637 2.101396083831787
12.713623046875 -1.4567248821258545 2.102693796157837
12.636237144470215 -1.5264670848846436 2.1092333793640137
12.616591453552246 -1.6026923656463623 2.108764410018921
12.634868621826172 -1.6838469505310059 2.1036479473114014
12.646724700927734 -1.7644644975662231 2.099241256713867
12.617782592773438 -1.839423656463623 2.09972882270813
12.541285514831543 -1.906936526298523 2.105963945388794
20.191694259643555 -6.477386951446533 1.0074125528335571
20.12860679626465 -6.593695640563965 1.0076826810836792
19.222768783569336 -6.559414386749268 1.1103657484054565
19.064693450927734 -6.636420249938965 1.1232390403747559
19.025171279907227 -6.753890037536621 1.1204535961151123
20.31273651123047 -7.35160493850708 0.9416509866714478
19.035194396972656 -7.0217766761779785 1.1027613878250122
19.112838745117188 -7.318244934082031 1.0754836797714233
19.072803497314453 -7.437496185302734 1.072189211845398
19.02821922302246 -7.690594673156738 1.0605089664459229
20.289148330688477 -8.491425514221191 0.8705235719680786
19.094694137573242 -8.268583297729492 1.0143970251083374
19.047815322875977 -8.387540817260742 1.0112175941467285
19.054527282714844 -8.530558586120605 1.0005321502685547
28.302881240844727 -13.728301048278809 -0.35369187593460083
28.312837600708008 -13.948541641235352 -0.370959997177124
28.30074691772461 -14.159213066101074 -0.38534560799598694
28.254404067993164 -14.353639602661133 -0.39507433772087097
28.218198776245117 -14.553943634033203 -0.4064452052116394
28.14368438720703 -14.735021591186523 -0.41251224279403687
27.650163650512695 -14.693708419799805 -0.3582371473312378
27.546768188476562 -14.856427192687988 -0.3601839244365692
27.414569854736328 -15.003195762634277 -0.3580619692802429
27.27293586730957 -15.14409065246582 -0.35464975237846375
27.153079986572266 -15.296472549438477 -0.354514479637146
27.0125732421875 -15.436641693115234 -0.3514384329319
20.530357360839844 -13.110679626464844 0.4907514750957489
20.209352493286133 -13.081157684326172 0.5248680710792542
19.950035095214844 -13.087906837463379 0.5496988296508789
19.710405349731445 -13.10460376739502 0.5716366171836853
19.505054473876953 -13.141576766967773 0.5883604884147644
19.33358383178711 -13.199453353881836 0.5998566150665283
19.25593376159668 -13.320602416992188 0.5965902805328369
19.223003387451172 -13.473167419433594 0.5861212015151978
19.209135055541992 -13.640186309814453 0.5724263191223145
19.195545196533203 -13.808698654174805 0.5584644079208374
19.223081588745117 -14.008509635925293 0.5376502871513367
19.20579719543457 -14.177374839782715 0.5237938761711121
19.208600997924805 -14.362590789794922 0.5064370632171631
19.218542098999023 -14.554957389831543 0.4876425266265869
19.212675094604492 -14.737122535705566 0.4711635410785675
19.218603134155273 -14.93010425567627 0.45246797800064087
19.222875595092773 -15.123714447021484 0.43375709652900696
19.21307945251465 -15.308052062988281 0.4171089828014374
19.23723793029785 -15.521476745605469 0.39447081089019775
19.228008270263672 -15.710052490234375 0.3771442472934723
19.19884490966797 -15.883932113647461 0.3629303276538849
19.26099395751953 -16.135719299316406 0.3328150510787964
19.208101272583008 -16.293304443359375 0.3220951557159424
19.2818603515625 -16.5606632232666 0.289191335439682
19.293195724487305 -16.777488708496094 0.26669934391975403
12.82445240020752 12.095671653747559 1.7192622423171997
12.882165908813477 12.00187873840332 1.7200593948364258
13.781827926635742 12.683442115783691 1.5962222814559937
13.884121894836426 12.621414184570312 1.5908397436141968
14.031289100646973 12.59912395477295 1.5788298845291138
14.40551471710205 12.776711463928223 1.533712387084961
14.438492774963379 12.648808479309082 1.5384430885314941
13.144501686096191 11.373448371887207 1.7348169088363647
13.117817878723145 11.21058464050293 1.7469978332519531
13.162553787231445 11.110038757324219 1.7487455606460571
13.210370063781738 11.012548446655273 1.749944806098938
13.246743202209473 10.90604305267334 1.7526659965515137
13.287707328796387 10.803893089294434 1.7546213865280151
13.303893089294434 10.682355880737305 1.7599592208862305
13.339339256286621 10.57708740234375 1.7624585628509521
13.388082504272461 10.48281478881836 1.7629868984222412
13.415730476379395 10.372532844543457 1.7663568258285522
13.467018127441406 10.281005859375 1.7663295269012451
13.498641967773438 10.174877166748047 1.7689287662506104
13.520702362060547 10.06221866607666 1.7727349996566772
13.570723533630371 9.97086238861084 1.7725861072540283
13.595193862915039 9.861173629760742 1.775841236114502
13.637417793273926 9.764872550964355 1.7765648365020752
13.676536560058594 9.666701316833496 1.7776148319244385
13.714966773986816 9.568416595458984 1.7786613702774048
13.746975898742676 9.46607780456543 1.7804778814315796
13.78317928314209 9.367056846618652 1.7816293239593506
13.824464797973633 9.271822929382324 1.7820041179656982
13.860127449035645 9.173142433166504 1.7830383777618408
13.886780738830566 9.068937301635742 1.785178780555725
13.915185928344727 8.966364860534668 1.7869852781295776
13.973885536193848 8.883514404296875 1.7846828699111938
14.005152702331543 8.783381462097168 1.7859277725219727
14.034872055053711 8.682673454284668 1.7872822284698486
14.09272575378418 8.59953498840332 1.7848492860794067
14.11943531036377 8.497560501098633 1.786419153213501
14.156536102294922 8.402175903320312 1.7865382432937622
14.197285652160645 8.309165954589844 1.786095380783081
14.232263565063477 8.21298885345459 1.786318063735962
14.275232315063477 8.121610641479492 1.7854188680648804
14.308951377868652 8.02514934539795 1.7856340408325195
14.443765640258789 7.984841823577881 1.772730827331543
15.023601531982422 8.18569564819336 1.7025749683380127
15.887412071228027 8.530649185180664 1.5962249040603638
27.48210334777832 14.54173469543457 0.11661315709352493
27.508663177490234 14.340744018554688 0.12101591378450394
27.543519973754883 14.144967079162598 0.12418249249458313
27.55484390258789 13.93808650970459 0.13016846776008606
27.532655715942383 13.715646743774414 0.14022396504878998
27.595308303833008 13.536452293395996 0.1393352895975113
27.70869255065918 13.382068634033203 0.13187964260578156
27.989906311035156 13.307014465332031 0.10312040150165558
19.274625778198242 0.7553475499153137 1.2766765356063843
19.25181007385254 0.6362247467041016 1.2774467468261719
19.290767669677734 0.5190972089767456 1.2705625295639038
12.885848999023438 -0.682167112827301 2.0315823554992676
12.866358757019043 -0.7603135704994202 2.0317471027374268
12.875112533569336 -0.8401170372962952 2.0283331871032715
12.683680534362793 -1.4553258419036865 2.031667709350586
12.632939338684082 -1.5280957221984863 2.0352392196655273
20.203428268432617 -6.347659111022949 0.889691948890686
20.170442581176758 -6.610442638397217 0.8778882622718811
20.169597625732422 -6.747554779052734 0.8696632385253906
18.979692459106445 -6.479429721832275 1.024796485900879
18.95611000061035 -6.601585388183594 1.0199458599090576
18.94856071472168 -6.729669570922852 1.0127681493759155
18.953203201293945 -6.862635612487793 1.0037736892700195
19.092147827148438 -7.313375473022461 0.9584448337554932
19.038265228271484 -7.427093982696533 0.9570676684379578
18.935373306274414 -8.341222763061523 0.9053965210914612
18.935976028442383 -8.480700492858887 0.8952708840370178
18.998741149902344 -8.649247169494629 0.8759663701057434
19.160913467407227 -8.865497589111328 0.8419506549835205
19.353429794311523 -9.099244117736816 0.8031579852104187
20.41095542907715 -13.038552284240723 0.3668253719806671
20.117198944091797 -13.02562141418457 0.3983215093612671
19.88238525390625 -13.04764175415039 0.4205089211463928
19.657146453857422 -13.07331371307373 0.4412734806537628
19.457826614379883 -13.113884925842285 0.4579281806945801
19.30295181274414 -13.182684898376465 0.4673738181591034
19.233537673950195 -13.309281349182129 0.4627392292022705
19.178709030151367 -13.446331024169922 0.45555588603019714
19.444461822509766 -13.811566352844238 0.3948036730289459
19.338037490844727 -13.915514945983887 0.3956639766693115
19.211854934692383 -14.004673957824707 0.39977604150772095
19.210458755493164 -14.185210227966309 0.3827255368232727
19.210737228393555 -14.368629455566406 0.3651221692562103
19.213430404663086 -14.555578231811523 0.3468294143676758
19.21297264099121 -14.741891860961914 0.32879266142845154
19.22189712524414 -14.937259674072266 0.3088480830192566
19.219017028808594 -15.125326156616211 0.2906476557254791
19.22151756286621 -15.319477081298828 0.2712138295173645
19.233917236328125 -15.523557662963867 0.24972999095916748
19.210004806518555 -15.700156211853027 0.23433904349803925
19.198383331298828 -15.888415336608887 0.21649351716041565
19.242876052856445 -16.125478744506836 0.1883007138967514
19.236825942993164 -16.32266616821289 0.16879135370254517
19.2891902923584 -16.5720272064209 0.1383722573518753
19.20914077758789 -16.709518432617188 0.13164032995700836
12.773502349853516 12.217782020568848 1.6098498106002808
12.8298978805542 12.122153282165527 1.6111235618591309
12.907392501831055 12.046625137329102 1.6089720726013184
12.947190284729004 11.936260223388672 1.6126272678375244
12.950862884521484 11.793753623962402 1.6217600107192993
13.044869422912598 11.73403263092041 1.6167327165603638
13.069560050964355 11.612236022949219 1.6223236322402954
13.055914878845215 11.457816123962402 1.6336382627487183
13.151225090026855 11.39964771270752 1.6281282901763916
13.094625473022461 11.210884094238281 1.6456408500671387
13.148486137390137 11.118175506591797 1.6461973190307617
13.19636344909668 11.020767211914062 1.6475515365600586
13.235878944396973 10.916869163513184 1.650050401687622
13.269996643066406 10.809136390686035 1.6532363891601562
13.304841041564941 10.702641487121582 1.6561914682388306
13.334213256835938 10.59241771697998 1.6598360538482666
13.372115135192871 10.489591598510742 1.6620967388153076
13.411615371704102 10.388524055480957 1.6640088558197021
13.444856643676758 10.283141136169434 1.6667263507843018
13.485239028930664 10.18372631072998 1.668286681175232
13.5225191116333 10.08242130279541 1.6701910495758057
13.557467460632324 9.979864120483398 1.6723244190216064
13.58443546295166 9.871999740600586 1.675498366355896
13.625118255615234 9.774601936340332 1.6765848398208618
13.672415733337402 9.68224048614502 1.6766228675842285
13.705252647399902 9.57999324798584 1.6786304712295532
13.743074417114258 9.48165512084961 1.6798226833343506
13.784311294555664 9.386005401611328 1.680429458618164
13.819123268127441 9.286330223083496 1.6818476915359497
13.848265647888184 9.183284759521484 1.6839630603790283
13.876664161682129 9.080230712890625 1.6860772371292114
13.913500785827637 8.983098983764648 1.6869055032730103
13.951343536376953 8.886922836303711 1.6874967813491821
13.992735862731934 8.793261528015137 1.6874995231628418
14.038568496704102 8.70256519317627 1.6867947578430176
14.069413185119629 8.602828979492188 1.6880773305892944
14.11231803894043 8.510732650756836 1.687597632408142
14.147795677185059 8.414373397827148 1.688052773475647
14.192901611328125 8.32392406463623 1.6870936155319214
14.226256370544434 8.226775169372559 1.6876583099365234
14.256363868713379 8.128053665161133 1.6885733604431152
14.30138111114502 8.038028717041016 1.687364935874939
14.361464500427246 7.956417083740234 1.6840264797210693
15.039016723632812 8.211756706237793 1.5969550609588623
15.887213706970215 8.548935890197754 1.4871423244476318
19.26066017150879 0.7723314166069031 1.1625688076019287
19.238943099975586 0.6533082127571106 1.1633728742599487
19.272018432617188 0.5361220836639404 1.1570440530776978
12.873854637145996 -0.6689791679382324 1.9557735919952393
12.868304252624512 -0.7478697896003723 1.9542181491851807
12.872167587280273 -0.827355146408081 1.9513689279556274
19.722326278686523 -6.044410228729248 0.8394675254821777
19.436763763427734 -6.087657451629639 0.872062623500824
19.11556625366211 -6.116158962249756 0.9098404049873352
19.040603637695312 -6.221282482147217 0.9125514626502991
18.963191986083984 -6.325092315673828 0.9155458211898804
18.944320678710938 -6.448304653167725 0.9100556373596191
18.91903305053711 -6.569575309753418 0.9053745269775391
18.90137481689453 -6.6937575340271 0.899476945400238
18.903404235839844 -6.825374603271484 0.8906018733978271
18.908245086669922 -6.958639144897461 0.8811782002449036
18.895462036132812 -7.085958957672119 0.8741854429244995
18.920696258544922 -7.228236198425293 0.8614922165870667
18.912574768066406 -7.358516693115234 0.8535376787185669
18.94317054748535 -7.50466251373291 0.8397343754768372
18.93684196472168 -7.6370086669921875 0.8312208652496338
18.95984649658203 -7.781976222991943 0.8182087540626526
18.974464416503906 -7.924459934234619 0.8062731623649597
18.91874885559082 -8.03797435760498 0.8046920299530029
18.902366638183594 -8.168396949768066 0.7971115708351135
18.913206100463867 -8.311278343200684 0.7852922081947327
18.774673461914062 -8.388326644897461 0.7958899736404419
18.963308334350586 -8.61269474029541 0.7568305730819702
18.973602294921875 -8.758316993713379 0.74456387758255
18.957706451416016 -8.892610549926758 0.7361259460449219
18.956077575683594 -9.034285545349121 0.7253506779670715
18.99264144897461 -9.195269584655762 0.7085233926773071
19.204818725585938 -9.444026947021484 0.6643198132514954
20.490781784057617 -13.064496040344238 0.20938962697982788
20.139528274536133 -13.015246391296387 0.25201472640037537
19.88990020751953 -13.02783489227295 0.27780696749687195
19.651611328125 -13.044979095458984 0.3018355071544647
19.45412826538086 -13.08677864074707 0.31905558705329895
19.301876068115234 -13.15732479095459 0.32860955595970154
19.220375061035156 -13.275458335876465 0.3259909451007843
19.230623245239258 -13.457804679870605 0.30738192796707153
19.22157859802246 -13.628179550170898 0.2918475270271301
19.194278717041016 -13.786818504333496 0.2792549133300781
19.235393524169922 -13.996318817138672 0.25441774725914
19.2340087890625 -14.17688274383545 0.23673655092716217
19.226364135742188 -14.354399681091309 0.21988800168037415
19.211729049682617 -14.528179168701172 0.20401494204998016
19.209829330444336 -14.713152885437012 0.18559259176254272
19.212629318237305 -14.9035062789917 0.16602744162082672
19.23482894897461 -15.11095905303955 0.14263154566287994
19.23195457458496 -15.300755500793457 0.12345889955759048
19.240571975708008 -15.501640319824219 0.10186640918254852
17.04110336303711 -16.536788940429688 0.2020559310913086
13.272452354431152 13.001054763793945 1.3880627155303955
12.729557037353516 12.317423820495605 1.4911872148513794
12.795991897583008 12.230890274047852 1.4910627603530884
12.760790824890137 12.048585891723633 1.5077738761901855
13.00043773651123 12.125152587890625 1.4786291122436523
13.333480834960938 12.283978462219238 1.4342519044876099
12.994222640991211 11.82513427734375 1.5006123781204224
13.158527374267578 11.828170776367188 1.4839235544204712
13.87562370300293 12.319998741149902 1.3773553371429443
14.257387161254883 12.503677368164062 1.3259683847427368
13.104534149169922 11.351397514343262 1.522312045097351
13.102751731872559 11.210150718688965 1.5320663452148438
13.14522647857666 11.107795715332031 1.5345607995986938
13.196846961975098 11.0136079788208 1.5354763269424438
13.229425430297852 10.904050827026367 1.5392975807189941
13.266547203063965 10.798895835876465 1.5422685146331787
13.293594360351562 10.686232566833496 1.5466954708099365
13.337640762329102 10.587836265563965 1.5483258962631226
13.373172760009766 10.483176231384277 1.5511696338653564
13.407922744750977 10.378479957580566 1.5540111064910889
13.446624755859375 10.277366638183594 1.5561199188232422
13.486176490783691 10.177361488342285 1.5579816102981567
13.525806427001953 10.077853202819824 1.5597184896469116
13.555129051208496 9.971181869506836 1.5629184246063232
13.596504211425781 9.873859405517578 1.564160943031311
13.621869087219238 9.765417098999023 1.5677253007888794
13.6642427444458 9.669648170471191 1.5685946941375732
13.702698707580566 9.571452140808105 1.5699506998062134
13.742100715637207 9.474273681640625 1.5710581541061401
13.781647682189941 9.377528190612793 1.572039008140564
13.816405296325684 9.277886390686035 1.5736308097839355
13.852943420410156 9.179815292358398 1.5748509168624878
13.89627456665039 9.086532592773438 1.5749602317810059
13.903958320617676 8.970464706420898 1.5802396535873413
13.964323043823242 8.888750076293945 1.577630877494812
13.98807144165039 8.783936500549316 1.5803200006484985
14.032994270324707 8.692752838134766 1.5797972679138184
14.066317558288574 8.594619750976562 1.5808762311935425
14.108314514160156 8.502038955688477 1.5805914402008057
14.145442008972168 8.406731605529785 1.5809210538864136
14.188777923583984 8.315299034118652 1.580255150794983
14.222935676574707 8.218685150146484 1.5808247327804565
14.252130508422852 8.119507789611816 1.5820116996765137
14.297082901000977 8.029513359069824 1.5808357000350952
14.390949249267578 7.9666643142700195 1.5725631713867188
14.991498947143555 8.179557800292969 1.491811752319336
15.251724243164062 8.200701713562012 1.4598866701126099
19.25942039489746 0.7665804028511047 1.0360954999923706
19.23569679260254 0.6475065350532532 1.0373338460922241
19.2587833404541 0.5300604104995728 1.0321515798568726
12.899195671081543 -0.6743805408477783 1.867547869682312
12.871841430664062 -0.7521548271179199 1.8689805269241333
12.868738174438477 -0.8312160968780518 1.8670237064361572
27.895633697509766 -5.817769527435303 -0.35846108198165894
27.785322189331055 -5.972935676574707 -0.3515881597995758
27.728303909301758 -6.138957977294922 -0.3524777889251709
27.690574645996094 -6.309128284454346 -0.356281578540802
27.597806930541992 -6.466419696807861 -0.3522813022136688
19.870851516723633 -5.963151454925537 0.6894955635070801
19.481414794921875 -5.976894855499268 0.7391916513442993
19.233341217041016 -6.030221462249756 0.7680051326751709
19.051362991333008 -6.101871013641357 0.7870128154754639
19.05272674560547 -6.2315287590026855 0.7785563468933105
18.86446762084961 -6.29841947555542 0.7984716296195984
18.841978073120117 -6.419747829437256 0.793418824672699
18.856109619140625 -6.55403995513916 0.7827083468437195
18.849706649780273 -6.681801795959473 0.7749605178833008
18.842439651489258 -6.809733867645264 0.7672083973884583
18.836170196533203 -6.938514709472656 0.759167492389679
18.837364196777344 -7.070606708526611 0.7498447895050049
18.840417861938477 -7.204036235809326 0.7400883436203003
18.831470489501953 -7.333461284637451 0.7320302724838257
18.859365463256836 -7.478005886077881 0.7181332111358643
18.881603240966797 -7.621318817138672 0.7049342393875122
18.880809783935547 -7.756160736083984 0.6951428055763245
18.867198944091797 -7.886319160461426 0.6871989369392395
18.87273597717285 -8.025123596191406 0.6761096715927124
18.881818771362305 -8.166258811950684 0.6642969250679016
18.8817195892334 -8.30422306060791 0.6537613272666931
18.88605499267578 -8.444917678833008 0.6423592567443848
18.919103622436523 -8.599495887756348 0.6262192130088806
18.91681671142578 -8.73902416229248 0.6155120134353638
18.927860260009766 -8.885579109191895 0.6025006771087646
18.926198959350586 -9.027059555053711 0.5913450121879578
18.916383743286133 -9.1654052734375 0.5813317894935608
18.92511558532715 -9.313583374023438 0.5681471824645996
18.98053741455078 -9.486104011535645 0.5471756458282471
16.556644439697266 -8.402225494384766 0.9308550953865051
16.46397590637207 -8.48276424407959 0.9352659583091736
16.723440170288086 -8.74683952331543 0.8816637992858887
16.617645263671875 -8.95318603515625 0.8765949606895447
16.638456344604492 -9.096704483032227 0.8616248369216919
16.387300491333008 -9.090587615966797 0.8919692635536194
16.298969268798828 -9.172966957092285 0.8951247930526733
16.251489639282227 -9.278154373168945 0.8913329243659973
16.21703338623047 -9.391037940979004 0.8852223753929138
16.296974182128906 -9.571490287780762 0.8594987392425537
16.180641174316406 -9.637340545654297 0.8670415282249451
19.93689727783203 -13.067329406738281 0.1120036244392395
19.626829147338867 -13.037196159362793 0.14997631311416626
19.449199676513672 -13.092140197753906 0.1645941585302353
19.292070388793945 -13.159337043762207 0.17558416724205017
19.21216583251953 -13.278532981872559 0.1726738065481186
19.215787887573242 -13.456254005432129 0.1545102298259735
19.20665168762207 -13.626506805419922 0.13838931918144226
19.17766761779785 -13.783878326416016 0.12563849985599518
19.176259994506836 -13.96236515045166 0.10758806765079498
12.87455940246582 12.92840576171875 1.3218318223953247
12.728666305541992 12.626320838928223 1.3603956699371338
12.688684463500977 12.433450698852539 1.3796101808547974
12.740196228027344 12.331934928894043 1.3823342323303223
12.689848899841309 12.133585929870605 1.4028350114822388
12.75582504272461 12.048036575317383 1.4026598930358887
12.93655014038086 12.06973934173584 1.3823972940444946
12.999849319458008 11.98076057434082 1.3825706243515015
12.97598934173584 11.812653541564941 1.397659420967102
13.086735725402832 11.623618125915527 1.4000155925750732
13.054612159729004 11.452856063842773 1.4158869981765747
13.061373710632324 11.31800651550293 1.4249248504638672
13.088075637817383 11.201566696166992 1.4304144382476807
13.14490032196045 11.111479759216309 1.4306977987289429
13.179795265197754 11.003314018249512 1.4345333576202393
13.229928970336914 10.908391952514648 1.435696005821228
13.263246536254883 10.8001127243042 1.439526915550232
13.284140586853027 10.682512283325195 1.4452677965164185
13.32739543914795 10.583564758300781 1.4471858739852905
13.36135196685791 10.47775650024414 1.4505037069320679
13.403923988342285 10.379215240478516 1.4522876739501953
13.437912940979004 10.274521827697754 1.4553461074829102
13.47270679473877 10.17099380493164 1.4581470489501953
13.505943298339844 10.06683349609375 1.461073875427246
13.544002532958984 9.966761589050293 1.46310293674469
13.588563919067383 9.871847152709961 1.4639755487442017
13.610712051391602 9.761153221130371 1.4683070182800293
13.657918930053711 9.668895721435547 1.4685311317443848
13.69474983215332 9.569609642028809 1.4702922105789185
13.733328819274902 9.471922874450684 1.4716641902923584
13.77204418182373 9.374679565429688 1.4729042053222656
13.803499221801758 9.272892951965332 1.475171446800232
13.843317985534668 9.177098274230957 1.4760189056396484
13.88331127166748 9.081706047058105 1.4767338037490845
13.910160064697266 8.978099822998047 1.4793810844421387
13.930405616760254 8.870777130126953 1.4829319715499878
13.983447074890137 8.784645080566406 1.481311559677124
14.026681900024414 8.692447662353516 1.4811067581176758
14.042243003845215 8.583498001098633 1.4850419759750366
14.098605155944824 8.499771118164062 1.482627272605896
14.142535209655762 8.408580780029297 1.4820200204849243
14.180746078491211 8.314159393310547 1.4821866750717163
14.214897155761719 8.217599868774414 1.4828689098358154
14.250121116638184 8.12191390991211 1.483288049697876
14.283843040466309 8.025618553161621 1.4838334321975708
14.365490913391113 7.956117630004883 1.4770807027816772
14.947196006774902 8.15909481048584 1.3953412771224976
15.240274429321289 8.198326110839844 1.357045292854309
19.247488021850586 0.7702727913856506 0.9213670492172241
19.210927963256836 0.6508299112319946 0.9245859384536743
19.260730743408203 0.5342843532562256 0.9155163168907166
12.918304443359375 -0.6728404760360718 1.7868218421936035
12.867249488830566 -0.7493594288825989 1.791784405708313
12.859211921691895 -0.8280736804008484 1.7905250787734985
19.78116798400879 -5.9315690994262695 0.5780245661735535
19.48487091064453 -5.973353862762451 0.6155540347099304
19.212425231933594 -6.019123077392578 0.6494890451431274
19.097503662109375 -6.112124443054199 0.6589744687080383
18.855236053466797 -6.162469387054443 0.6883198618888855
18.822328567504883 -6.279874324798584 0.684930682182312
18.822397232055664 -6.408584117889404 0.6762454509735107
18.801969528198242 -6.53071928024292 0.6706478595733643
