# .PCD v0.7 - Point Cloud Data file format
VERSION 0.7
FIELDS x y z
SIZE 4 4 4
TYPE F F F
COUNT 1 1 1
WIDTH 845
HEIGHT 1
VIEWPOINT 0 0 0 1 0 0 0
POINTS 845
DATA ascii
16.193355560302734 -7.588929176330566 0.603737473487854
16.333040237426758 -7.777104377746582 0.5664448738098145
16.17546272277832 -7.8243255615234375 0.5848413109779358
16.77741813659668 -8.630424499511719 0.42295417189598083
16.570823669433594 -8.653305053710938 0.45009300112724304
16.45779037475586 -8.72337818145752 0.45929449796676636
16.21430778503418 -8.722346305847168 0.4937473237514496
16.233633041381836 -8.861767768859863 0.4772588610649109
16.200117111206055 -8.973099708557129 0.470862478017807
16.14607810974121 -9.073249816894531 0.46834370493888855
16.135089874267578 -9.197972297668457 0.45722877979278564
16.082218170166016 -9.299220085144043 0.45420995354652405
16.009157180786133 -9.388700485229492 0.45508119463920593
15.94915771484375 -9.485697746276855 0.4532586336135864
15.919797897338867 -9.60114574432373 0.4451865553855896
12.554903984069824 12.767048835754395 0.9272120594978333
12.599855422973633 12.656878471374512 0.9327033758163452
12.641122817993164 12.543848037719727 0.9387906193733215
12.684305191040039 12.43355655670166 0.9442771673202515
12.720220565795898 12.317014694213867 0.9511100649833679
12.74732780456543 12.192983627319336 0.9595916271209717
12.789923667907715 12.084698677062988 0.9646238088607788
12.83311939239502 11.977700233459473 0.9693529009819031
12.854406356811523 11.851188659667969 0.9784361124038696
12.890710830688477 11.73951244354248 0.9842149019241333
12.939358711242676 11.639738082885742 0.987285315990448
12.979142189025879 11.532583236694336 0.9920066595077515
13.00026798248291 11.4097261428833 1.0003403425216675
13.044281959533691 11.307764053344727 1.0038541555404663
13.089037895202637 11.206977844238281 1.0070632696151733
13.109650611877441 11.086276054382324 1.0149457454681396
13.15583324432373 10.987923622131348 1.0175467729568481
13.191391944885254 10.881241798400879 1.0221073627471924
13.223838806152344 10.772663116455078 1.0271199941635132
13.260844230651855 10.66843318939209 1.0310726165771484
13.297845840454102 10.564767837524414 1.0348721742630005
13.334074974060059 10.46104907989502 1.038669466972351
13.364846229553223 10.353649139404297 1.043373942375183
13.403440475463867 10.2528715133667 1.0464098453521729
13.43972396850586 10.150815963745117 1.0497461557388306
13.471302032470703 10.045744895935059 1.0538396835327148
13.509261131286621 9.945942878723145 1.056564450263977
13.549703598022461 9.84837532043457 1.058678388595581
13.584639549255371 9.747227668762207 1.0617016553878784
13.615620613098145 9.6437349319458 1.0653313398361206
13.649893760681152 9.543059349060059 1.0681984424591064
13.702156066894531 9.455235481262207 1.0675572156906128
13.727715492248535 9.349325180053711 1.0717904567718506
13.767257690429688 9.253378868103027 1.0732758045196533
13.80284595489502 9.155113220214844 1.0753684043884277
13.834441184997559 9.05459213256836 1.0780699253082275
13.871964454650879 8.958316802978516 1.079545497894287
13.912996292114258 8.864574432373047 1.0802528858184814
13.956747055053711 8.7727689743042 1.0803428888320923
13.990656852722168 8.675028800964355 1.0821138620376587
14.028952598571777 8.58029556274414 1.0829617977142334
14.065768241882324 8.484905242919922 1.0839592218399048
14.106185913085938 8.391911506652832 1.0841853618621826
14.146846771240234 8.299240112304688 1.084253191947937
14.18861198425293 8.20737361907959 1.0840084552764893
14.230640411376953 8.11579418182373 1.0836048126220703
14.260883331298828 8.01771068572998 1.085198163986206
14.420088768005371 7.9914093017578125 1.0636719465255737
14.700021743774414 8.029294967651367 1.0206737518310547
15.239319801330566 8.203143119812012 0.9317731261253357
14.609624862670898 7.634836673736572 1.0565030574798584
19.228652954101562 0.7762161493301392 0.4500221014022827
15.733413696289062 0.5382697582244873 1.0275026559829712
19.26943588256836 0.5412456393241882 0.4394543766975403
12.865808486938477 -0.744751513004303 1.474563479423523
12.855798721313477 -0.8233301639556885 1.473706603050232
16.183820724487305 -2.7487809658050537 0.8433876633644104
16.254837036132812 -2.966541290283203 0.820652961730957
16.24178123474121 -3.067274808883667 0.8175011277198792
16.269704818725586 -3.176079273223877 0.8071181178092957
16.06112289428711 -3.2378313541412354 0.8377910852432251
16.224925994873047 -3.3745977878570557 0.8034998774528503
16.14958381652832 -3.462475061416626 0.8107966780662537
16.26338768005371 -3.591413974761963 0.7848783135414124
16.187820434570312 -3.6790802478790283 0.7920141816139221
16.044607162475586 -3.7502591609954834 0.8109917640686035
16.07460594177246 -3.861478328704834 0.7994021773338318
18.98985481262207 -5.942410469055176 0.1931946724653244
18.85968017578125 -6.0290656089782715 0.2075597047805786
18.79192543029785 -6.134835243225098 0.21051567792892456
16.215579986572266 -5.40433931350708 0.6718223690986633
16.24144172668457 -5.523987770080566 0.6587243676185608
16.29901885986328 -5.655459880828857 0.6396264433860779
16.3648738861084 -5.791133403778076 0.618796169757843
16.450984954833984 -5.935517311096191 0.5940018892288208
16.01811408996582 -5.8907880783081055 0.6651907563209534
18.81074333190918 -7.049003601074219 0.13684040307998657
18.82192039489746 -7.185314178466797 0.12403081357479095
16.064695358276367 -6.246232986450195 0.629073977470398
18.82029151916504 -7.450801372528076 0.10233679413795471
16.322860717773438 -7.168676376342773 0.5100427865982056
16.319547653198242 -7.287118434906006 0.49991026520729065
16.31897735595703 -7.407419204711914 0.4890798330307007
16.391775131225586 -7.562229633331299 0.4638811945915222
16.221599578857422 -7.604930400848389 0.48558005690574646
16.152896881103516 -7.694108963012695 0.4875641465187073
16.584835052490234 -8.405834197998047 0.3548780083656311
16.52815818786621 -8.505136489868164 0.35351940989494324
16.333845138549805 -8.532485961914062 0.37948355078697205
16.466962814331055 -8.731203079223633 0.34003016352653503
16.40052604675293 -8.825495719909668 0.3402542471885681
16.16156578063965 -8.82540225982666 0.3751804530620575
16.176469802856445 -8.96300220489502 0.3588740825653076
16.377408981323242 -9.206290245056152 0.3044997751712799
16.12944984436035 -9.19780158996582 0.3412471413612366
16.125995635986328 -9.327600479125977 0.3280605375766754
16.20902442932129 -9.509015083312988 0.29685014486312866
16.134723663330078 -9.599183082580566 0.29781341552734375
12.573491096496582 12.781144142150879 0.8276422619819641
12.603201866149902 12.655488014221191 0.8367799520492554
12.63184928894043 12.529948234558105 0.8459187746047974
12.672839164733887 12.417669296264648 0.8521143198013306
12.720027923583984 12.31223201751709 0.8567580580711365
12.758548736572266 12.199170112609863 0.8631044626235962
12.78252124786377 12.073208808898926 0.8723985552787781
12.827098846435547 11.967629432678223 0.87703537940979
12.861422538757324 11.853254318237305 0.8836895823478699
12.895559310913086 11.739572525024414 0.8901876211166382
12.928053855895996 11.62525463104248 0.8968406319618225
12.98031234741211 11.529350280761719 0.8991344571113586
12.999955177307129 11.40522575378418 0.9081210494041443
13.050665855407715 11.309111595153809 0.9104082584381104
13.087179183959961 11.201239585876465 0.915497899055481
13.118338584899902 11.089518547058105 0.9215219020843506
13.163784980773926 10.990497589111328 0.9244229197502136
13.18641471862793 10.873109817504883 0.9318506717681885
13.225717544555664 10.77020263671875 0.9356845021247864
13.262716293334961 10.665985107421875 0.939828634262085
13.295842170715332 10.559257507324219 0.9445968866348267
13.341371536254883 10.462888717651367 0.9467012286186218
13.375288963317871 10.357889175415039 0.9509955644607544
13.399008750915527 10.245665550231934 0.957169771194458
13.447078704833984 10.152585983276367 0.9583240151405334
13.462841033935547 10.035687446594238 0.9657531380653381
13.504721641540527 9.938881874084473 0.9678436517715454
13.540328979492188 9.837874412536621 0.9710307121276855
13.583230972290039 9.742559432983398 0.9726424217224121
13.622252464294434 9.644803047180176 0.9748796224594116
13.693355560302734 9.44559097290039 0.98028963804245
13.7278470993042 9.345870018005371 0.9829909801483154
13.771466255187988 9.252691268920898 0.9837958216667175
13.808700561523438 9.155505180358887 0.9857015013694763
13.84691333770752 9.059289932250977 0.9872881174087524
13.877830505371094 8.958664894104004 0.9901361465454102
13.908869743347168 8.858529090881348 0.9928239583969116
13.94839859008789 8.764128684997559 0.9937682151794434
13.985615730285645 8.668534278869629 0.9950254559516907
14.023028373718262 8.573326110839844 0.9961203932762146
14.066564559936523 8.482063293457031 0.9959428906440735
14.106963157653809 8.389073371887207 0.9962357878684998
14.159524917602539 8.303397178649902 0.9941414594650269
14.228777885437012 8.111493110656738 0.996292769908905
14.266743659973145 8.017786026000977 0.9965676069259644
14.431896209716797 7.994734764099121 0.973263144493103
14.675271987915039 8.012541770935059 0.935576856136322
15.21581745147705 8.187199592590332 0.8434421420097351
16.000593185424805 8.483636856079102 0.706961989402771
19.212785720825195 0.7727565765380859 0.3491385281085968
15.732403755187988 0.5357813239097595 0.9429348707199097
19.258398056030273 0.5381165742874146 0.3375556468963623
12.888319969177246 -0.6689075231552124 1.4037121534347534
12.861063957214355 -0.746630072593689 1.4059479236602783
12.845139503479004 -0.824800968170166 1.406140923500061
16.30210304260254 -1.5494741201400757 0.7882833480834961
16.32815170288086 -1.7543601989746094 0.7757720351219177
16.320629119873047 -1.8549128770828247 0.7729417085647583
16.287057876586914 -1.9523963928222656 0.7745782136917114
16.305683135986328 -2.0561888217926025 0.766936182975769
16.26211929321289 -2.1521506309509277 0.7701274156570435
16.316545486450195 -2.261303663253784 0.7559361457824707
16.323442459106445 -2.3644347190856934 0.7499991059303284
16.240081787109375 -2.4542078971862793 0.7599222660064697
16.173755645751953 -2.5458052158355713 0.7667590975761414
16.344482421875 -2.7786359786987305 0.7262067794799805
16.35682487487793 -2.884122610092163 0.7186915278434753
16.196990966796875 -2.958564519882202 0.7418058514595032
16.188810348510742 -3.0598556995391846 0.7377647757530212
16.221559524536133 -3.1692755222320557 0.7262689471244812
16.1087589263916 -3.250016689300537 0.7407817244529724
16.160459518432617 -3.363792657852173 0.7256354093551636
16.20847511291504 -3.477707862854004 0.7109934091567993
16.085491180419922 -3.5547492504119873 0.7271062135696411
16.259859085083008 -3.698080062866211 0.6893151998519897
16.0993709564209 -3.7656776905059814 0.7120629549026489
16.19976234436035 -5.401862621307373 0.5823823809623718
16.538698196411133 -5.627912998199463 0.5097816586494446
16.289573669433594 -5.655014514923096 0.5481162071228027
16.144685745239258 -5.71605920791626 0.5667581558227539
16.411680221557617 -5.924213409423828 0.5068975687026978
16.30996322631836 -6.000969886779785 0.5170741677284241
16.089954376220703 -6.032490253448486 0.549893319606781
16.0816707611084 -6.142289161682129 0.5420887470245361
16.24876594543457 -6.320702075958252 0.5003005862236023
15.975937843322754 -6.327843189239502 0.5432934165000916
16.544357299804688 -7.269010066986084 0.3698078393936157
16.310346603393555 -7.286073207855225 0.4049634039402008
16.391265869140625 -7.4433183670043945 0.377672016620636
16.310029983520508 -7.527625560760498 0.3824264705181122
16.35132598876953 -7.6688642501831055 0.3625885844230652
16.0734806060791 -7.659398555755615 0.4066098928451538
16.426128387451172 -8.58398151397705 0.2606604993343353
16.462251663208008 -8.73203182220459 0.2399885505437851
16.27712631225586 -8.762425422668457 0.2648595869541168
16.242490768432617 -8.872930526733398 0.2585412859916687
16.254436492919922 -9.009566307067871 0.2423451840877533
16.0072021484375 -9.001577377319336 0.2802339196205139
16.113601684570312 -9.192170143127441 0.2439078390598297
16.13736343383789 -9.33760929107666 0.22464002668857574
16.1624813079834 -9.485182762145996 0.20481668412685394
16.0621280670166 -9.559478759765625 0.21146449446678162
12.522229194641113 12.746889114379883 0.7286244630813599
12.585199356079102 12.655159950256348 0.7304614782333374
12.66572380065918 12.581219673156738 0.7281121015548706
12.664795875549316 12.42727279663086 0.7442457675933838
12.700733184814453 12.310903549194336 0.7516985535621643
12.739999771118164 12.19865608215332 0.7581848502159119
12.79844856262207 12.105378150939941 0.7601593136787415
12.821615219116211 11.979499816894531 0.7698638439178467
12.861858367919922 11.870524406433105 0.7755388021469116
12.903434753417969 11.76349925994873 0.7807276248931885
12.951520919799805 11.66301441192627 0.7842998504638672
12.971575736999512 11.53811264038086 0.79384446144104
13.012833595275879 11.432943344116211 0.7985429167747498
13.053290367126465 11.3277006149292 0.803239107131958
13.087703704833984 11.2178955078125 0.8090651631355286
13.121264457702637 11.108092308044434 0.8148905038833618
13.165328979492188 11.007793426513672 0.8182845711708069
13.204092025756836 10.903599739074707 0.8226481080055237
13.223721504211426 10.784377098083496 0.8309012055397034
13.27389907836914 10.690698623657227 0.8325037360191345
13.315702438354492 10.590665817260742 0.8357244729995728
13.342812538146973 10.479551315307617 0.8418658971786499
13.358925819396973 10.360641479492188 0.8501213192939758
13.404640197753906 10.2653226852417 0.8520357608795166
13.4402437210083 10.162690162658691 0.8558987379074097
13.489326477050781 10.070629119873047 0.8568283915519714
13.50839900970459 9.956687927246094 0.8637815713882446
13.561687469482422 9.86843204498291 0.8635625243186951
13.585555076599121 9.759174346923828 0.8692102432250977
13.613425254821777 9.653417587280273 0.8738787770271301
13.655057907104492 9.557867050170898 0.8756067156791687
13.693599700927734 9.460485458374023 0.8778208494186401
13.742056846618652 9.370214462280273 0.8779054880142212
13.76700496673584 9.264280319213867 0.8825665712356567
13.804322242736816 9.167123794555664 0.8846074342727661
13.836015701293945 9.066614151000977 0.8876283168792725
13.866168975830078 8.965520858764648 0.8908112049102783
13.911405563354492 8.874478340148926 0.8908752202987671
13.956047058105469 8.783214569091797 0.8909338712692261
13.984171867370605 8.681851387023926 0.8941083550453186
14.026721000671387 8.589742660522461 0.8943225741386414
14.052623748779297 8.487750053405762 0.8976570963859558
14.103227615356445 8.400901794433594 0.8960530757904053
14.149043083190918 8.311253547668457 0.8952652215957642
14.189167022705078 8.218391418457031 0.8954601287841797
14.225260734558105 8.123390197753906 0.8963102102279663
14.28994369506836 8.04470443725586 0.8915457129478455
14.4068021774292 7.994718074798584 0.8766971826553345
14.70182991027832 8.041085243225098 0.8277839422225952
15.23148250579834 8.209996223449707 0.7343213558197021
19.229841232299805 0.7876312136650085 0.22884277999401093
15.738435745239258 0.5480403304100037 0.8458914160728455
19.273595809936523 0.5527488589286804 0.21737727522850037
12.891341209411621 -0.5794637203216553 1.3270407915115356
12.88135051727295 -0.6582140326499939 1.3264118432998657
12.864981651306152 -0.7365276217460632 1.3268425464630127
12.854031562805176 -0.8150409460067749 1.3262171745300293
16.23793601989746 -1.6314970254898071 0.6962764859199524
16.114704132080078 -1.719045877456665 0.714544415473938
16.121084213256836 -1.8198322057724 0.709233283996582
16.036928176879883 -1.910054326057434 0.7202611565589905
15.992311477661133 -2.00433349609375 0.7240208387374878
15.992024421691895 -2.1040451526641846 0.7196065187454224
15.997937202453613 -2.2047715187072754 0.7139435410499573
15.937958717346191 -2.2962489128112793 0.7202126383781433
16.00785255432129 -2.406682252883911 0.7026056051254272
15.992410659790039 -2.504812717437744 0.7004988193511963
15.796707153320312 -2.573572874069214 0.7314220666885376
16.309932708740234 -2.76005220413208 0.6317924857139587
16.3330078125 -2.8671741485595703 0.6221343278884888
16.253740310668945 -2.9561972618103027 0.6312533020973206
16.224279403686523 -3.053823232650757 0.6310796141624451
16.30238914489746 -3.1722497940063477 0.6108434200286865
16.062326431274414 -3.227973222732544 0.6495726704597473
16.1102294921875 -3.3406054973602295 0.6347129344940186
16.484432220458984 -3.5238759517669678 0.5587891936302185
16.11241340637207 -3.5478978157043457 0.6220153570175171
16.169584274291992 -3.664696216583252 0.604962170124054
16.126291275024414 -3.7591042518615723 0.6066032648086548
16.157062530517578 -3.870999574661255 0.5942072868347168
16.06419563293457 -5.45305871963501 0.49657461047172546
16.09322166442871 -5.573358535766602 0.4820568561553955
16.207590103149414 -5.724677085876465 0.4505820870399475
16.252235412597656 -5.852954387664795 0.4325627386569977
16.30145263671875 -5.9840288162231445 0.41343122720718384
16.103790283203125 -6.023948669433594 0.4430239796638489
16.07347297668457 -6.125399112701416 0.439415842294693
16.0635929107666 -6.234888076782227 0.4316050708293915
16.411113739013672 -7.316530704498291 0.2762015163898468
16.383394241333008 -7.425154685974121 0.2703268527984619
16.35674476623535 -7.534538745880127 0.2640845775604248
16.32224464416504 -7.6405439376831055 0.25931522250175476
16.487932205200195 -8.730217933654785 0.12185262888669968
16.36956024169922 -8.796745300292969 0.13333973288536072
16.30534553527832 -8.891794204711914 0.13317565619945526
16.20275115966797 -8.965455055236816 0.14117904007434845
16.075023651123047 -9.024245262145996 0.15458299219608307
16.154674530029297 -9.19997787475586 0.12289697676897049
12.61785888671875 12.84445571899414 0.5805675983428955
12.682119369506836 12.752854347229004 0.5823663473129272
12.69397258758545 12.609529495239258 0.596548855304718
12.710884094238281 12.472753524780273 0.6092290878295898
12.860387802124023 12.465930938720703 0.5902332067489624
12.76248836517334 12.220467567443848 0.6295709013938904
12.798152923583984 12.105389595031738 0.63705974817276
12.824247360229492 11.982256889343262 0.6465625166893005
12.869598388671875 11.877978324890137 0.6513634920120239
12.915613174438477 11.774922370910645 0.6558249592781067
12.949861526489258 11.66185188293457 0.6628051996231079
12.980267524719238 11.546182632446289 0.6704578995704651
13.017889976501465 11.43773365020752 0.67625892162323
13.065093994140625 11.338302612304688 0.6797004342079163
13.098100662231445 11.227174758911133 0.6861708164215088
13.154311180114746 11.136446952819824 0.6872454881668091
13.15924072265625 11.003087997436523 0.6996161937713623
13.206354141235352 10.905861854553223 0.7023719549179077
13.245133399963379 10.802240371704102 0.7068120837211609
13.27469539642334 10.691751480102539 0.7131086587905884
13.311119079589844 10.58743953704834 0.717714250087738
13.352965354919434 10.487953186035156 0.7209643721580505
13.387084007263184 10.382912635803223 0.7257344126701355
13.416505813598633 10.274850845336914 0.7313500046730042
13.44982624053955 10.170384407043457 0.7359480857849121
13.486319541931152 10.068841934204102 0.739696741104126
13.530009269714355 9.9730806350708 0.7417466640472412
13.56825065612793 9.87368106842041 0.7448107600212097
13.60018253326416 9.770159721374512 0.7490610480308533
13.631356239318848 9.666618347167969 0.7533096075057983
13.66419506072998 9.5647554397583 0.7570470571517944
13.701973915100098 9.46677303314209 0.7595911026000977
13.733368873596191 9.364798545837402 0.7633241415023804
13.759124755859375 9.259490966796875 0.7680776715278625
13.799703598022461 9.16457748413086 0.7695922255516052
13.823978424072266 9.05925178527832 0.7743433117866516
13.862375259399414 8.963601112365723 0.77602219581604
13.902613639831543 8.86940860748291 0.7771851420402527
13.960563659667969 8.786603927612305 0.7745844721794128
14.001277923583984 8.693025588989258 0.7753950953483582
14.032129287719727 8.593615531921387 0.7780827879905701
14.0648193359375 8.495680809020996 0.7802551984786987
14.09768295288086 8.398171424865723 0.7822536826133728
14.139225006103516 8.306065559387207 0.7823638319969177
14.183578491210938 8.215738296508789 0.7817830443382263
14.2247896194458 8.123713493347168 0.7817115783691406
14.352107048034668 8.080305099487305 0.7642896175384521
14.383809089660645 7.98257303237915 0.76591557264328
14.92735481262207 8.16510009765625 0.6655709743499756
15.117253303527832 8.149126052856445 0.6358115077018738
15.924294471740723 8.458769798278809 0.4839399755001068
19.192476272583008 0.7873053550720215 0.10056188702583313
15.740748405456543 0.5489609241485596 0.7348848581314087
12.833041191101074 -0.6552004814147949 1.2448118925094604
12.860864639282227 -0.7357443571090698 1.237092137336731
12.867573738098145 -0.8153510689735413 1.2332104444503784
16.035890579223633 -1.6102994680404663 0.6195818781852722
16.104490280151367 -1.7170544862747192 0.6025674939155579
15.998523712158203 -1.8051034212112427 0.618320643901825
15.967242240905762 -1.9008640050888062 0.6199061870574951
15.899306297302246 -1.9917919635772705 0.628322422504425
15.823063850402832 -2.0809359550476074 0.638231098651886
15.940075874328613 -2.1959071159362793 0.6113994717597961
15.86755084991455 -2.2852213382720947 0.6203935146331787
15.94808578491211 -2.3968029022216797 0.6001790165901184
15.783175468444824 -2.471160650253296 0.6265848278999329
16.05927848815918 -2.6154494285583496 0.5687538981437683
16.388437271118164 -2.772395372390747 0.5004677176475525
16.346521377563477 -2.8686065673828125 0.5029455423355103
16.230567932128906 -2.9510531425476074 0.5195373296737671
16.188583374023438 -3.046177864074707 0.5218548774719238
16.247316360473633 -3.1605987548828125 0.5046646595001221
16.146299362182617 -3.2439277172088623 0.5181439518928528
16.128582000732422 -3.3434882164001465 0.5154544711112976
16.098718643188477 -3.4404923915863037 0.5150012969970703
16.311986923217773 -3.59090256690979 0.4672131836414337
16.171388626098633 -3.6641738414764404 0.48799702525138855
16.17977523803711 -3.770639419555664 0.4797007441520691
16.063262939453125 -3.847601890563965 0.49567610025405884
16.27828598022461 -5.524770736694336 0.3337475657463074
16.146224975585938 -5.590763092041016 0.35140088200569153
16.234355926513672 -5.7331671714782715 0.3241307735443115
16.235408782958984 -5.845927715301514 0.3144092559814453
16.249515533447266 -5.963993072509766 0.30184486508369446
16.26829719543457 -6.084516525268555 0.2881353199481964
16.129301071166992 -6.145717144012451 0.3067968785762787
16.17142105102539 -6.275777816772461 0.28797051310539246
16.409080505371094 -7.435789585113525 0.13816715776920319
16.365381240844727 -7.537513732910156 0.13539732992649078
16.231252670288086 -7.596958637237549 0.15190520882606506
12.636082649230957 12.858250617980957 0.47632092237472534
12.661524772644043 12.727447509765625 0.4878951907157898
12.676058769226074 12.587096214294434 0.5018903613090515
12.669666290283203 12.427733421325684 0.5207306742668152
12.726874351501465 12.33198356628418 0.5236693024635315
13.097855567932129 12.537032127380371 0.45011821389198303
13.186988830566406 12.468656539916992 0.4453882873058319
12.804353713989258 11.959295272827148 0.5541014075279236
12.85608959197998 11.86117935180664 0.557547926902771
12.904921531677246 11.760885238647461 0.5615096092224121
12.932516098022461 11.641987800598145 0.5703245997428894
12.9775390625 11.539554595947266 0.5748012661933899
13.005516052246094 11.42270565032959 0.5830947756767273
13.046685218811035 11.318209648132324 0.5880876779556274
13.09229850769043 11.218122482299805 0.5918613076210022
13.119888305664062 11.103267669677734 0.5996315479278564
13.166964530944824 11.005547523498535 0.6027032136917114
13.19739055633545 10.894499778747559 0.6094273924827576
13.244504928588867 10.797802925109863 0.6121440529823303
13.250284194946289 10.668207168579102 0.6240953803062439
13.315091133117676 10.586747169494629 0.6224479079246521
13.34377384185791 10.476917266845703 0.628818690776825
13.381730079650879 10.374978065490723 0.6329195499420166
13.410338401794434 10.266379356384277 0.6389395594596863
13.443617820739746 10.161975860595703 0.6437357068061829
13.498217582702637 10.0740385055542 0.6436334848403931
13.518163681030273 9.960698127746582 0.651049017906189
13.562705993652344 9.866022109985352 0.6528632044792175
13.588204383850098 9.757966041564941 0.6587019562721252
13.63537883758545 9.665908813476562 0.6596331000328064
13.660158157348633 9.558398246765137 0.6652942895889282
13.700333595275879 9.462135314941406 0.6674458980560303
13.740657806396484 9.366291999816895 0.6694180369377136
14.02699089050293 9.436269760131836 0.6183250546455383
14.076844215393066 9.34516716003418 0.6181492209434509
14.08493709564209 9.226832389831543 0.6267620921134949
14.140061378479004 9.13974666595459 0.6251708269119263
14.16808795928955 9.035388946533203 0.6292074918746948
13.995415687561035 8.805211067199707 0.6755346655845642
13.972681999206543 8.671974182128906 0.6898209452629089
14.020201683044434 8.583036422729492 0.6891225576400757
14.062100410461426 8.4907865524292 0.6894772052764893
14.104241371154785 8.398846626281738 0.6896502375602722
14.15257453918457 8.310694694519043 0.6884042620658875
14.177358627319336 8.20894718170166 0.6919266581535339
14.218523979187012 8.116966247558594 0.6919092535972595
14.268528938293457 8.030097007751465 0.6899390816688538
14.344680786132812 7.957719802856445 0.6824690103530884
14.719242095947266 8.048090934753418 0.613645076751709
15.143936157226562 8.160304069519043 0.5347978472709656
14.544553756713867 7.608955383300781 0.6730526089668274
15.744555473327637 0.5467096567153931 0.6460014581680298
12.85122013092041 -0.6582203507423401 1.1693294048309326
12.859371185302734 -0.7377532720565796 1.1651990413665771
12.858206748962402 -0.8168533444404602 1.1627615690231323
15.9781494140625 -1.6069211959838867 0.5403952598571777
15.983213424682617 -1.7065497636795044 0.5352681279182434
15.99741268157959 -1.8074047565460205 0.5282422304153442
15.997322082519531 -1.906874656677246 0.523865818977356
16.00148582458496 -2.0070245265960693 0.5185380578041077
15.7830810546875 -2.0780956745147705 0.5565046072006226
15.786173820495605 -2.177131175994873 0.5511990189552307
15.920795440673828 -2.2953269481658936 0.5200285911560059
15.804079055786133 -2.377596855163574 0.5379140377044678
15.941067695617676 -2.498328447341919 0.5059389472007751
15.809741020202637 -2.5772595405578613 0.5265148282051086
16.36235237121582 -2.7704882621765137 0.41231799125671387
16.30312156677246 -2.9667534828186035 0.41259023547172546
16.195453643798828 -3.049976110458374 0.4280174970626831
16.235761642456055 -3.160867929458618 0.41402769088745117
16.054948806762695 -3.228081464767456 0.44383397698402405
16.08921241760254 -3.337843179702759 0.43080297112464905
16.122730255126953 -3.4481489658355713 0.41775938868522644
16.281055450439453 -3.586643934249878 0.3795922100543976
16.100399017333984 -3.6506292819976807 0.40909039974212646
16.09162139892578 -3.752643585205078 0.40408259630203247
16.141332626342773 -5.591801643371582 0.2563026547431946
16.135889053344727 -5.701143264770508 0.2479400485754013
16.172163009643555 -5.825920104980469 0.23063476383686066
16.149492263793945 -5.930060386657715 0.22556419670581818
16.17576026916504 -6.052704334259033 0.20998723804950714
16.078310012817383 -6.129086017608643 0.2204853743314743
16.110376358032227 -6.254904270172119 0.20334085822105408
12.657468795776367 12.8707857131958 0.37133967876434326
12.6712064743042 12.72806167602539 0.3863430321216583
12.677391052246094 12.579413414001465 0.4029540717601776
12.717368125915527 12.465614318847656 0.4106622338294983
12.694933891296387 12.29223918914795 0.4338795840740204
12.773244857788086 12.217558860778809 0.43142521381378174
13.343838691711426 12.608023643493652 0.30600106716156006
12.840079307556152 11.984111785888672 0.44844383001327515
12.848567962646484 11.845781326293945 0.4627583920955658
12.898036003112793 11.74622631072998 0.4667128622531891
12.942381858825684 11.642559051513672 0.47173595428466797
12.97270393371582 11.527023315429688 0.47997593879699707
13.023542404174805 11.430376052856445 0.4830248951911926
13.02611255645752 11.292287826538086 0.49753090739250183
13.103702545166016 11.21987247467041 0.49376729130744934
13.105781555175781 11.083391189575195 0.5079191327095032
13.164817810058594 10.995874404907227 0.5082667469978333
13.199751853942871 10.88863754272461 0.5141701698303223
13.24454402923584 10.790085792541504 0.5175586938858032
13.274831771850586 10.680289268493652 0.5241766571998596
13.321215629577637 10.583991050720215 0.5268399715423584
13.34679889678955 10.471735000610352 0.534174382686615
13.375399589538574 10.36257266998291 0.5406100749969482
13.424256324768066 10.26959228515625 0.5421844720840454
13.457565307617188 10.165135383605957 0.5471763014793396
13.48458194732666 10.056535720825195 0.553428053855896
13.519487380981445 9.954401969909668 0.5576960444450378
13.565582275390625 9.860894203186035 0.5592555403709412
13.611040115356445 9.767192840576172 0.560810387134552
13.619746208190918 9.64771556854248 0.5704883337020874
13.691980361938477 9.573591232299805 0.5657125115394592
13.644835472106934 9.416807174682617 0.5875065326690674
13.952291488647461 9.503508567810059 0.5300725102424622
14.025434494018555 9.428192138671875 0.5248851180076599
13.853976249694824 9.190296173095703 0.5736626386642456
13.860332489013672 9.072839736938477 0.5827991366386414
13.890555381774902 8.971657752990723 0.5865001678466797
13.928352355957031 8.875731468200684 0.5883849263191223
14.198588371276855 8.926252365112305 0.5394336581230164
14.061320304870605 8.720301628112793 0.5792469382286072
14.025245666503906 8.579501152038574 0.5967451333999634
14.068801879882812 8.488245964050293 0.5967992544174194
14.09993839263916 8.389737129211426 0.5993956327438354
13.976058006286621 8.200579643249512 0.6351266503334045
14.210389137268066 8.221588134765625 0.5938330292701721
14.235398292541504 8.120153427124023 0.5973277688026428
14.274269104003906 8.026914596557617 0.5977211594581604
14.326290130615234 7.941130638122559 0.5951899290084839
14.68580150604248 8.023327827453613 0.5274587273597717
15.103959083557129 8.132174491882324 0.4475824236869812
15.194836616516113 8.061514854431152 0.43689781427383423
15.277569770812988 7.985942363739014 0.42784208059310913
15.74594783782959 0.541631817817688 0.5573173761367798
12.86219596862793 -0.7422543168067932 1.0922342538833618
12.86001205444336 -0.8213093280792236 1.0899690389633179
15.948143005371094 -1.7080340385437012 0.45180922746658325
15.971067428588867 -1.809669852256775 0.4428960382938385
15.98554801940918 -1.910723090171814 0.43553483486175537
15.956571578979492 -2.006645679473877 0.4367510676383972
15.725744247436523 -2.075746774673462 0.4783834218978882
15.712307929992676 -2.1721506118774414 0.47631585597991943
16.022476196289062 -2.315274477005005 0.4089604616165161
15.801971435546875 -2.3825244903564453 0.4483202397823334
15.741113662719727 -2.472245216369629 0.45544004440307617
15.709757804870605 -2.566208600997925 0.4565010070800781
16.05571937561035 -3.0290579795837402 0.36359894275665283
16.17018699645996 -3.153538465499878 0.33416810631752014
16.12800407409668 -3.2481980323791504 0.3365567624568939
16.107349395751953 -3.3470466136932373 0.33442798256874084
16.279747009277344 -3.4872238636016846 0.2925318479537964
16.09581756591797 -3.551321029663086 0.3236749768257141
16.103897094726562 -3.656909704208374 0.31523990631103516
16.055910110473633 -3.7498087882995605 0.3182392120361328
15.900625228881836 -3.8166463375091553 0.3433546721935272
16.24601936340332 -5.633976459503174 0.13716843724250793
16.187606811523438 -5.72533655166626 0.13999366760253906
16.211645126342773 -5.8461012840271 0.1248624250292778
16.204458236694336 -5.956226348876953 0.11631070077419281
16.13137435913086 -6.042092323303223 0.12194617837667465
16.110029220581055 -6.147192478179932 0.11619552969932556
12.6826753616333 12.76646900177002 0.2634188234806061
12.700379371643066 12.628856658935547 0.27770933508872986
12.629927635192871 12.406105041503906 0.3148653507232666
12.662339210510254 12.28667163848877 0.3245634138584137
12.746271133422852 12.217632293701172 0.32060590386390686
12.95044231414795 12.262216567993164 0.28543421626091003
12.844825744628906 12.014069557189941 0.33020126819610596
12.878155708312988 11.898394584655762 0.33878087997436523
12.929427146911621 11.799985885620117 0.34255319833755493
12.964649200439453 11.687575340270996 0.3502051830291748
13.004854202270508 11.580404281616211 0.35637593269348145
13.048661231994629 11.477071762084961 0.3614332973957062
13.084274291992188 11.36719036102295 0.3683398365974426
13.127983093261719 11.264981269836426 0.3730210065841675
13.153690338134766 11.148051261901855 0.38196396827697754
13.198805809020996 11.04825496673584 0.3858989179134369
13.207598686218262 10.918899536132812 0.3985539376735687
13.244229316711426 10.81346321105957 0.4041571021080017
13.259414672851562 10.691335678100586 0.4147751033306122
13.300506591796875 10.590848922729492 0.4188896417617798
13.335461616516113 10.486006736755371 0.4243033230304718
13.368856430053711 10.380531311035156 0.4299011826515198
13.406140327453613 10.278623580932617 0.43438053131103516
13.437195777893066 10.172497749328613 0.4401613473892212
13.461160659790039 10.06166934967041 0.44743281602859497
13.497714042663574 9.960845947265625 0.4515341520309448
13.546242713928223 9.869205474853516 0.45264777541160583
13.59335994720459 9.776769638061523 0.45394277572631836
13.630240440368652 9.677299499511719 0.45747366547584534
13.674459457397461 9.583381652832031 0.4591331481933594
13.809334754943848 9.552431106567383 0.43965834379196167
14.122014045715332 9.6414794921875 0.37918365001678467
13.770695686340332 9.278605461120605 0.47157132625579834
13.819586753845215 9.189085960388184 0.4715310335159302
13.867898941040039 9.099312782287598 0.4714844226837158
13.911505699157715 9.006622314453125 0.4723694324493408
13.93877124786377 8.903691291809082 0.4768139123916626
13.945354461669922 8.788195610046387 0.48576250672340393
14.356456756591797 8.924962997436523 0.40343964099884033
14.006936073303223 8.589284896850586 0.4922093451023102
14.048033714294434 8.49661636352539 0.49289175868034363
14.091896057128906 8.405776977539062 0.4928167462348938
14.135171890258789 8.314717292785645 0.4927363395690918
14.186358451843262 8.228367805480957 0.4907671809196472
14.209733963012695 8.126099586486816 0.49482083320617676
14.276021003723145 8.04844856262207 0.48925769329071045
14.300684928894043 7.947390556335449 0.4927389919757843
14.732040405273438 8.069464683532715 0.4069313406944275
14.811959266662598 7.995758056640625 0.3982711136341095
15.163750648498535 8.066170692443848 0.330253928899765
15.731656074523926 0.5588149428367615 0.45765411853790283
12.858657836914062 -0.7271148562431335 1.0093401670455933
12.851661682128906 -0.8058380484580994 1.0080571174621582
15.994023323059082 -1.5956528186798096 0.34261003136634827
15.993250846862793 -1.694743037223816 0.3385028839111328
15.955843925476074 -1.78984534740448 0.3418298661708832
15.848809242248535 -1.8763766288757324 0.3594425916671753
15.998906135559082 -1.9937711954116821 0.3237549066543579
15.765477180480957 -2.0629968643188477 0.36736100912094116
16.024789810180664 -2.197035789489746 0.3086703419685364
15.816672325134277 -2.267467737197876 0.3468858003616333
15.784605979919434 -2.3618156909942627 0.3484364449977875
15.754881858825684 -2.456310987472534 0.3493868410587311
15.583446502685547 -2.5276362895965576 0.3798346221446991
15.670561790466309 -2.6405727863311768 0.3561547100543976
16.086795806884766 -2.812361240386963 0.26327893137931824
15.963586807250977 -2.993211507797241 0.27726560831069946
16.012746810913086 -3.1042895317077637 0.2607732117176056
16.060178756713867 -3.215893030166626 0.2444671243429184
16.061767578125 -3.318883180618286 0.23768113553524017
16.07227325439453 -3.4240570068359375 0.22886058688163757
16.04191780090332 -3.520670175552368 0.2285660058259964
16.068286895751953 -3.6299893856048584 0.21607977151870728
16.044322967529297 -3.7282416820526123 0.2141590118408203
12.657966613769531 12.577949523925781 0.17711548507213593
12.659479141235352 12.426507949829102 0.19592949748039246
12.654685974121094 12.270735740661621 0.21608443558216095
12.98875904083252 11.845952033996582 0.2171662151813507
13.038864135742188 11.746367454528809 0.2212914228439331
13.070639610290527 11.630950927734375 0.22999773919582367
13.08232593536377 11.498737335205078 0.24367442727088928
13.115862846374512 11.386765480041504 0.2514268457889557
13.145543098449707 11.272256851196289 0.2599439024925232
13.183302879333496 11.165422439575195 0.26616403460502625
13.199170112609863 11.040916442871094 0.2777448296546936
13.241250038146973 10.939138412475586 0.2824307680130005
13.263568878173828 10.821744918823242 0.29190632700920105
13.307876586914062 10.72296142578125 0.2956291735172272
13.339954376220703 10.614873886108398 0.30222684144973755
13.374297142028809 10.5092191696167 0.3080553710460663
13.40552043914795 10.40173625946045 0.3144589364528656
13.442944526672363 10.299636840820312 0.3191318213939667
13.474142074584961 10.193321228027344 0.325148344039917
13.508475303649902 10.089944839477539 0.3302018344402313
13.546789169311523 9.990025520324707 0.33409857749938965
13.582799911499023 9.888858795166016 0.33837759494781494
13.616488456726074 9.786476135253906 0.3430396020412445
13.655036926269531 9.68802547454834 0.34634989500045776
13.70012378692627 9.594535827636719 0.34792155027389526
13.751036643981934 9.505317687988281 0.34794408082962036
13.79171085357666 9.286083221435547 0.36207321286201477
13.843092918395996 9.19807243347168 0.36150431632995605
13.875862121582031 9.097943305969238 0.36518344283103943
13.88980484008789 8.986031532287598 0.37311747670173645
13.958306312561035 8.909655570983887 0.3680824637413025
13.940054893493652 8.77840518951416 0.3831818699836731
14.045031547546387 8.60626220703125 0.37986451387405396
14.080351829528809 8.509819030761719 0.3819781243801117
14.12765884399414 8.420798301696777 0.38117656111717224
14.16171646118164 8.324058532714844 0.3832821547985077
14.207003593444824 8.234102249145508 0.3826640546321869
14.249163627624512 8.142441749572754 0.38262319564819336
14.352295875549316 7.969923496246338 0.3778540790081024
14.44867992401123 7.9081292152404785 0.365135133266449
15.751299858093262 0.5546363592147827 0.3533742129802704
12.871223449707031 -0.6527750492095947 0.9272493720054626
12.856860160827637 -0.7311435341835022 0.9276235103607178
12.873270988464355 -0.8113309741020203 0.9214097261428833
16.19521713256836 -1.6207534074783325 0.1973292976617813
15.99773120880127 -1.7001971006393433 0.2349165678024292
15.809617042541504 -1.7783762216567993 0.27048367261886597
15.763975143432617 -1.8712633848190308 0.2756556272506714
15.885729789733887 -1.984636664390564 0.24498853087425232
15.813651084899902 -2.0742626190185547 0.2555491328239441
16.01921844482422 -2.2012953758239746 0.20658084750175476
15.95849323272705 -2.292819023132324 0.2144392877817154
15.840179443359375 -2.3751275539398193 0.2345665842294693
15.746589660644531 -2.459998607635498 0.24931804835796356
15.937376022338867 -2.5900931358337402 0.20273661613464355
16.041303634643555 -2.7081329822540283 0.17462371289730072
16.07693099975586 -2.815737009048462 0.161057248711586
16.15032958984375 -2.9308671951293945 0.1391436606645584
16.036434173583984 -3.011986494064331 0.15765507519245148
15.981684684753418 -3.103379487991333 0.16325846314430237
15.982035636901855 -3.2053699493408203 0.15676605701446533
15.985564231872559 -3.3082761764526367 0.14943479001522064
15.962606430053711 -3.4058403968811035 0.14774207770824432
12.617905616760254 12.385587692260742 0.10154198855161667
12.669960975646973 12.285451889038086 0.10646190494298935
13.775842666625977 9.647723197937012 0.2290918231010437
13.799663543701172 9.53909683227539 0.23590964078903198
13.784717559814453 9.281546592712402 0.2642604410648346
13.840145111083984 9.196293830871582 0.26273155212402344
13.841778755187988 9.07577896118164 0.2741328477859497
13.92061996459961 9.0061616897583 0.2666208744049072
13.947089195251465 8.90269660949707 0.2716476619243622
14.06464958190918 8.618505477905273 0.2765471637248993
14.118500709533691 8.533105850219727 0.2743784785270691
14.177721977233887 8.450879096984863 0.27080345153808594
14.216193199157715 8.356325149536133 0.27201637625694275
14.245563507080078 8.256702423095703 0.275224894285202
14.282753944396973 8.161892890930176 0.27643051743507385
16.184101104736328 0.7692429423332214 0.16846929490566254
15.745828628540039 0.5549452900886536 0.25980329513549805
12.881817817687988 -0.6530419588088989 0.8474453687667847
12.844033241271973 -0.7301473021507263 0.8529490232467651
12.854561805725098 -0.8098837733268738 0.8478826284408569
15.842900276184082 -1.9787575006484985 0.15803322196006775
15.748637199401855 -2.0652148723602295 0.17384138703346252
15.824277877807617 -2.1739838123321533 0.15216508507728577
15.808259963989258 -2.270709991455078 0.15051057934761047
15.846723556518555 -2.3755760192871094 0.13669636845588684
15.911518096923828 -2.485220432281494 0.11689143627882004
15.770071983337402 -2.661822557449341 0.13685539364814758
13.782292366027832 9.273003578186035 0.17192378640174866
13.846625328063965 9.1937255859375 0.1681535840034485
13.876935958862305 9.092005729675293 0.17275215685367584
13.898301124572754 8.984942436218262 0.1793934404850006
13.937033653259277 8.88953971862793 0.18153519928455353
13.981746673583984 8.79817008972168 0.18203586339950562
14.063021659851074 8.259811401367188 0.21687915921211243
15.755777359008789 0.5501863360404968 0.16833893954753876
12.85776138305664 -0.735248863697052 0.776864767074585
12.847770690917969 -0.813779354095459 0.7762659788131714
15.66602897644043 -1.8642690181732178 0.11189331859350204
15.662557601928711 -1.9613981246948242 0.10787209868431091
15.630424499511719 -2.0548720359802246 0.11017917841672897
15.646072387695312 -2.1546790599823 0.10157246142625809
12.852229118347168 -0.7200873494148254 0.6984402537345886
12.848165512084961 -0.7989518642425537 0.696535050868988
12.852210998535156 -0.7264442443847656 0.6154695749282837
12.846152305603027 -0.8051864504814148 0.6140157580375671
12.849794387817383 -0.7237256169319153 0.5355227589607239
12.836952209472656 -0.802029013633728 0.535715639591217
12.841979026794434 -0.7253929972648621 0.4660502076148987
12.845601081848145 -0.8046770095825195 0.46221402287483215
12.835801124572754 -0.7147353887557983 0.38937896490097046
12.833661079406738 -0.7936156392097473 0.38696372509002686
12.822860717773438 -0.7158055305480957 0.3067082166671753
12.846781730651855 -0.7962213158607483 0.29749608039855957
12.819113731384277 -0.713053822517395 0.22882211208343506
12.862292289733887 -0.7946256995201111 0.21430954337120056
12.820712089538574 -0.7175213098526001 0.15862859785556793
12.882089614868164 -0.8002455830574036 0.13890108466148376
12.663623809814453 12.739070892333984 1.2910443544387817
12.679741859436035 12.666751861572266 1.2950471639633179
12.772640228271484 12.759866714477539 0.3746109902858734
12.702131271362305 12.605430603027344 1.29756760597229
12.797158241271973 12.700113296508789 0.3780328035354614
12.722899436950684 12.538395881652832 1.3006540536880493
12.714836120605469 12.530909538269043 0.40787774324417114
12.743355751037598 12.471372604370117 1.303740382194519
12.723041534423828 12.452018737792969 0.41553109884262085
12.765275001525879 12.406082153320312 1.306520700454712
12.78154182434082 12.335626602172852 1.3102184534072876
12.808563232421875 12.271553993225098 1.3123409748077393
31.027454376220703 29.526315689086914 0.33492347598075867
12.829566955566406 12.206267356872559 1.3151202201843262
31.068449020385742 29.35964584350586 0.3390202224254608
12.846668243408203 12.137578010559082 1.318511724472046
31.03814125061035 29.137056350708008 0.3498682975769043
12.86496639251709 12.074556350708008 1.3213353157043457
12.902321815490723 12.110518455505371 0.4285412132740021
32.343666076660156 30.149686813354492 2.399484634399414
31.05550765991211 28.950374603271484 0.35618624091148376
12.883260726928711 12.007606506347656 1.324420690536499
12.926253318786621 12.048641204833984 0.4319164752960205
32.417423248291016 30.007774353027344 2.3982763290405273
31.128660202026367 28.81642723083496 0.3567814230918884
12.910351753234863 11.949102401733398 1.3259716033935547
12.944487571716309 11.981721878051758 0.43657514452934265
32.46113967895508 29.838655471801758 2.3980636596679688
31.236143112182617 28.71438217163086 0.3538590967655182
12.929883003234863 11.883840560913086 1.3287492990493774
12.964226722717285 11.916488647460938 0.4408058524131775
32.540985107421875 29.703292846679688 2.396599769592285
31.30829620361328 28.579999923706055 0.354443222284317
12.952781677246094 11.821928977966309 1.3309125900268555
12.989127159118652 11.856244087219238 0.44375091791152954
32.5532112121582 29.496599197387695 2.3974618911743164
12.975610733032227 11.75607681274414 1.3333370685577393
13.006684303283691 11.785431861877441 0.4487922191619873
32.51652526855469 29.2574462890625 2.3998875617980957
12.992410659790039 11.689160346984863 1.336421012878418
13.032852172851562 11.726805686950684 0.4513075351715088
32.48414993286133 29.023908615112305 2.4021363258361816
13.065159797668457 11.675529479980469 2.1971185207366943
13.018156051635742 11.630535125732422 1.337967872619629
13.055097579956055 11.664856910705566 0.4546792209148407
32.451133728027344 28.801591873168945 2.404320001602173
13.092512130737305 11.622227668762207 2.197359800338745
13.032358169555664 11.565914154052734 1.3410972356796265
13.078742027282715 11.60844612121582 0.45723867416381836
32.517608642578125 28.658432006835938 2.403176784515381
13.108573913574219 11.555041313171387 2.1988532543182373
13.0631685256958 11.51217269897461 1.341719627380371
13.08752727508545 11.535064697265625 0.46361133456230164
32.596649169921875 28.526676177978516 2.4015867710113525
13.128076553344727 11.491168022155762 2.1999752521514893
13.076956748962402 11.443653106689453 1.345110297203064
13.110788345336914 11.474738121032715 0.46655285358428955
32.59098815917969 28.33155632019043 2.4027721881866455
13.152833938598633 11.436138153076172 2.200399398803711
13.094069480895996 11.382342338562012 1.3476238250732422
13.13181209564209 11.416679382324219 0.4695396423339844
32.60822296142578 28.147430419921875 2.4032139778137207
13.166139602661133 11.367365837097168 2.2020785808563232
13.116640090942383 11.321998596191406 1.3494750261306763
13.156425476074219 11.357922554016113 0.47205036878585815
32.60179901123047 27.94401741027832 2.4044229984283447
13.196163177490234 11.313243865966797 2.202082633972168
13.142720222473145 11.264863967895508 1.350709319114685
13.182662963867188 11.300735473632812 0.47413045167922974
32.61632537841797 27.7498779296875 2.40494966506958
13.212737083435059 11.243816375732422 2.203529119491577
13.161059379577637 11.19735050201416 1.3534373044967651
13.201231002807617 11.233217239379883 0.4783109426498413
32.61360168457031 27.55202293395996 2.4059805870056152
13.238463401794434 11.186382293701172 2.2039036750793457
13.186624526977539 11.140156745910645 1.3546693325042725
13.223189353942871 11.17279052734375 0.4812484383583069
32.632877349853516 27.373804092407227 2.40624737739563
13.26012897491455 11.125699996948242 2.2046499252319336
13.20244312286377 11.07494831085205 1.3574436902999878
13.244887351989746 11.112343788146973 0.4841856360435486
32.65322494506836 27.19738006591797 2.4064533710479736
13.277700424194336 11.061810493469238 2.2057690620422363
13.221784591674805 11.01294231414795 1.3596000671386719
13.266325950622559 11.05188274383545 0.48712167143821716
