# .PCD v0.7 - Point Cloud Data file format
VERSION 0.7
FIELDS x y z
SIZE 4 4 4
TYPE F F F
COUNT 1 1 1
WIDTH 848
HEIGHT 1
VIEWPOINT 0 0 0 1 0 0 0
POINTS 848
DATA ascii
19.856897354125977 -18.591032028198242 0.19863732159137726
19.621065139770508 -18.597806930541992 0.2169746458530426
19.440309524536133 -18.654598236083984 0.22581997513771057
12.862431526184082 11.987784385681152 1.8250459432601929
12.932570457458496 11.905973434448242 1.823868989944458
12.895484924316406 11.726707458496094 1.837551236152649
12.898131370544434 11.585572242736816 1.8455029726028442
14.347418785095215 12.72960090637207 1.6535565853118896
14.48108959197998 12.690534591674805 1.6440705060958862
13.079137802124023 11.32090950012207 1.8447036743164062
13.120895385742188 11.217206954956055 1.8467917442321777
13.16643238067627 11.117269515991211 1.848258376121521
13.205894470214844 11.01273250579834 1.8504433631896973
13.251477241516113 10.913822174072266 1.8516963720321655
13.287089347839355 10.807233810424805 1.8541858196258545
13.32111644744873 10.699995040893555 1.856777310371399
13.359004974365234 10.596455574035645 1.85874605178833
13.392996788024902 10.490398406982422 1.8611267805099487
13.430122375488281 10.38736629486084 1.862987756729126
13.46570110321045 10.28366756439209 1.8649498224258423
13.498132705688477 10.178128242492676 1.8672220706939697
13.536157608032227 10.077327728271484 1.8686604499816895
13.576662063598633 9.978799819946289 1.8696794509887695
13.60520076751709 9.87197494506836 1.8721545934677124
13.634556770324707 9.76633358001709 1.8744208812713623
13.682619094848633 9.674483299255371 1.8741787672042847
13.722728729248047 9.577287673950195 1.8748725652694702
13.753153800964355 9.47375774383545 1.876713752746582
13.791049003601074 9.37580394744873 1.8775060176849365
13.834043502807617 9.281620979309082 1.8775612115859985
13.867280960083008 9.181222915649414 1.8787665367126465
13.901473045349121 9.081852912902832 1.8797590732574463
13.948341369628906 8.991028785705566 1.8790667057037354
13.965251922607422 8.881292343139648 1.8820534944534302
14.018404960632324 8.794940948486328 1.8804044723510742
14.04481315612793 8.692046165466309 1.8820186853408813
14.093402862548828 8.603148460388184 1.8807806968688965
14.126096725463867 8.504746437072754 1.8814388513565063
14.167520523071289 8.411852836608887 1.8809304237365723
14.210909843444824 8.32027530670166 1.8800994157791138
14.24423599243164 8.223012924194336 1.8804296255111694
14.275177955627441 8.124669075012207 1.8809690475463867
14.32279109954834 8.03598690032959 1.8793809413909912
14.459474563598633 7.99659538269043 1.866830587387085
15.008270263671875 8.180462837219238 1.803994059562683
15.868149757385254 8.52352523803711 1.7035059928894043
27.466827392578125 14.538503646850586 0.299498587846756
27.491592407226562 14.33665943145752 0.30371609330177307
27.483081817626953 14.118698120117188 0.3117857277393341
27.53592300415039 13.933255195617676 0.3122676908969879
27.50476837158203 13.706448554992676 0.32270997762680054
27.615575790405273 13.551069259643555 0.3159010708332062
27.751468658447266 13.40738582611084 0.30595913529396057
27.939607620239258 13.287737846374512 0.2896501123905182
28.241662979125977 13.219815254211426 0.25963732600212097
28.705554962158203 13.22314167022705 0.21027594804763794
44.892127990722656 8.186580657958984 -1.539884328842163
19.287811279296875 0.7585045695304871 1.387799620628357
19.259052276611328 0.6390987038612366 1.3891081809997559
12.89797306060791 -0.680776834487915 2.105541467666626
12.877497673034668 -0.7589408159255981 2.105736255645752
12.857542037963867 -0.8369448781013489 2.1058175563812256
12.89060115814209 -0.9185398817062378 2.099534034729004
12.781305313110352 -1.3057981729507446 2.0999867916107178
12.714617729187012 -1.3778622150421143 2.105313777923584
12.710662841796875 -1.4563860893249512 2.1030502319335938
12.60772705078125 -1.6015671491622925 2.1098363399505615
12.645694732666016 -1.685288667678833 2.1023364067077637
12.64770793914795 -1.764601469039917 2.0991220474243164
12.614835739135742 -1.8389942646026611 2.1000874042510986
12.518709182739258 -1.9035061597824097 2.108715295791626
20.19925308227539 -6.479811668395996 1.0064291954040527
20.1474666595459 -6.599873065948486 1.0052211284637451
20.157087326049805 -6.7403130531311035 0.9958896636962891
19.05344581604004 -6.632505893707275 1.1247200965881348
19.01114273071289 -6.748911380767822 1.122307300567627
20.307138442993164 -7.349579334259033 0.9423930644989014
19.032304763793945 -7.153754234313965 1.0947707891464233
19.11191177368164 -7.317890167236328 1.0756076574325562
19.030277252197266 -7.4209160804748535 1.0779021978378296
20.316606521606445 -8.502915382385254 0.8667831420898438
19.081947326660156 -8.26306438446045 1.0161460638046265
19.057804107666016 -8.391938209533691 1.0098419189453125
19.087127685546875 -8.545149803161621 0.9960260987281799
28.33323097229004 -13.743021011352539 -0.35796859860420227
28.319067001342773 -13.951610565185547 -0.37184131145477295
28.302522659301758 -14.160100936889648 -0.3855976164340973
28.263248443603516 -14.358132362365723 -0.39633533358573914
28.22701644897461 -14.558490753173828 -0.40770766139030457
28.155107498168945 -14.741003036499023 -0.414154976606369
27.650163650512695 -14.693708419799805 -0.3582371473312378
27.533672332763672 -14.849365234375 -0.35828518867492676
27.413700103759766 -15.00271987915039 -0.35793495178222656
27.285076141357422 -15.15083122253418 -0.3564256727695465
27.179006576538086 -15.311078071594238 -0.35832351446151733
20.522836685180664 -13.105875968933105 0.49190351366996765
20.197696685791016 -13.073613166809082 0.5266615748405457
19.964962005615234 -13.097697257995605 0.5473912954330444
19.717836380004883 -13.10954475402832 0.5704813003540039
19.51985740661621 -13.15155029296875 0.5860484838485718
19.337678909301758 -13.202248573303223 0.5992138385772705
19.263275146484375 -13.325678825378418 0.5954323410987854
19.22625160217285 -13.475443840026855 0.5856061577796936
19.210752487182617 -13.64133358001709 0.5721683502197266
19.211647033691406 -13.820279121398926 0.5558842420578003
19.21026039123535 -13.999165534973145 0.5397161841392517
19.216968536376953 -14.185620307922363 0.5219851136207581
19.212570190429688 -14.365559577941895 0.5057904124259949
19.21933364868164 -14.55555534362793 0.48751309514045715
19.208742141723633 -14.734106063842773 0.4718109965324402
19.231914520263672 -14.940444946289062 0.4502641260623932
19.221317291259766 -15.122488975524902 0.4340168833732605
19.22859001159668 -15.320408821105957 0.41451185941696167
19.23029327392578 -15.515872955322266 0.3956407606601715
19.232614517211914 -15.713815689086914 0.37636423110961914
19.205720901489258 -15.889619827270508 0.36175867915153503
19.307355880737305 -16.1745548248291 0.3248678147792816
19.254222869873047 -16.332426071166992 0.31414180994033813
19.28110694885254 -16.560016632080078 0.2893219590187073
19.274492263793945 -16.761226654052734 0.26996418833732605
12.828067779541016 12.099082946777344 1.7187222242355347
12.888711929321289 12.007978439331055 1.7190864086151123
12.885817527770996 11.858681678771973 1.7287477254867554
12.92939281463623 11.753344535827637 1.731379508972168
14.106730461120605 12.666878700256348 1.5677764415740967
14.27165699005127 12.657964706420898 1.5532348155975342
14.442978858947754 12.652740478515625 1.5377920866012573
13.105415344238281 11.339620590209961 1.7404662370681763
13.11630630493164 11.2092924118042 1.7472153902053833
13.161035537719727 11.108757019042969 1.7489632368087769
13.207316398620605 11.010003089904785 1.750380516052246
13.243673324584961 10.90351390838623 1.7531019449234009
13.277682304382324 10.795741081237793 1.7560397386550903
13.305442810058594 10.683601379394531 1.7597410678863525
13.339339256286621 10.57708740234375 1.7624585628509521
13.388082504272461 10.48281478881836 1.7629868984222412
13.407866477966309 10.36645221710205 1.7674518823623657
13.463858604431152 10.278593063354492 1.7667678594589233
13.490705490112305 10.168892860412598 1.7700257301330566
13.527081489562988 10.066967010498047 1.7718567848205566
13.566720008850098 9.96791934967041 1.7731356620788574
13.59760856628418 9.86292552947998 1.7755112648010254
13.643074035644531 9.76892375946045 1.7757941484451294
13.683029174804688 9.671292304992676 1.7767332792282104
13.713336944580078 9.567279815673828 1.7788821458816528
13.75516128540039 9.471715927124023 1.7793740034103394
13.7872896194458 9.369850158691406 1.7810767889022827
13.830243110656738 9.2756986618042 1.7812296152114868
13.853497505187988 9.168753623962402 1.7839243412017822
13.887613296508789 9.069479942321777 1.7850676774978638
13.921869277954102 8.970670700073242 1.7860978841781616
13.962983131408691 8.876582145690918 1.7861260175704956
14.005152702331543 8.783381462097168 1.7859277725219727
14.035717010498047 8.683196067810059 1.787170648574829
14.06134033203125 8.580378532409668 1.7889686822891235
14.108366966247559 8.490898132324219 1.7878680229187012
14.154827117919922 8.401161193847656 1.7867614030838013
14.193855285644531 8.307156562805176 1.7865418195724487
14.233124732971191 8.213485717773438 1.7862062454223633
14.267459869384766 8.117186546325684 1.7864257097244263
14.306350708007812 8.023691177368164 1.7859699726104736
14.452462196350098 7.989650249481201 1.7716097831726074
15.004406929016113 8.1752347946167 1.7050434350967407
15.875158309936523 8.524066925048828 1.5977967977523804
27.470685958862305 14.53569221496582 0.11807437241077423
27.479589462280273 14.325584411621094 0.1247294545173645
27.53026008605957 14.138157844543457 0.12587206065654755
27.553956985473633 13.937637329101562 0.13028118014335632
27.5557804107666 13.727167129516602 0.13728941977024078
27.589956283569336 13.53382682800293 0.14001289010047913
27.71942710876465 13.387255668640137 0.13052232563495636
27.95042610168457 13.288241386413574 0.10810152441263199
19.27760124206543 0.7554645538330078 1.276311993598938
19.25181007385254 0.6362247467041016 1.2774467468261719
19.316564559936523 0.5197941660881042 1.2674013376235962
12.885848999023438 -0.682167112827301 2.0315823554992676
12.86437702178955 -0.7601968050003052 2.031993865966797
12.876102447509766 -0.8401814699172974 2.028209686279297
12.699453353881836 -1.4571330547332764 2.029674768447876
12.628999710083008 -1.5276198387145996 2.035737991333008
20.205320358276367 -6.3482537269592285 0.8894351720809937
20.163755416870117 -6.47145414352417 0.8870078325271606
20.153480529785156 -6.604885101318359 0.8802065253257751
20.130098342895508 -6.734344482421875 0.8750778436660767
18.9787540435791 -6.479109287261963 1.0249254703521729
18.97484016418457 -6.6081061363220215 1.0173627138137817
18.95416831970215 -6.731659889221191 1.01199209690094
18.953203201293945 -6.862635612487793 1.0037736892700195
18.95599365234375 -6.995570182800293 0.9949013590812683
18.977296829223633 -7.403316497802734 0.9656418561935425
18.96803855895996 -8.355607986450195 0.9006891846656799
18.923309326171875 -8.475028038024902 0.8971033692359924
19.000545501708984 -8.650068283081055 0.8757045269012451
19.15191650390625 -8.861336708068848 0.8432619571685791
19.341766357421875 -9.093761444091797 0.8048641085624695
20.637710571289062 -13.005572319030762 0.3462183475494385
20.42348289489746 -13.046553611755371 0.3648200035095215
20.10638427734375 -13.018620491027832 0.40006086230278015
19.861669540405273 -13.034050941467285 0.4238576889038086
19.657146453857422 -13.07331371307373 0.4412734806537628
19.45536231994629 -13.112224578857422 0.4583303928375244
19.309497833251953 -13.187154769897461 0.4662996530532837
19.234352111816406 -13.309845924377441 0.4626051187515259
19.173839569091797 -13.44291877746582 0.4563627541065216
19.42345428466797 -13.796648025512695 0.39830338954925537
19.334819793701172 -13.913199424743652 0.39620307087898254
19.204647064208984 -13.999420166015625 0.4009896516799927
19.20567512512207 -14.181678771972656 0.38353508710861206
19.207563400268555 -14.366256713867188 0.3656623661518097
19.213430404663086 -14.555578231811523 0.3468294143676758
19.218475341796875 -14.746113777160645 0.32784590125083923
19.211727142333984 -14.929357528686523 0.31060758233070374
19.21979522705078 -15.12593936920166 0.2905120253562927
19.225393295288086 -15.322564125061035 0.27053597569465637
19.222352981567383 -15.514225959777832 0.2517651319503784
19.21997833251953 -15.708306312561035 0.23257377743721008
19.196855545043945 -15.887152671813965 0.2167649269104004
19.208703994750977 -16.096847534179688 0.1944202035665512
19.235315322875977 -16.32138442993164 0.1690635085105896
19.31549072265625 -16.594619750976562 0.1336052119731903
19.239038467407227 -16.735523223876953 0.1261882483959198
12.773502349853516 12.217782020568848 1.6098498106002808
12.834954261779785 12.12692928314209 1.6103262901306152
12.85291862487793 11.99578857421875 1.6175205707550049
12.935503005981445 11.92548656463623 1.6144522428512573
12.936906814575195 11.781044960021973 1.6239292621612549
12.979870796203613 11.675568580627441 1.6267869472503662
13.024999618530273 11.572647094726562 1.629184365272522
13.071596145629883 11.471576690673828 1.6312352418899536
13.148221969604492 11.397045135498047 1.6285862922668457
13.095379829406738 11.211530685424805 1.6455262899398804
13.14924430847168 11.118816375732422 1.6460827589035034
13.19483757019043 11.01949405670166 1.6477811336517334
13.236645698547363 10.917501449584961 1.6499356031417847
13.279239654541016 10.816664695739746 1.6518566608428955
13.289361000061035 10.690189361572266 1.6584932804107666
13.333436012268066 10.591798782348633 1.659951090812683
13.37680435180664 10.493269920349121 1.6614047288894653
13.411615371704102 10.388524055480957 1.6640088558197021
13.443279266357422 10.281933784484863 1.6669573783874512
13.477312088012695 10.177740097045898 1.6694426536560059
13.511370658874512 10.07411003112793 1.6718106269836426
13.551868438720703 9.975741386413574 1.673134684562683
13.594881057739258 9.879590034484863 1.6739921569824219
13.62673282623291 9.775758743286133 1.6763527393341064
13.665929794311523 9.677648544311523 1.6775513887405396
13.705252647399902 9.57999324798584 1.6786304712295532
13.736534118652344 9.477142333984375 1.6807527542114258
13.77774429321289 9.381534576416016 1.6813606023788452
13.814176559448242 9.283005714416504 1.6825464963912964
13.856541633605957 9.188773155212402 1.6827970743179321
13.877494812011719 9.080774307250977 1.6859605312347412
13.923513412475586 8.989563941955566 1.6855037212371826
13.942967414855957 8.881587982177734 1.6886658668518066
13.992735862731934 8.793261528015137 1.6874995231628418
14.03012752532959 8.697333335876465 1.6879661083221436
14.069413185119629 8.602828979492188 1.6880773305892944
14.099560737609863 8.50304126739502 1.6893576383590698
14.15121078491211 8.416403770446777 1.6875828504562378
14.19118881225586 8.322919845581055 1.687328815460205
14.226256370544434 8.226775169372559 1.6876583099365234
14.259815216064453 8.130021095275879 1.6881023645401
14.30224609375 8.038515090942383 1.6872467994689941
14.371888160705566 7.962191581726074 1.6826106309890747
15.032044410705566 8.2079496383667 1.5978995561599731
15.889836311340332 8.550348281860352 1.4867877960205078
19.251741409301758 0.7719739079475403 1.1637141704559326
19.250837326049805 0.6537119746208191 1.1618448495864868
19.265077590942383 0.5359292030334473 1.157936453819275
12.884747505187988 -0.6695455312728882 1.9543530941009521
12.859394073486328 -0.7473517656326294 1.9553815126419067
12.878104209899902 -0.8277369141578674 1.9505926370620728
19.7355899810791 -6.048475742340088 0.8375877141952515
19.470806121826172 -6.098320960998535 0.8672240972518921
19.329801559448242 -6.1847100257873535 0.8793016076087952
19.246875762939453 -6.288684368133545 0.8830615878105164
18.965070724487305 -6.325719356536865 0.9152761697769165
18.947134017944336 -6.449262619018555 0.9096506834030151
18.9124813079834 -6.567299842834473 0.9063196778297424
18.895771026611328 -6.691772937774658 0.9002879858016968
18.892221450805664 -6.82133674621582 0.8922252058982849
18.88593101501465 -6.95042610168457 0.8844274878501892
18.916797637939453 -7.093960762023926 0.8710681200027466
18.898483276367188 -7.219749927520752 0.864747941493988
18.924577713012695 -7.363186836242676 0.8517726063728333
18.920141220092773 -7.495539665222168 0.8431317806243896
18.979106903076172 -7.654054641723633 0.8249639272689819
18.969011306762695 -7.785738468170166 0.8168472647666931
18.974464416503906 -7.924459934234619 0.8062731623649597
18.974365234375 -8.061605453491211 0.7963722944259644
18.913206100463867 -8.311278343200684 0.7852922081947327
18.78643035888672 -8.393579483032227 0.7941122651100159
18.964208602905273 -8.613104820251465 0.7566936016082764
18.969104766845703 -8.756239891052246 0.7452490329742432
18.9666748046875 -8.896817207336426 0.7347546815872192
18.956077575683594 -9.034285545349121 0.7253506779670715
18.99264144897461 -9.195269584655762 0.7085233926773071
19.185264587402344 -9.434410095214844 0.6673445105552673
20.67491912841797 -13.003951072692871 0.19487901031970978
20.501636505126953 -13.071415901184082 0.20757529139518738
20.13869857788086 -13.014707565307617 0.2521544098854065
19.892383575439453 -13.029462814331055 0.27738770842552185
19.650785446166992 -13.044431686401367 0.30197566747665405
19.469738006591797 -13.09727954864502 0.31639552116394043
19.301057815551758 -13.156766891479492 0.3287495970726013
19.219558715820312 -13.274895668029785 0.32613110542297363
19.194931030273438 -13.432825088500977 0.3135574460029602
19.22157859802246 -13.628179550170898 0.2918475270271301
19.167741775512695 -13.7677583694458 0.28389403223991394
19.227388381958008 -13.990492820739746 0.2558245062828064
19.228429794311523 -14.172770500183105 0.23772203922271729
19.208911895751953 -14.341368675231934 0.22298771142959595
19.21725845336914 -14.53235912322998 0.20302806794643402
19.209829330444336 -14.713152885437012 0.18559259176254272
19.203243255615234 -14.896224021911621 0.16772234439849854
19.235607147216797 -15.111570358276367 0.1424901783466339
19.242799758911133 -15.309383392333984 0.12147887051105499
19.237489700317383 -15.49915599822998 0.10243257135152817
17.018375396728516 -16.51473045349121 0.20663446187973022
13.290183067321777 13.01842212677002 1.3850616216659546
12.74382495880127 12.331231117248535 1.4887845516204834
12.780203819274902 12.215799331665039 1.4937076568603516
12.769453048706055 12.056764602661133 1.506330132484436
12.944538116455078 12.073015213012695 1.487899899482727
13.131245613098145 12.097657203674316 1.4676274061203003
12.969993591308594 11.803086280822754 1.504591703414917
13.112017631530762 11.786362648010254 1.4915258884429932
14.073075294494629 12.495318412780762 1.3452328443527222
14.229026794433594 12.478804588317871 1.3305606842041016
13.15555477142334 11.395593643188477 1.5140876770019531
13.105013847351074 11.212087631225586 1.531703233718872
13.152809143066406 11.114203453063965 1.5333497524261475
13.196846961975098 11.0136079788208 1.5354763269424438
13.221766471862793 10.897738456726074 1.540511131286621
13.275014877319336 10.805788040161133 1.5409328937530518
13.293594360351562 10.686232566833496 1.5466954708099365
13.33686351776123 10.58721923828125 1.548447608947754
13.370829582214355 10.481338500976562 1.5515344142913818
13.416556358337402 10.385163307189941 1.5526715517044067
13.439528465270996 10.271941184997559 1.5572168827056885
13.48221492767334 10.174372673034668 1.5585917234420776
13.525806427001953 10.077853202819824 1.5597184896469116
13.555928230285645 9.971769332885742 1.5627961158752441
13.590079307556152 9.869194030761719 1.5651391744613647
13.618642807006836 9.763104438781738 1.5682148933410645
13.66262149810791 9.668501853942871 1.5688399076461792
13.702698707580566 9.571452140808105 1.5699506998062134
13.741283416748047 9.473710060119629 1.571180820465088
13.78328800201416 9.378643989562988 1.5717933177947998
13.808990478515625 9.272907257080078 1.5747367143630981
13.852943420410156 9.179815292358398 1.5748509168624878
13.888798713684082 9.081644058227539 1.5760682821273804
13.915632247924805 8.977997779846191 1.578514814376831
13.954277992248535 8.882354736328125 1.5791106224060059
13.99815559387207 8.79026985168457 1.5788389444351196
14.040587425231934 8.697456359863281 1.5786854028701782
14.066317558288574 8.594619750976562 1.5808762311935425
14.105765342712402 8.500503540039062 1.5809627771377563
14.151412963867188 8.410280227661133 1.5800541639328003
14.191347122192383 8.316803932189941 1.5798835754394531
14.225513458251953 8.220173835754395 1.580452561378479
14.257303237915039 8.122454643249512 1.5812667608261108
14.298813819885254 8.030485153198242 1.5805870294570923
14.380532264709473 7.960896968841553 1.574055790901184
15.018500328063965 8.194291114807129 1.4879522323608398
15.248229026794434 8.198822975158691 1.4603850841522217
19.24852752685547 0.7661466002464294 1.0375653505325317
19.244609832763672 0.6478068232536316 1.0361299514770508
19.264728546142578 0.5302241444587708 1.0313482284545898
12.897216796875 -0.6742771863937378 1.8678189516067505
12.868874549865723 -0.7519815564155579 1.8693875074386597
12.866761207580566 -0.8310883641242981 1.8672951459884644
27.854915618896484 -5.8092780113220215 -0.35263219475746155
27.754411697387695 -6.144737243652344 -0.3562316298484802
19.858524322509766 -5.959452152252197 0.6913229823112488
19.4918270111084 -5.980088710784912 0.7376444339752197
19.232397079467773 -6.029925346374512 0.7681460380554199
19.057964324951172 -6.103984832763672 0.7860262393951416
19.03390884399414 -6.2253737449646 0.7813774943351746
18.928321838378906 -6.319736957550049 0.7888711094856262
18.853221893310547 -6.423579216003418 0.7917233109474182
18.85330581665039 -6.553064346313477 0.7831329107284546
18.84317398071289 -6.6794867515563965 0.775951623916626
18.834060668945312 -6.806705951690674 0.7684835195541382
18.838956832885742 -6.939540863037109 0.7587421536445618
18.835512161254883 -7.069910526275635 0.750128448009491
18.836719512939453 -7.202621936798096 0.7406563758850098
18.831470489501953 -7.333461284637451 0.7320302724838257
18.837284088134766 -7.469250202178955 0.7215484976768494
18.860492706298828 -7.61279821395874 0.7082098722457886
18.867076873779297 -7.750519275665283 0.697280764579773
18.869937896728516 -7.8874640464782715 0.6867705583572388
18.869091033935547 -8.023574829101562 0.6766807436943054
18.880001068115234 -8.165473937988281 0.6645826101303101
18.88353157043457 -8.305020332336426 0.6534752249717712
18.88605499267578 -8.444917678833008 0.6423592567443848
18.92000389099121 -8.599905014038086 0.6260759234428406
18.91681671142578 -8.73902416229248 0.6155120134353638
18.919797897338867 -8.881793975830078 0.6037922501564026
18.92441177368164 -9.026208877563477 0.591632604598999
18.9012451171875 -9.158069610595703 0.5837755799293518
18.952640533447266 -9.327129364013672 0.5636867880821228
18.97079849243164 -9.481237411499023 0.5487593412399292
16.562820434570312 -8.405360221862793 0.9298462867736816
16.458698272705078 -8.480045318603516 0.9361311197280884
16.70414924621582 -8.736751556396484 0.8848397731781006
16.618515014648438 -8.953655242919922 0.8764503002166748
16.649742126464844 -9.102875709533691 0.8597435355186462
16.337980270385742 -9.06322956085205 0.9002243280410767
16.32828712463379 -9.18946647644043 0.8901970982551575
16.264379501342773 -9.28551197052002 0.8891568779945374
16.18364143371582 -9.37170124053955 0.8908841609954834
16.322568893432617 -9.58652114868164 0.8551402688026428
16.18149185180664 -9.637846946716309 0.8668959140777588
19.87070655822754 -13.023946762084961 0.12369920313358307
19.626829147338867 -13.037196159362793 0.14997631311416626
19.449199676513672 -13.092140197753906 0.1645941585302353
19.2830810546875 -13.153204917907715 0.1771959513425827
19.21216583251953 -13.278532981872559 0.1726738065481186
19.18985939025879 -13.438097953796387 0.15920642018318176
19.199392318725586 -13.621355056762695 0.13971103727817535
19.184898376464844 -13.789073944091797 0.12431610375642776
12.881558418273926 12.935434341430664 1.3205739259719849
12.711763381958008 12.609553337097168 1.363416075706482
12.691518783569336 12.436226844787598 1.3791065216064453
12.733068466186523 12.32503604888916 1.383594274520874
12.713508605957031 12.156210899353027 1.3986735343933105
12.735633850097656 12.028964042663574 1.406193494796753
12.882153511047363 12.01898193359375 1.3918688297271729
13.015166282653809 11.994878768920898 1.379916787147522
12.956185340881348 11.794622421264648 1.4010738134384155
13.09711742401123 11.632840156555176 1.3982425928115845
13.102331161499023 11.494725227355957 1.4077757596969604
13.051629066467285 11.309562683105469 1.426573634147644
13.096364974975586 11.208662033081055 1.4290186166763306
13.145657539367676 11.112119674682617 1.4305707216262817
13.18969440460205 11.011578559875488 1.4328806400299072
13.233755111694336 10.91154670715332 1.4350600242614746
13.257862091064453 10.79572868347168 1.4404181241989136
13.284913063049316 10.683134078979492 1.4451403617858887
13.328171730041504 10.584181785583496 1.4470583200454712
13.3699369430542 10.484489440917969 1.4490998983383179
13.408629417419434 10.382858276367188 1.4515217542648315
13.438701629638672 10.275123596191406 1.4552183151245117
13.471124649047852 10.169798851013184 1.4584027528762817
13.505147933959961 10.066241264343262 1.4612020254135132
13.551989555358887 9.972640037536621 1.4618221521377563
13.58053970336914 9.86601734161377 1.4652570486068726
13.612324714660645 9.762309074401855 1.4680503606796265
13.656299591064453 9.667749404907227 1.4687881469726562
13.696375846862793 9.570745468139648 1.4700349569320679
13.73496150970459 9.473048210144043 1.4714070558547974
13.77286434173584 9.375237464904785 1.4727755784988403
13.803499221801758 9.272892951965332 1.475171446800232
13.838358879089355 9.173809051513672 1.4767922163009644
13.879161834716797 9.078990936279297 1.4773786067962646
13.908493995666504 8.97702407836914 1.4796390533447266
13.940442085266113 8.877169609069824 1.4813815355300903
13.993521690368652 8.790975570678711 1.4797595739364624
14.015725135803223 8.685656547546387 1.4827892780303955
14.062546730041504 8.595911026000977 1.481933355331421
14.101152420043945 8.501307487487793 1.4822382926940918
14.145092010498047 8.410100936889648 1.481630802154541
14.183311462402344 8.315665245056152 1.4817970991134644
14.214038848876953 8.217103958129883 1.4829988479614258
14.242369651794434 8.1174955368042 1.4844584465026855
14.29162311553955 8.029991149902344 1.4826620817184448
14.366357803344727 7.956597805023193 1.4769504070281982
14.808831214904785 8.0835542678833 1.4160724878311157
15.233290672302246 8.194567680358887 1.3580894470214844
19.24155044555664 0.7700347900390625 0.9222040176391602
19.21785545349121 0.6510650515556335 0.923608660697937
19.260730743408203 0.5342843532562256 0.9155163168907166
12.867249488830566 -0.7493594288825989 1.791784405708313
12.856247901916504 -0.8278831243515015 1.7909501791000366
19.769794464111328 -5.928160190582275 0.5797818899154663
19.48487091064453 -5.973353862762451 0.6155540347099304
19.223752975463867 -6.022671222686768 0.6477291584014893
19.087139129638672 -6.1088080406188965 0.6605893969535828
18.849594116210938 -6.16062593460083 0.6892012357711792
18.820451736450195 -6.279248237609863 0.6852247714996338
18.833635330200195 -6.41240930557251 0.6744793057441711
18.80851173400879 -6.532990455627441 0.6696166396141052
18.804059982299805 -6.661101341247559 0.6613633036613464
18.805252075195312 -6.7917561531066895 0.6520717740058899
18.812973022460938 -6.925411224365234 0.6415917873382568
18.82160758972168 -7.060112953186035 0.6308081746101379
18.82097625732422 -7.192005634307861 0.6213467121124268
18.81667137145996 -7.323082447052002 0.6123221516609192
18.817895889282227 -7.45692777633667 0.6022549271583557
18.83560562133789 -7.598094940185547 0.5893624424934387
18.849544525146484 -7.738633155822754 0.5769034624099731
18.85059928894043 -7.874675273895264 0.5663644075393677
18.845230102539062 -8.008703231811523 0.5567091107368469
18.864336013793945 -8.153946876525879 0.5428822040557861
18.86968994140625 -8.294157981872559 0.5311272144317627
18.865001678466797 -8.430709838867188 0.5208532214164734
18.888151168823242 -8.580601692199707 0.5057992935180664
18.884132385253906 -8.719078063964844 0.4950603246688843
18.889862060546875 -8.862868309020996 0.4825214445590973
19.16497802734375 -9.135960578918457 0.4246728718280792
19.11260986328125 -9.255483627319336 0.4213548004627228
18.95125389099121 -9.321477890014648 0.43631067872047424
16.628040313720703 -8.306157112121582 0.8175641894340515
16.550838470458984 -8.395013809204102 0.8196808099746704
16.4547176361084 -8.473733901977539 0.8249624371528625
16.23996925354004 -8.489768028259277 0.8505414724349976
16.658828735351562 -8.839410781860352 0.7671769261360168
16.217437744140625 -8.733318328857422 0.8317373394966125
15.937633514404297 -8.70937442779541 0.8687029480934143
16.164546966552734 -8.962736129760742 0.8175842761993408
16.14853286743164 -9.08399772644043 0.8084700107574463
16.270734786987305 -9.284764289855957 0.7749026417732239
16.187435150146484 -9.369524002075195 0.7772403359413147
16.098594665527344 -9.45061206817627 0.7804983854293823
16.113847732543945 -9.593154907226562 0.7651660442352295
16.014551162719727 -9.667793273925781 0.7701054811477661
12.63029670715332 12.669690132141113 1.2620902061462402
12.649742126464844 12.534770965576172 1.2713274955749512
12.702720642089844 12.43406867980957 1.2741169929504395
12.747102737426758 12.325607299804688 1.278351068496704
12.746912956237793 12.175298690795898 1.290623664855957
12.779248237609863 12.057433128356934 1.296704649925232
12.843249320983887 11.97004508972168 1.2968451976776123
12.88259506225586 11.8601655960083 1.3013371229171753
12.907148361206055 11.737581253051758 1.3083387613296509
12.966076850891113 11.64693832397461 1.308992862701416
13.008068084716797 11.541539192199707 1.3125520944595337
13.052240371704102 11.438675880432129 1.3155790567398071
13.041687965393066 11.288991928100586 1.3281461000442505
13.099853515625 11.199775695800781 1.3283876180648804
13.14454174041748 11.099397659301758 1.330878496170044
13.187732696533203 10.99825668334961 1.3334987163543701
13.225590705871582 10.893220901489258 1.3369131088256836
13.258811950683594 10.785004615783691 1.3409903049468994
13.29507064819336 10.67989730834961 1.3444011211395264
13.328210830688477 10.572898864746094 1.3482096195220947
13.366002082824707 10.470174789428711 1.351083755493164
13.403820037841797 10.367989540100098 1.3538219928741455
13.438526153564453 10.26392936706543 1.3569583892822266
13.474045753479004 10.161025047302246 1.359825849533081
13.506423950195312 10.056295394897461 1.363092064857483
13.540423393249512 9.953310012817383 1.3659557104110718
13.572866439819336 9.849703788757324 1.3689512014389038
13.612605094909668 9.751843452453613 1.370605707168579
13.658936500549316 9.659016609191895 1.371049404144287
13.694892883300781 9.559179306030273 1.373098373413086
13.726058959960938 9.456452369689941 1.3758164644241333
13.767952919006348 9.36150074005127 1.376651406288147
13.805087089538574 9.263630867004395 1.3781546354293823
13.842365264892578 9.166202545166016 1.3795201778411865
13.8648681640625 9.059449195861816 1.3831725120544434
13.90906810760498 8.96726131439209 1.3831855058670044
13.953495025634766 8.875404357910156 1.3830580711364746
13.985570907592773 8.775962829589844 1.3848158121109009
14.02958869934082 8.684284210205078 1.3845444917678833
14.062015533447266 8.585680961608887 1.3860260248184204
14.102250099182129 8.492117881774902 1.386151671409607
14.142717361450195 8.39888858795166 1.3861372470855713
14.181717872619629 8.30497932434082 1.3862539529800415
14.210660934448242 8.205455780029297 1.3878586292266846
14.235474586486816 8.103927612304688 1.3900046348571777
14.287224769592285 8.017921447753906 1.3878012895584106
14.40953540802002 7.970914840698242 1.374438762664795
14.75272274017334 8.043185234069824 1.3264809846878052
15.261371612548828 8.19970703125 1.2528339624404907
19.22197914123535 0.7599217295646667 0.8117905855178833
19.226905822753906 0.6420469284057617 0.8091431856155396
19.251876831054688 0.5247064232826233 0.8034393191337585
12.861934661865234 -0.755565881729126 1.7166367769241333
12.861748695373535 -0.8347567915916443 1.7142159938812256
19.937847137451172 -5.855874538421631 0.43912726640701294
19.630409240722656 -5.89675235748291 0.479990690946579
19.40638542175293 -5.959608554840088 0.5075318217277527
19.13613510131836 -6.005447864532471 0.542593240737915
18.9695987701416 -6.081378936767578 0.5609442591667175
18.80755615234375 -6.157033920288086 0.5785706639289856
18.783100128173828 -6.27696418762207 0.5737786293029785
18.768165588378906 -6.400336265563965 0.5673052668571472
18.836427688598633 -6.552978515625 0.5470593571662903
18.804790496826172 -6.671684741973877 0.5430203080177307
18.804000854492188 -6.8016767501831055 0.533772885799408
18.793973922729492 -6.928836345672607 0.5258995294570923
18.783092498779297 -7.056130886077881 0.5180221199989319
18.810115814208984 -7.198383808135986 0.5036884546279907
18.80110740661621 -7.327602863311768 0.49518346786499023
18.793054580688477 -7.457712650299072 0.4863659143447876
18.821672439575195 -7.6031718254089355 0.4712298512458801
18.827274322509766 -7.740248680114746 0.4597773849964142
18.83736801147461 -7.879969596862793 0.44739067554473877
18.809173583984375 -8.00424861907959 0.44132256507873535
18.85814094543457 -8.162222862243652 0.4219689965248108
18.81453514099121 -8.280911445617676 0.4182097315788269
16.45970344543457 -7.365743160247803 0.8108598589897156
16.45341682434082 -7.484548091888428 0.8018432259559631
16.357505798339844 -7.562520503997803 0.8081626892089844
16.31848907470703 -7.66648006439209 0.8045752048492432
16.412548065185547 -7.83406400680542 0.7777100205421448
18.955039978027344 -9.190666198730469 0.3227340579032898
16.57856559753418 -8.164817810058594 0.7269909381866455
16.529560089111328 -8.26722526550293 0.7244546413421631
16.36453628540039 -8.310758590698242 0.7423178553581238
16.439308166503906 -8.476137161254883 0.7176842093467712
16.51265525817871 -8.642746925354004 0.6930226683616638
16.20858383178711 -8.610885620117188 0.7355852127075195
16.094219207763672 -8.677324295043945 0.7443355917930603
16.016050338745117 -8.762595176696777 0.7465452551841736
16.218978881835938 -9.003483772277832 0.6977854371070862
16.318838119506836 -9.1904935836792 0.6672735810279846
16.037931442260742 -9.162554740905762 0.7059522867202759
15.985318183898926 -9.26321792602539 0.703006386756897
16.126216888427734 -9.477656364440918 0.6643038392066956
16.08096694946289 -9.584468841552734 0.6596164703369141
16.085723876953125 -9.721728324890137 0.645507276058197
12.609183311462402 12.666260719299316 1.1566460132598877
12.64765739440918 12.550320625305176 1.1626567840576172
12.684479713439941 12.433691024780273 1.1688034534454346
12.72817611694336 12.324660301208496 1.1734360456466675
12.773164749145508 12.21761417388916 1.1776525974273682
12.787080764770508 12.081911087036133 1.1876533031463623
12.845436096191406 11.989069938659668 1.1889724731445312
12.855073928833008 11.85166072845459 1.1993907690048218
12.901593208312988 11.749258041381836 1.2026361227035522
12.939241409301758 11.639444351196289 1.2073971033096313
12.980472564697266 11.533557891845703 1.2113271951675415
13.01642894744873 11.423681259155273 1.216084599494934
13.047785758972168 11.310554504394531 1.2215330600738525
13.09253978729248 11.209709167480469 1.2243492603302002
13.12520694732666 11.099149703979492 1.2292410135269165
13.16917610168457 10.998764991760254 1.2319128513336182
13.204004287719727 10.891325950622559 1.2361080646514893
13.234941482543945 10.781371116638184 1.2408571243286133
13.269659042358398 10.675169944763184 1.244771957397461
13.304348945617676 10.569562911987305 1.2485463619232178
13.342918395996094 10.467598915100098 1.2514840364456177
13.380742073059082 10.365557670593262 1.254418969154358
13.415456771850586 10.261640548706055 1.2577697038650513
13.454143524169922 10.16126823425293 1.2602815628051758
13.486547470092773 10.056661605834961 1.2637676000595093
13.522164344787598 9.954975128173828 1.2665542364120483
13.555441856384277 9.852062225341797 1.2696179151535034
13.59681510925293 9.755465507507324 1.2711411714553833
13.634284973144531 9.656441688537598 1.2732210159301758
13.67348575592041 9.559024810791016 1.2748773097991943
13.709561347961426 9.459802627563477 1.2769508361816406
13.745755195617676 9.361053466796875 1.278881311416626
13.776323318481445 9.258901596069336 1.2816511392593384
13.814408302307129 9.16219711303711 1.2830150127410889
13.853483200073242 9.06645679473877 1.284094214439392
13.886914253234863 8.967358589172363 1.2860134840011597
13.92215633392334 8.86978530883789 1.287508249282837
13.968461990356445 8.779491424560547 1.2870275974273682
14.005767822265625 8.683743476867676 1.287950873374939
14.040738105773926 8.586835861206055 1.289152979850769
14.075894355773926 8.490334510803223 1.2902108430862427
14.118904113769531 8.398784637451172 1.289852261543274
14.161321640014648 8.307024955749512 1.2894885540008545
14.200572967529297 8.21357250213623 1.2895441055297852
14.239212036132812 8.119950294494629 1.2895952463150024
14.282415390014648 8.029070854187012 1.2887916564941406
14.388245582580566 7.972988128662109 1.277626872062683
14.730225563049316 8.044955253601074 1.2278246879577637
15.262750625610352 8.214815139770508 1.1471107006072998
19.239952087402344 0.7748082280158997 0.6926203966140747
15.752615928649902 0.5376979112625122 1.2244046926498413
19.27294158935547 0.5394694805145264 0.6836761236190796
12.870719909667969 -0.745759904384613 1.637453317642212
12.862689018249512 -0.8244950771331787 1.636228084564209
19.622135162353516 -5.8787455558776855 0.3578495681285858
19.27372169494629 -5.9035420417785645 0.4074205160140991
19.035076141357422 -5.958510875701904 0.43872305750846863
18.872671127319336 -6.035141468048096 0.4572557210922241
18.80015754699707 -6.139434337615967 0.46061161160469055
18.767353057861328 -6.256495475769043 0.45716041326522827
16.515766143798828 -5.618741035461426 0.8303869366645813
18.77883529663086 -6.517624855041504 0.4367627799510956
16.67753791809082 -5.903261184692383 0.7862495183944702
16.5440673828125 -5.970578670501709 0.800575852394104
18.789751052856445 -6.9117751121521 0.4060300290584564
18.781709671020508 -7.0400519371032715 0.39747029542922974
18.81706428527832 -7.185396194458008 0.3812512159347534
18.849496841430664 -7.330725193023682 0.3653351962566376
18.838626861572266 -7.4600043296813965 0.3567507565021515
18.83694839477539 -7.593487739562988 0.34640374779701233
18.85077476501465 -7.733977794647217 0.3331703841686249
18.841718673706055 -7.8657965660095215 0.32376816868782043
18.85719108581543 -8.0086030960083 0.3098751902580261
18.865272521972656 -8.14915657043457 0.2970924973487854
18.853355407714844 -8.281773567199707 0.2876696288585663
16.33963966369629 -7.297553539276123 0.7238363027572632
16.299585342407227 -7.400075912475586 0.7206844687461853
16.273221969604492 -7.508999824523926 0.7149637937545776
16.21575355529785 -7.603634357452393 0.7147147059440613
16.23881721496582 -7.736477851867676 0.6998177170753479
16.130266189575195 -7.806687355041504 0.7086002826690674
16.718490600585938 -8.218523025512695 0.5904659628868103
16.60291290283203 -8.288722038269043 0.6000049114227295
16.487106323242188 -8.357816696166992 0.6095678210258484
16.431625366210938 -8.4569673538208 0.6079997420310974
16.5531005859375 -8.64852523803711 0.573599636554718
16.392980575561523 -8.693474769592285 0.5911238789558411
16.114770889282227 -8.673184394836426 0.6307156085968018
16.267852783203125 -8.884902000427246 0.5898007154464722
16.210060119628906 -8.98306941986084 0.588097333908081
16.334016799926758 -9.183387756347656 0.5519824624061584
16.58467674255371 -9.458890914916992 0.4914553165435791
16.04253578186035 -9.28075885772705 0.5812417268753052
16.090431213378906 -9.440890312194824 0.558903694152832
16.035207748413086 -9.541412353515625 0.5560811161994934
16.00892448425293 -9.659455299377441 0.5475621819496155
12.605549812316895 12.66703987121582 1.0425238609313965
12.651080131530762 12.558120727539062 1.0474404096603394
12.685152053833008 12.438725471496582 1.054510235786438
12.723215103149414 12.324203491210938 1.060572862625122
12.7617826461792 12.211050987243652 1.066346526145935
12.805915832519531 12.104005813598633 1.0708227157592773
12.836200714111328 11.984721183776855 1.077890157699585
12.872780799865723 11.87222957611084 1.0835158824920654
12.909197807312012 11.760405540466309 1.0889962911605835
12.93884563446045 11.64328384399414 1.095630168914795
12.98825454711914 11.544649124145508 1.0982202291488647
13.025787353515625 11.436052322387695 1.1029735803604126
13.063227653503418 11.32807445526123 1.107580542564392
13.080296516418457 11.203332901000977 1.115949273109436
13.11974811553955 11.098617553710938 1.1198313236236572
13.165243148803711 10.99954891204834 1.1224068403244019
13.203149795532227 10.894670486450195 1.1262834072113037
13.23336410522461 10.784114837646484 1.131463885307312
13.2658052444458 10.676078796386719 1.1360632181167603
13.299744606018066 10.569896697998047 1.1402257680892944
13.336774826049805 10.466752052307129 1.1436599493026733
13.372261047363281 10.362943649291992 1.1472373008728027
13.408548355102539 10.260294914245605 1.1505216360092163
13.44408130645752 10.15758991241455 1.1538034677505493
13.482824325561523 10.057791709899902 1.1563549041748047
13.516868591308594 9.954965591430664 1.1596325635910034
13.552560806274414 9.853843688964844 1.1624703407287598
13.587522506713867 9.75265884399414 1.165305733680725
13.623370170593262 9.652557373046875 1.1678466796875
13.660933494567871 9.554080963134766 1.1699461936950684
13.69780445098877 9.455509185791016 1.172042727470398
13.733980178833008 9.356840133666992 1.1741361618041992
13.773566246032715 9.260842323303223 1.1754940748214722
13.808371543884277 9.161974906921387 1.1775816679000854
13.844965934753418 9.064652442932129 1.1792261600494385
13.880059242248535 8.96668815612793 1.1810146570205688
13.912800788879395 8.867569923400879 1.1830942630767822
13.954062461853027 8.774177551269531 1.1835532188415527
13.994702339172363 8.680611610412598 1.184008002281189
14.029659271240234 8.58377742767334 1.1853419542312622
14.067342758178711 8.488883018493652 1.1860830783843994
14.108638763427734 8.396377563476562 1.1860828399658203
14.15188980102539 8.30518627166748 1.1856348514556885
14.19455337524414 8.213776588439941 1.1851816177368164
14.22803783416748 8.117254257202148 1.1862013339996338
14.277251243591309 8.029839515686035 1.184407114982605
14.37263298034668 7.968019962310791 1.1746095418930054
14.727276802062988 8.04712200164795 1.1204867362976074
15.265385627746582 8.220162391662598 1.0352863073349
19.242700576782227 0.7792449593544006 0.5684015154838562
15.74797248840332 0.540929913520813 1.1238409280776978
19.270750045776367 0.5437411665916443 0.5600830316543579
12.873919486999512 -0.7433086037635803 1.5540812015533447
12.864911079406738 -0.8220008015632629 1.5530338287353516
16.476612091064453 -3.2141542434692383 0.8766180872917175
16.560699462890625 -3.3361892700195312 0.856917679309845
16.457448959350586 -3.4206292629241943 0.8685362935066223
16.491758346557617 -3.5334882736206055 0.8569361567497253
16.465560913085938 -3.6337170600891113 0.855408251285553
16.51380157470703 -3.750803232192993 0.8411861062049866
19.922550201416016 -5.830841541290283 0.1829376369714737
19.57978057861328 -5.861268520355225 0.23348821699619293
19.312870025634766 -5.9108099937438965 0.270979642868042
19.116714477539062 -5.9793853759765625 0.2962040305137634
18.862201690673828 -6.027169227600098 0.33167654275894165
18.800067901611328 -6.1347832679748535 0.3334513306617737
16.204177856445312 -5.398073196411133 0.7813654541969299
16.419721603393555 -5.582109451293945 0.7351738214492798
16.3065242767334 -5.655560493469238 0.746853768825531
16.116802215576172 -5.700870513916016 0.7721025943756104
16.42721176147461 -5.92440128326416 0.7082988023757935
18.78489112854004 -6.905266284942627 0.27815449237823486
18.833173751831055 -7.054590225219727 0.2592615783214569
18.826887130737305 -7.1843767166137695 0.2499580681324005
18.8316593170166 -7.318996906280518 0.23849408328533173
18.846487045288086 -7.458302021026611 0.2250310629606247
18.842931747436523 -7.591064453125 0.21471168100833893
18.850311279296875 -7.72892951965332 0.20222559571266174
18.853975296020508 -7.866033554077148 0.19022893905639648
18.851211547851562 -8.001163482666016 0.17922256886959076
18.86651039123535 -8.144763946533203 0.16471226513385773
18.891584396362305 -8.293610572814941 0.14819051325321198
16.364749908447266 -7.304575443267822 0.6041106581687927
18.89345932006836 -8.572773933410645 0.12344751507043839
16.26506233215332 -7.501031875610352 0.6012375950813293
16.18085479736328 -7.583072185516357 0.6060775518417358
16.334819793701172 -7.777951717376709 0.5661103129386902
16.143512725830078 -7.808871269226074 0.5908663868904114
16.76689910888672 -8.625014305114746 0.4249682128429413
16.570823669433594 -8.653305053710938 0.45009300112724304
16.483049392700195 -8.73676586151123 0.4544200301170349
16.238615036010742 -8.735422134399414 0.48903772234916687
16.218059539794922 -8.853266716003418 0.4802885353565216
16.194080352783203 -8.969756126403809 0.47204145789146423
16.123737335205078 -9.06069564819336 0.47272560000419617
16.120532989501953 -9.189674377441406 0.4600960910320282
16.065153121948242 -9.289353370666504 0.4575854539871216
16.01936149597168 -9.394683837890625 0.4530544877052307
15.943228721618652 -9.482171058654785 0.45444178581237793
15.880973815917969 -9.577733039855957 0.45296573638916016
12.55420970916748 12.766345024108887 0.9273618459701538
12.606133460998535 12.66318416595459 0.9313567876815796
12.646035194396973 12.548723220825195 0.9377427697181702
12.668066024780273 12.41763687133789 0.9477220773696899
12.71808910369873 12.31495189666748 0.9515594840049744
12.75375747680664 12.199134826660156 0.9582420587539673
12.789923667907715 12.084698677062988 0.9646238088607788
12.832395553588867 11.977025985717773 0.9695032238960266
12.862401962280273 11.858561515808105 0.9767834544181824
12.899480819702148 11.7475004196167 0.9824110269546509
12.929803848266602 11.631142616271973 0.9892406463623047
12.97618579864502 11.529956817626953 0.9926086664199829
13.00101089477539 11.410378456115723 1.0001896619796753
13.043535232543945 11.307116508483887 1.0040048360824585
13.079276084899902 11.198619842529297 1.0090235471725464
13.116443634033203 11.092020988464355 1.0135879516601562
13.159627914428711 10.99109172821045 1.0167919397354126
13.19672966003418 10.885645866394043 1.0210498571395874
13.234567642211914 10.781405448913574 1.0250036716461182
13.25853443145752 10.66657543182373 1.0315263271331787
13.293975830078125 10.561694145202637 1.0356290340423584
13.332520484924316 10.45982837677002 1.03897225856781
13.36719036102295 10.355464935302734 1.0429195165634155
13.402655601501465 10.252270698547363 1.046561598777771
13.441302299499512 10.152007102966309 1.0494427680969238
13.477641105651855 10.050472259521484 1.052625060081482
13.513240814208984 9.948872566223145 1.055804967880249
13.545705795288086 9.84546947479248 1.0594384670257568
13.581427574157715 9.74492359161377 1.0623102188110352
13.61965274810791 9.646590232849121 1.0645703077316284
13.656373977661133 9.547590255737305 1.0669797658920288
13.70296859741211 9.45579719543457 1.067404866218567
13.728532791137695 9.349881172180176 1.071637749671936
13.767257690429688 9.253378868103027 1.0732758045196533
13.80284595489502 9.155113220214844 1.0753684043884277
13.839402198791504 9.057840347290039 1.0771526098251343
13.873624801635742 8.959388732910156 1.0792397260665894
13.917162895202637 8.867230415344238 1.0794875621795654
