# .PCD v0.7 - Point Cloud Data file format
VERSION 0.7
FIELDS x y z
SIZE 4 4 4
TYPE F F F
COUNT 1 1 1
WIDTH 856
HEIGHT 1
VIEWPOINT 0 0 0 1 0 0 0
POINTS 856
DATA ascii
44.106544494628906 -16.99363136291504 2.9328086376190186
44.145660400390625 -17.320484161376953 2.9246110916137695
44.06262969970703 -17.60060691833496 2.918327808380127
44.212162017822266 -17.975643157958984 2.9082107543945312
44.260807037353516 -18.312652587890625 2.8996589183807373
44.271034240722656 -18.635805130004883 2.8916776180267334
44.287227630615234 -18.963314056396484 2.8835363388061523
29.665571212768555 -12.918253898620605 3.125546455383301
29.655189514160156 -13.130758285522461 3.120377540588379
44.444698333740234 -20.006561279296875 2.8568320274353027
44.4592399597168 -20.342058181762695 2.8484435081481934
44.48492431640625 -20.6848087310791 2.839789628982544
44.47372055053711 -21.012407302856445 2.831727981567383
43.56867980957031 -20.9127254486084 2.8398709297180176
34.65892028808594 -16.898393630981445 2.995452880859375
34.53660583496094 -17.1018123626709 2.991135597229004
34.213897705078125 -17.20419692993164 2.990572452545166
34.10496520996094 -17.41238784790039 2.986027956008911
34.03737258911133 -17.641977310180664 2.9806816577911377
34.13902282714844 -17.961244583129883 2.9720308780670166
34.58993911743164 -18.4703369140625 2.9564568996429443
34.516334533691406 -18.70408821105957 2.951005220413208
34.33602523803711 -18.87982177734375 2.947652816772461
30.536508560180664 -17.035409927368164 3.0172500610351562
30.295612335205078 -17.14558219909668 3.015900135040283
34.621578216552734 -19.875354766845703 2.9206814765930176
34.494598388671875 -20.08484649658203 2.916102886199951
34.67627716064453 -20.476551055908203 2.905035972595215
42.83964538574219 -25.653003692626953 2.7246551513671875
34.901710510253906 -21.19154930114746 2.8854260444641113
34.54448318481445 -21.26582145690918 2.885608673095703
34.560020446777344 -21.56890869140625 2.877734661102295
34.50554275512695 -21.83022117614746 2.8713278770446777
34.609901428222656 -22.19476318359375 2.861332654953003
34.56437301635742 -22.466047286987305 2.854590892791748
34.45419692993164 -22.696352005004883 2.8492650985717773
34.373260498046875 -22.946693420410156 2.8432412147521973
34.36093521118164 -23.2445125579834 2.835584878921509
43.23200607299805 -29.634057998657227 2.6197168827056885
43.271812438964844 -30.053258895874023 2.6085846424102783
30.07505226135254 -21.16233253479004 2.913734197616577
43.35304641723633 -30.905139923095703 2.5859086513519287
43.39918518066406 -31.341421127319336 2.5742459297180176
43.430301666259766 -31.771162033081055 2.5628182888031006
43.49712371826172 -32.23162841796875 2.550374984741211
43.54872512817383 -32.685699462890625 2.538163900375366
43.57807540893555 -33.12769317626953 2.5263736248016357
43.636898040771484 -33.596885681152344 2.513690948486328
43.65217208862305 -34.03730392456055 2.501983165740967
35.09459686279297 -27.712427139282227 2.7144389152526855
34.84729766845703 -27.86599349975586 2.7116713523864746
34.66548538208008 -28.07105255126953 2.7071826457977295
34.594566345214844 -28.366851806640625 2.6996943950653076
34.81437683105469 -28.906169891357422 2.6842148303985596
34.74494171142578 -29.210546493530273 2.676461935043335
34.68906784057617 -29.528766632080078 2.6682558059692383
34.87974166870117 -30.06214141845703 2.653040885925293
34.894168853759766 -30.44973373413086 2.6425976753234863
34.96207809448242 -30.88894271850586 2.6304895877838135
34.82173156738281 -31.147483825683594 2.624246597290039
34.92036437988281 -31.623577117919922 2.6109671592712402
34.845706939697266 -31.94731903076172 2.6026198863983154
34.823333740234375 -32.32234573364258 2.5926225185394287
34.7830924987793 -32.684600830078125 2.583040237426758
32.735958099365234 23.084083557128906 3.5720083713531494
32.876949310302734 22.882831573486328 3.567913293838501
32.681636810302734 19.615535736083984 3.526968002319336
32.79704284667969 19.41213607788086 3.5228681564331055
32.93968200683594 19.224689483642578 3.518653154373169
45.393409729003906 25.751867294311523 3.4652488231658936
45.04255294799805 25.18885040283203 3.461453676223755
44.998287200927734 24.802968978881836 3.4565436840057373
44.89386749267578 24.387554168701172 3.451892614364624
44.74638748168945 23.953121185302734 3.447446823120117
44.65542221069336 23.553146362304688 3.4427995681762695
44.49113845825195 23.11876678466797 3.4384970664978027
44.3241081237793 22.6877498626709 3.434248208999634
44.190982818603516 22.278566360473633 3.4298837184906006
44.06973648071289 21.879436492919922 3.425497055053711
43.89944839477539 21.460233688354492 3.421375036239624
43.83561706542969 21.096860885620117 3.4167702198028564
43.619873046875 20.664438247680664 3.4129464626312256
43.4992790222168 20.281526565551758 3.4086828231811523
43.36017990112305 19.893783569335938 3.404543876647949
43.223445892333984 19.510982513427734 3.4004242420196533
43.09553527832031 19.13589096069336 3.396287679672241
42.99398422241211 18.77591323852539 3.3920323848724365
42.8271598815918 18.391071319580078 3.388171434402466
42.731868743896484 18.04049301147461 3.3839306831359863
42.57939910888672 17.669166564941406 3.380048990249634
42.447139739990234 17.309833526611328 3.3760781288146973
42.31486892700195 16.95390510559082 3.372135877609253
42.22170639038086 16.616737365722656 3.3679749965667725
42.0719108581543 16.26044273376465 3.3641951084136963
42.00067901611328 15.937478065490723 3.3599343299865723
41.82868194580078 15.579355239868164 3.3563530445098877
41.739349365234375 15.255183219909668 3.3522517681121826
41.636322021484375 14.9286470413208 3.348259449005127
41.48936462402344 14.589354515075684 3.344592571258545
41.346431732177734 14.254711151123047 3.3409247398376465
41.29570388793945 13.954386711120605 3.3366239070892334
41.166900634765625 13.630077362060547 3.3328983783721924
41.05376052856445 13.313737869262695 3.32908034324646
40.946868896484375 13.00202465057373 3.325235366821289
40.85871124267578 12.69865608215332 3.321265459060669
40.750205993652344 12.391331672668457 3.3174679279327393
40.58866882324219 12.070710182189941 3.3141040802001953
40.540931701660156 11.786319732666016 3.309863805770874
40.42967224121094 11.485481262207031 3.306140184402466
40.31721878051758 11.186718940734863 3.302445650100708
40.22096252441406 10.89473819732666 3.298632860183716
40.34114456176758 10.662110328674316 3.2930126190185547
40.891841888427734 10.53973388671875 3.283681631088257
41.35913848876953 10.390043258666992 3.2749369144439697
41.781436920166016 10.224079132080078 3.2664690017700195
42.24507522583008 10.063284873962402 3.257528066635132
42.7267951965332 9.901473045349121 3.2483065128326416
43.19932556152344 9.732148170471191 3.239047050476074
43.69579315185547 9.562739372253418 3.2294464111328125
44.159515380859375 9.380743026733398 3.220024824142456
44.688236236572266 9.20693588256836 3.209867477416992
44.91935729980469 8.967670440673828 3.2024269104003906
44.92536163330078 8.682648658752441 3.197100877761841
44.96986389160156 8.405424118041992 3.1913833618164062
44.835533142089844 8.09599494934082 3.1874167919158936
45.01827621459961 7.844149112701416 3.1802823543548584
45.05168914794922 7.565521717071533 3.174609422683716
45.07646560668945 7.285663604736328 3.169002056121826
45.105438232421875 7.0067057609558105 3.1633310317993164
45.13267135620117 6.727666854858398 3.157655954360962
45.16115951538086 6.448981285095215 3.151944875717163
45.18792724609375 6.170199871063232 3.1462299823760986
45.21296691894531 5.891332149505615 3.1405112743377686
45.2392692565918 5.612758636474609 3.1347544193267822
45.26384735107422 5.334083080291748 3.1289947032928467
45.29267883300781 5.055983066558838 3.123164415359497
45.32377243041992 4.778149127960205 3.117281198501587
45.351173400878906 4.4999260902404785 3.1114158630371094
45.37885665893555 4.221732139587402 3.105522632598877
45.39885711669922 3.94284725189209 3.099691390991211
45.43009567260742 3.664921522140503 3.0937044620513916
45.46263122558594 3.386983871459961 3.0876734256744385
12.50084114074707 0.8539443612098694 3.481292486190796
45.516597747802734 2.829960823059082 3.07566237449646
45.53502655029297 2.55080246925354 3.069720506668091
45.56773376464844 2.2723212242126465 3.0635743141174316
13.048420906066895 0.5701707601547241 3.468094825744629
13.046660423278809 0.48992791771888733 3.4664604663848877
13.245290756225586 0.4160442054271698 3.462240695953369
19.235153198242188 0.48628535866737366 3.3826828002929688
12.419586181640625 0.23760923743247986 3.4696829319000244
45.75102996826172 0.595681369304657 3.0262184143066406
45.756752014160156 0.31503626704216003 3.0202136039733887
12.5997896194458 0.009155543521046638 3.4624195098876953
12.300623893737793 -0.06652990728616714 3.464855670928955
45.8365592956543 -0.5279858708381653 3.00117564201355
12.345836639404297 -0.2182650864124298 3.4609909057617188
12.04336166381836 -0.28683945536613464 3.4636037349700928
12.902886390686035 -0.38649117946624756 3.4498178958892822
13.445842742919922 -0.485310822725296 3.440324306488037
13.352682113647461 -0.563988983631134 3.4398648738861084
12.895528793334961 -0.6239643692970276 3.4447288513183594
13.440564155578613 -0.7329887747764587 3.4349617958068848
12.794044494628906 -0.7764964699745178 3.442732810974121
12.878809928894043 -0.8609652519226074 3.439711809158325
12.778529167175293 -0.9330384135246277 3.439457654953003
12.806435585021973 -1.0140918493270874 3.4372663497924805
46.14482879638672 -3.9379384517669678 2.9220359325408936
13.374486923217773 -1.2243460416793823 3.424872398376465
11.749601364135742 -1.1483737230300903 3.4484760761260986
12.011831283569336 -1.2484310865402222 3.4426698684692383
12.0764799118042 -1.3300809860229492 3.4399349689483643
12.779187202453613 -1.4868522882461548 3.4268958568573
12.757894515991211 -1.5637575387954712 3.425410747528076
12.778780937194824 -1.6459484100341797 3.4232304096221924
13.699844360351562 -1.8500605821609497 3.4061460494995117
43.038761138916016 -6.080234050750732 2.9146509170532227
12.691856384277344 -1.8728011846542358 3.4191091060638428
43.10700225830078 -6.630290508270264 2.900848388671875
43.11578369140625 -6.902660846710205 2.89431095123291
12.769583702087402 -2.125077962875366 3.4121251106262207
12.768106460571289 -2.2054131031036377 3.4102368354797363
12.75037670135498 -2.2829911708831787 3.408623218536377
12.731191635131836 -2.360252618789673 3.407029390335083
12.73805046081543 -2.4424474239349365 3.4049642086029053
12.77968978881836 -2.5318093299865723 3.4022576808929443
12.769769668579102 -2.611358642578125 3.4004642963409424
12.810227394104004 -2.701608896255493 3.397737503051758
33.91014099121094 -7.368351459503174 3.0053858757019043
12.72630500793457 -2.847435712814331 3.3952836990356445
33.801448822021484 -7.780233383178711 2.99672269821167
33.91743087768555 -8.026346206665039 2.989133358001709
33.98017883300781 -8.261655807495117 2.982490301132202
34.0820426940918 -8.508206367492676 2.975036144256592
34.086273193359375 -8.731755256652832 2.9694128036499023
34.08710479736328 -8.955166816711426 2.9638173580169678
34.14729690551758 -9.195296287536621 2.957009792327881
34.22509765625 -9.441817283630371 2.949791669845581
34.355995178222656 -9.705129623413086 2.9414405822753906
34.086341857910156 -9.855162620544434 2.9411327838897705
34.35017395019531 -10.160205841064453 2.9299609661102295
34.0181999206543 -10.289395332336426 2.9309494495391846
34.039363861083984 -10.524162292480469 2.9246647357940674
33.98646926879883 -10.736688613891602 2.9198830127716064
33.954132080078125 -10.956022262573242 2.9146435260772705
33.9963493347168 -11.200392723083496 2.907780170440674
33.97903060913086 -11.426252365112305 2.902139186859131
33.979129791259766 -11.658809661865234 2.8960819244384766
34.01728439331055 -11.905670166015625 2.8891453742980957
33.97365188598633 -12.124872207641602 2.8839526176452637
34.01316452026367 -12.374751091003418 2.8768808841705322
34.01057434082031 -12.610623359680176 2.870689868927002
44.09975814819336 -16.65989112854004 2.636467218399048
44.16362380981445 -16.994367599487305 2.6267824172973633
44.2064208984375 -17.32295799255371 2.617492437362671
44.19297790527344 -17.6312255859375 2.6094210147857666
44.23762512207031 -17.964427947998047 2.59993052482605
44.25951385498047 -18.29043960571289 2.590891122817993
44.29380416870117 -18.62359619140625 2.581477403640747
44.29533386230469 -18.94488525390625 2.572762966156006
29.705781936645508 -12.921308517456055 2.9160139560699463
29.65512466430664 -13.116230010986328 2.9113283157348633
44.4503288269043 -19.986797332763672 2.5424861907958984
44.466773986816406 -20.323091506958008 2.533071279525757
44.45990753173828 -20.650651931762695 2.5241527557373047
44.50041198730469 -21.002357482910156 2.513967275619507
34.469722747802734 -16.52773094177246 2.7589733600616455
34.36308288574219 -16.736677169799805 2.754464626312256
34.4066162109375 -17.01984977722168 2.7460670471191406
34.27465057373047 -17.21712875366211 2.7421443462371826
34.139774322509766 -17.412519454956055 2.738288164138794
34.10499954223633 -17.6593074798584 2.731778621673584
34.140159606933594 -17.943998336791992 2.7233519554138184
34.431549072265625 -18.36764907836914 2.7079579830169678
34.36646270751953 -18.604692459106445 2.702017068862915
34.25857925415039 -18.819005966186523 2.697199583053589
30.562931060791016 -17.03388786315918 2.791149616241455
30.30111312866211 -17.132482528686523 2.791382074356079
34.34577941894531 -19.698400497436523 2.671091318130493
34.409095764160156 -20.016286849975586 2.6612389087677
34.403499603271484 -20.29657554626465 2.653238534927368
34.50212860107422 -20.64118766784668 2.642167329788208
34.4490966796875 -20.897552490234375 2.6353557109832764
34.37377166748047 -21.14147186279297 2.629136085510254
34.429927825927734 -21.468299865722656 2.618995189666748
34.31435775756836 -21.68977928161621 2.613837957382202
34.41790008544922 -22.05194664001465 2.6020870208740234
34.5233039855957 -22.419462203979492 2.590137004852295
34.45096206665039 -22.674232482910156 2.5834531784057617
34.41587448120117 -22.95503044128418 2.575566530227661
34.406795501708984 -23.255279541015625 2.5667965412139893
34.70296096801758 -23.766969680786133 2.5483944416046143
34.72309875488281 -24.095090866088867 2.53843092918396
30.0905818939209 -21.155261993408203 2.676246166229248
34.81135559082031 -24.794740676879883 2.5166213512420654
34.85220718383789 -25.147613525390625 2.505624532699585
34.84321975708008 -25.467702865600586 2.4961206912994385
34.862937927246094 -25.81182098388672 2.4855639934539795
34.87094497680664 -26.150541305541992 2.475270986557007
34.91669464111328 -26.52115821838379 2.4635918140411377
34.899776458740234 -26.847604751586914 2.453883647918701
34.911705017089844 -27.199413299560547 2.443079710006714
34.864112854003906 -27.507793426513672 2.434190034866333
34.82888412475586 -27.82846450805664 2.4247734546661377
34.68922424316406 -28.067367553710938 2.4189019203186035
34.65387725830078 -28.392398834228516 2.4093031883239746
34.86125564575195 -28.921649932861328 2.3909454345703125
34.857540130615234 -29.281543731689453 2.3799047470092773
34.882686614990234 -29.6696834564209 2.36767840385437
34.8839225769043 -30.04161262512207 2.3561651706695557
34.901485443115234 -30.431747436523438 2.3439013957977295
34.95378494262695 -30.856958389282227 2.330179214477539
34.862796783447266 -31.15938949584961 2.3216559886932373
34.945072174072266 -31.620811462402344 2.306462049484253
34.924957275390625 -31.994604110717773 2.2949705123901367
34.81654357910156 -32.29048156738281 2.2867419719696045
34.86394119262695 -32.734710693359375 2.2723424434661865
32.364845275878906 24.016775131225586 3.3486056327819824
32.52201843261719 23.825462341308594 3.344472885131836
32.49818801879883 23.503032684326172 3.3419272899627686
32.51395034790039 23.21200942993164 3.3390207290649414
32.64834213256836 23.006935119628906 3.335022449493408
32.6730842590332 22.725711822509766 3.332003593444824
32.7467155456543 22.480138778686523 3.328519582748413
32.65299606323242 22.122344970703125 3.3265843391418457
32.64092254638672 21.8232421875 3.3238844871520996
32.60805130004883 21.513010025024414 3.3213791847229004
32.76618957519531 21.330032348632812 3.3170299530029297
33.01081085205078 21.202125549316406 3.311805009841919
32.656227111816406 20.692527770996094 3.312408208847046
33.1174430847168 20.701183319091797 3.304989814758301
32.859901428222656 20.26093292236328 3.3046605587005615
32.69305419921875 19.882308959960938 3.303453207015991
32.8006477355957 19.67315101623535 3.2994792461395264
32.63063430786133 19.300004959106445 3.2983224391937256
32.73196029663086 19.08989906311035 3.294382333755493
32.799007415771484 18.860336303710938 3.2907724380493164
32.68178939819336 18.527099609375 3.289079189300537
32.90651321411133 18.388708114624023 3.2837717533111572
32.7646598815918 18.046588897705078 3.282334566116333
33.45208740234375 18.1586971282959 3.271969795227051
44.808265686035156 23.968894958496094 3.1454269886016846
44.632408142089844 23.523855209350586 3.1432948112487793
44.45989227294922 23.08556365966797 3.141144275665283
44.34244155883789 22.680339813232422 3.1383984088897705
44.181514739990234 22.257179260253906 3.1361489295959473
44.0170783996582 21.836856842041016 3.1339547634124756
43.91744613647461 21.452747344970703 3.1310372352600098
43.79133224487305 21.05942153930664 3.1284284591674805
43.59427261352539 20.636363983154297 3.1266536712646484
43.49066925048828 20.261707305908203 3.123806953430176
43.34684371948242 19.872018814086914 3.1214396953582764
43.256404876708984 19.51034927368164 3.118450403213501
43.09095764160156 19.11850357055664 3.1163620948791504
42.94800567626953 18.740623474121094 3.114018201828003
42.84063720703125 18.381784439086914 3.1112544536590576
42.695491790771484 18.01019859313965 3.1089589595794678
42.57418441772461 17.65220069885254 3.1063804626464844
42.45658874511719 17.299009323120117 3.103764295578003
42.31769943237305 16.94049644470215 3.1014223098754883
42.23558044433594 16.60776138305664 3.098374128341675
42.05116653442383 16.238130569458008 3.0966291427612305
41.99190902709961 15.91995620727539 3.093296766281128
41.89472961425781 15.589868545532227 3.0904505252838135
41.72275924682617 15.2351655960083 3.088582992553711
41.6346321105957 14.914188385009766 3.0856308937072754
41.51301574707031 14.583927154541016 3.083122968673706
41.38702392578125 14.255071640014648 3.080681085586548
41.29362106323242 13.940147399902344 3.0778090953826904
41.21975326538086 13.634130477905273 3.074674367904663
41.06379318237305 13.303657531738281 3.072657585144043
40.978721618652344 12.998894691467285 3.0696802139282227
40.85517501831055 12.684410095214844 3.067234992980957
40.75228500366211 12.37890911102295 3.0645101070404053
40.58488845825195 12.056636810302734 3.0626940727233887
40.53510665893555 11.771749496459961 3.059230089187622
40.41987228393555 11.46990966796875 3.0566911697387695
40.31981658935547 11.174736976623535 3.0539393424987793
40.2195930480957 10.881746292114258 3.0511929988861084
40.44020462036133 10.675658226013184 3.0437753200531006
40.863136291503906 10.519625663757324 3.0333237648010254
41.33027648925781 10.369997024536133 3.0221121311187744
41.75728225708008 10.20529556274414 3.0113775730133057
42.25286102294922 10.05217456817627 2.999505043029785
42.72084426879883 9.887039184570312 2.987922430038452
43.180564880371094 9.714781761169434 2.9763431549072266
43.66809844970703 9.543442726135254 2.9642176628112793
44.13849639892578 9.362957000732422 2.9522287845611572
44.66511917114258 9.188741683959961 2.939241886138916
44.88235855102539 8.946834564208984 2.9309542179107666
44.92747497558594 8.669635772705078 2.9253056049346924
44.96498489379883 8.391119003295898 2.919743776321411
44.84233474731445 8.083904266357422 2.9167068004608154
45.01216125488281 7.829751968383789 2.9089694023132324
45.051368713378906 7.552160739898682 2.903285026550293
45.077999114990234 7.2726311683654785 2.897770643234253
45.09499740600586 6.991832733154297 2.8923821449279785
45.12310028076172 6.713011741638184 2.8867814540863037
45.14948654174805 6.434108734130859 2.8811755180358887
45.1771125793457 6.155539512634277 2.8755173683166504
45.20798110961914 5.877517223358154 2.86976957321167
45.23714065551758 5.5993475914001465 2.864017963409424
45.25266647338867 5.319639682769775 2.858464479446411
45.28932571411133 5.042497158050537 2.852515459060669
45.32029724121094 4.76468563079834 2.846627712249756
45.34260940551758 4.485994815826416 2.840855121612549
45.3681755065918 4.207670211791992 2.834991455078125
45.39004898071289 3.929028034210205 2.8291566371917725
45.35738754272461 3.6460275650024414 2.8242595195770264
45.4545783996582 3.3733468055725098 2.817009925842285
12.537914276123047 0.852293848991394 3.406250238418579
12.542881965637207 0.7753657698631287 3.404620885848999
45.52661895751953 2.537318706512451 2.798953056335449
45.54521942138672 2.2581934928894043 2.7929587364196777
45.58208084106445 1.9798027276992798 2.786588668823242
19.503982543945312 0.7265899181365967 3.26827073097229
19.23221206665039 0.5983333587646484 3.2709217071533203
13.010546684265137 0.3244991898536682 3.386338710784912
45.70948028564453 0.8626081943511963 2.7610676288604736
45.723793029785156 0.5823221802711487 2.754918098449707
12.58932113647461 0.082206591963768 3.3894643783569336
12.598560333251953 0.004982091952115297 3.3876476287841797
12.249399185180664 -0.07033363729715347 3.392839193344116
12.310693740844727 -0.1462043970823288 3.3900182247161865
12.336528778076172 -0.22220325469970703 3.3878750801086426
12.13200569152832 -0.2929960787296295 3.390319347381592
12.05500316619873 -0.36514997482299805 3.390242099761963
11.866669654846191 -0.4323413074016571 3.3924310207366943
11.969651222229004 -0.5096246600151062 3.3887205123901367
13.543078422546387 -0.6597062945365906 3.354785680770874
13.17636489868164 -0.7229238152503967 3.3605024814605713
12.840337753295898 -0.7835526466369629 3.3656704425811768
46.064292907714844 -3.091517448425293 2.6680612564086914
12.78482723236084 -0.9377378225326538 3.3632543087005615
46.12730026245117 -3.664731025695801 2.653773069381714
12.903789520263672 -1.1057721376419067 3.3570945262908936
13.327821731567383 -1.2244733572006226 3.346130132675171
11.811600685119629 -1.158426284790039 3.377044200897217
12.218902587890625 -1.274054765701294 3.3664557933807373
12.524843215942383 -1.383644938468933 3.3579609394073486
11.759398460388184 -1.3722302913665771 3.3730320930480957
12.828369140625 -1.5766847133636475 3.347522735595703
13.576946258544922 -1.7532292604446411 3.3288559913635254
13.525280952453613 -1.8309866189956665 3.327986717224121
12.740660667419434 -1.804499864578247 3.343747854232788
12.776790618896484 -1.8896375894546509 3.34098744392395
13.572189331054688 -2.0923566818237305 3.3207452297210693
13.54919147491455 -2.173990488052368 3.3191871643066406
13.524715423583984 -2.2552571296691895 3.317655563354492
13.646535873413086 -2.361693859100342 3.3126847743988037
29.395057678222656 -5.271655082702637 2.938634157180786
13.605647087097168 -2.526930093765259 3.3093464374542236
13.01353931427002 -2.4996984004974365 3.321345090866089
29.592878341674805 -5.871209144592285 2.9197871685028076
33.734336853027344 -6.908065319061279 2.8145365715026855
33.7274169921875 -7.1225128173828125 2.8091988563537598
33.744529724121094 -7.3426618576049805 2.8032314777374268
33.76313400268555 -7.5639448165893555 2.7971792221069336
12.71281623840332 -2.9308507442474365 3.31604266166687
33.786258697509766 -8.005709648132324 2.7852818965911865
33.89376449584961 -8.251114845275879 2.7768383026123047
33.90253829956055 -8.473901748657227 2.770824909210205
33.85464859008789 -8.682950973510742 2.7662129402160645
33.8605842590332 -8.906227111816406 2.7601852416992188
34.053260803222656 -9.18063735961914 2.7492637634277344
34.06846618652344 -9.40931510925293 2.7428624629974365
34.01095199584961 -9.618395805358887 2.73832106590271
33.949275970458984 -9.82629108428955 2.7338614463806152
33.93233871459961 -10.047414779663086 2.728181838989258
33.9264030456543 -10.272467613220215 2.7221624851226807
33.9371223449707 -10.503438949584961 2.715644359588623
33.95294952392578 -10.737038612365723 2.708932399749756
33.969093322753906 -10.971841812133789 2.7021539211273193
34.00071716308594 -11.212881088256836 2.6948888301849365
33.95865249633789 -11.430486679077148 2.689603805541992
34.064571380615234 -11.699297904968262 2.6801421642303467
34.02789306640625 -11.920597076416016 2.6745986938476562
33.99919128417969 -12.145249366760254 2.668787717819214
34.05073547363281 -12.399752616882324 2.6606390476226807
34.18852233886719 -12.688036918640137 2.6499316692352295
34.34554672241211 -12.986604690551758 2.6385533809661865
34.33600997924805 -13.224349021911621 2.631906747817993
34.316463470458984 -13.45917797088623 2.6254963874816895
34.35009765625 -13.716134071350098 2.6174583435058594
34.3670539855957 -13.967988014221191 2.6098403930664062
34.37203598022461 -14.216360092163086 2.6025092601776123
34.35868453979492 -14.458341598510742 2.5956637859344482
34.37030029296875 -14.712100982666016 2.5879979133605957
29.691072463989258 -12.925471305847168 2.723860502243042
34.44380187988281 -15.246341705322266 2.5708963871002197
34.4233283996582 -15.49056625366211 2.5639939308166504
34.422061920166016 -15.744674682617188 2.556428909301758
34.41352462768555 -15.996821403503418 2.549020290374756
34.387821197509766 -16.242197036743164 2.542086601257324
34.37751770019531 -16.496076583862305 2.5345969200134277
34.372581481933594 -16.753944396972656 2.5268642902374268
34.3594970703125 -17.00926399230957 2.519319772720337
34.2722282409668 -17.22869110107422 2.5141243934631348
34.18890380859375 -17.450416564941406 2.508760929107666
34.11568069458008 -17.677743911743164 2.503020763397217
34.132076263427734 -17.952754974365234 2.4942445755004883
34.3077392578125 -18.314767837524414 2.480025291442871
34.32379150390625 -18.59486198425293 2.471036911010742
34.25273132324219 -18.82913589477539 2.464923620223999
30.70390510559082 -17.12460708618164 2.5782086849212646
30.221450805664062 -17.099510192871094 2.5871057510375977
34.32823944091797 -19.702030181884766 2.436199188232422
34.34479904174805 -19.99268913269043 2.4267160892486572
34.47441482543945 -20.35237693786621 2.413130521774292
34.47654342651367 -20.639963150024414 2.4039230346679688
34.4337158203125 -20.902406692504883 2.3962297439575195
34.49025344848633 -21.227439880371094 2.384864330291748
34.40502166748047 -21.467178344726562 2.378533363342285
34.45920944213867 -21.795900344848633 2.367023229598999
34.41220474243164 -22.062973022460938 2.3591222763061523
34.54508590698242 -22.448463439941406 2.344431161880493
34.42576217651367 -22.672592163085938 2.339031457901001
34.449642181396484 -22.99264144897461 2.328164577484131
34.61411666870117 -23.410701751708984 2.3118040561676025
34.70466613769531 -23.78361701965332 2.2980730533599854
34.72624206542969 -24.1129150390625 2.2868402004241943
30.06827735900879 -21.153390884399414 2.458265781402588
34.823028564453125 -24.819040298461914 2.2618560791015625
34.827152252197266 -25.14568519592285 2.2508857250213623
34.81889724731445 -25.46622657775879 2.240278720855713
34.85137176513672 -25.819744110107422 2.2279014587402344
34.85203552246094 -26.15301513671875 2.216661214828491
34.870601654052734 -26.502986907958984 2.2045488357543945
34.889347076416016 -26.85660743713379 2.1922764778137207
34.88298034667969 -27.19424057006836 2.1808922290802
34.913787841796875 -27.564388275146484 2.167806386947632
34.82815933227539 -27.845441818237305 2.159475088119507
34.693782806396484 -28.0887451171875 2.1531286239624023
34.74245834350586 -28.482885360717773 2.1388492584228516
34.826812744140625 -28.911230087280273 2.1228299140930176
34.575164794921875 -29.062583923339844 2.121276617050171
34.83976745605469 -29.651762008666992 2.096984386444092
34.795570373535156 -29.98430824279785 2.0860538482666016
34.942901611328125 -30.486934661865234 2.0663981437683105
34.91157531738281 -30.8389892578125 2.0545291900634766
34.76027297973633 -31.087202072143555 2.047973394393921
34.89988327026367 -31.59968376159668 2.02797269821167
34.9578742980957 -32.0447998046875 2.011458158493042
34.896690368652344 -32.38508224487305 2.0002787113189697
34.8960075378418 -32.785343170166016 1.986096739768982
36.90958786010742 28.791030883789062 3.043123483657837
37.15594482421875 28.61838150024414 3.037398338317871
32.582698822021484 24.153682708740234 3.105828046798706
32.19523620605469 23.56180763244629 3.110442876815796
32.30263137817383 23.337514877319336 3.107015371322632
32.451637268066406 23.14356231689453 3.102872371673584
32.34274673461914 22.76791763305664 3.102914333343506
32.393882751464844 22.508033752441406 3.1003129482269287
32.514793395996094 22.297584533691406 3.096529722213745
32.44554138183594 21.958709716796875 3.0958571434020996
32.4681510925293 21.68484115600586 3.0936412811279297
32.45773696899414 21.391164779663086 3.091949939727783
32.514522552490234 21.1436824798584 3.0891120433807373
32.64102554321289 20.94220733642578 3.0850727558135986
32.606605529785156 20.638898849487305 3.0837061405181885
32.70115661621094 20.41889190673828 3.080139636993408
32.63587951660156 20.100961685180664 3.079249143600464
32.46710968017578 19.723344802856445 3.080106019973755
32.608009338378906 19.536142349243164 3.0756688117980957
32.68498992919922 19.310819625854492 3.07228684425354
32.718101501464844 19.060626983642578 3.069627046585083
32.424251556396484 18.62398338317871 3.0725901126861572
32.625694274902344 18.47449493408203 3.0669777393341064
32.60564041137695 18.199926376342773 3.0651724338531494
32.68944549560547 17.98462677001953 3.0615315437316895
32.87731170654297 17.826181411743164 3.0560309886932373
33.27699661254883 17.779672622680664 3.0467512607574463
44.57825469970703 23.468252182006836 2.8446216583251953
44.49850082397461 23.07879638671875 2.8429393768310547
44.35866165161133 22.662090301513672 2.8423075675964355
44.237735748291016 22.25920867919922 2.8413279056549072
44.04008102416992 21.822265625 2.8417129516601562
43.887264251708984 21.41226577758789 2.841287851333618
43.768943786621094 21.023147583007812 2.8402302265167236
43.61587142944336 20.621337890625 2.8397915363311768
43.495792388916016 20.23906898498535 2.838742733001709
43.392669677734375 19.868215560913086 2.837372303009033
43.22373962402344 19.471052169799805 2.8371994495391846
43.142086029052734 19.1168212890625 2.83540940284729
42.93397521972656 18.71039390563965 2.8359484672546387
42.830955505371094 18.35371971130371 2.8345324993133545
42.7086067199707 17.992029190063477 2.833465099334717
42.57327651977539 17.628324508666992 2.8326313495635986
42.47492218017578 17.28316879272461 2.8310928344726562
42.34330749511719 16.92763328552246 2.830169916152954
42.2675666809082 16.597393035888672 2.828176975250244
42.05597686767578 16.21727180480957 2.828763484954834
41.975975036621094 15.891359329223633 2.8268303871154785
41.888877868652344 15.565298080444336 2.825017213821411
41.72515869140625 15.213846206665039 2.824674367904663
41.68580627441406 14.910454750061035 2.8219103813171387
41.49618148803711 14.556154251098633 2.8220603466033936
41.375648498535156 14.229459762573242 2.8208580017089844
41.276363372802734 13.9127779006958 2.8192288875579834
41.27348709106445 13.630464553833008 2.8156793117523193
41.05752182006836 13.280389785766602 2.8163387775421143
40.98942565917969 12.981181144714355 2.814053773880005
40.84090042114258 12.65903377532959 2.8133649826049805
40.762691497802734 12.36125373840332 2.811257839202881
40.6631965637207 12.059223175048828 2.809565544128418
40.52888870239258 11.749415397644043 2.808570623397827
40.40482711791992 11.44525146484375 2.8073620796203613
40.307472229003906 11.151053428649902 2.8055994510650635
40.226375579833984 10.863433837890625 2.803490400314331
40.41010665893555 10.647551536560059 2.795881986618042
40.85317611694336 10.496764183044434 2.7828121185302734
41.30947494506836 10.344335556030273 2.7693514823913574
41.755714416503906 10.184331893920898 2.7559831142425537
42.261837005615234 10.03355884552002 2.741234064102173
42.701419830322266 9.861655235290527 2.727764368057251
43.184364318847656 9.694587707519531 2.7132530212402344
43.662940979003906 9.521110534667969 2.6987054347991943
44.127296447753906 9.33922290802002 2.684335231781006
44.64981460571289 9.164056777954102 2.6685807704925537
44.893333435058594 8.927435874938965 2.6587400436401367
44.93731689453125 8.64998722076416 2.6531646251678467
44.96287536621094 8.369224548339844 2.647948980331421
44.87351989746094 8.068121910095215 2.6452219486236572
45.005775451660156 7.807229995727539 2.6375770568847656
45.04874801635742 7.530343532562256 2.631852149963379
45.06336975097656 7.248935222625732 2.6267154216766357
45.081180572509766 6.9683942794799805 2.6214678287506104
45.111083984375 6.689960479736328 2.615906238555908
45.13827896118164 6.411280632019043 2.610363245010376
45.16771697998047 6.133057117462158 2.6047260761260986
45.20237350463867 5.855612277984619 2.5989248752593994
45.21250915527344 5.575157165527344 2.5936429500579834
45.24671936035156 5.297820568084717 2.5877630710601807
33.407222747802734 3.703444719314575 2.857447624206543
33.39938735961914 3.495321035385132 2.8538131713867188
33.41512680053711 3.2898833751678467 2.8495986461639404
45.35956573486328 4.185831069946289 2.564345598220825
45.38426208496094 3.9075026512145996 2.5584592819213867
45.368377685546875 3.625920534133911 2.553492546081543
45.45842742919922 3.352625846862793 2.5459563732147217
45.47101593017578 3.073235034942627 2.5402188301086426
45.49985122680664 2.79491925239563 2.5340447425842285
12.590025901794434 0.6943978071212769 3.327303171157837
45.54641342163086 2.2372865676879883 2.5218207836151123
45.56513595581055 1.9581071138381958 2.5157482624053955
19.44483757019043 0.7149787545204163 3.1537346839904785
12.030577659606934 0.3676980137825012 3.334927797317505
12.02757740020752 0.29376882314682007 3.3334853649139404
12.323976516723633 0.22542467713356018 3.3245410919189453
12.58598804473877 0.15303605794906616 3.3163740634918213
12.654631614685059 0.07624737918376923 3.3130147457122803
45.76313781738281 0.0003491354000288993 2.470184564590454
12.777499198913574 -0.07975780218839645 3.3065731525421143
12.964655876159668 -0.16043324768543243 3.300081491470337
12.813464164733887 -0.23720777034759521 3.3022572994232178
12.757762908935547 -0.3144833445549011 3.3019838333129883
12.694604873657227 -0.39087051153182983 3.301905632019043
12.508118629455566 -0.4619767665863037 3.3050639629364014
12.13747787475586 -0.5229239463806152 3.3131115436553955
12.93775463104248 -0.6368028521537781 3.2902374267578125
12.870683670043945 -0.7126829624176025 3.2902185916900635
12.844078063964844 -0.790274977684021 3.2891218662261963
12.838949203491211 -0.8690495491027832 3.2874398231506348
12.849287986755371 -0.9489665031433105 3.2853264808654785
46.11896514892578 -3.685335636138916 2.3787901401519775
13.225016593933105 -1.1399548053741455 3.27134108543396
11.965517044067383 -1.1055737733840942 3.3040225505828857
12.019157409667969 -1.1849250793457031 3.300776481628418
12.177653312683105 -1.276000738143921 3.2945868968963623
12.695136070251465 -1.4089221954345703 3.2783091068267822
33.972591400146484 -3.977994680404663 2.6789047718048096
11.677767753601074 -1.44142484664917 3.3031814098358154
12.72343921661377 -1.649614691734314 3.2717056274414062
12.737800598144531 -1.7309939861297607 3.2693259716033936
13.813558578491211 -1.963388442993164 3.236467123031616
12.658170700073242 -1.8786327838897705 3.2676315307617188
14.054072380065918 -2.173772096633911 3.225123882293701
14.24372673034668 -2.2926363945007324 3.2173426151275635
13.340055465698242 -2.231356620788574 3.241553544998169
13.269930839538574 -2.303410530090332 3.2414519786834717
13.265342712402344 -2.3865368366241455 3.2394115924835205
13.200289726257324 -2.45853853225708 3.2391574382781982
12.772659301757812 -2.460129737854004 3.249781608581543
12.70238208770752 -2.5275189876556396 3.2497520446777344
12.607281684875488 -2.589116334915161 3.250481605529785
33.71574020385742 -7.136447429656982 2.604463577270508
33.735652923583984 -7.357186794281006 2.5980336666107178
33.777530670166016 -7.58369255065918 2.5908679962158203
33.75264358520508 -7.79592227935791 2.5857081413269043
33.861602783203125 -8.040221214294434 2.5763297080993652
33.90375900268555 -8.270283699035645 2.568955659866333
33.90267562866211 -8.490724563598633 2.562877655029297
33.69298553466797 -8.65824031829834 2.563368082046509
33.85657501220703 -8.922054290771484 2.5519633293151855
34.05388641357422 -9.197840690612793 2.5393598079681396
34.04773712158203 -9.420685768127441 2.533198118209839
34.03052520751953 -9.641077995300293 2.527340888977051
34.032039642333984 -9.867457389831543 2.5208194255828857
34.000431060791016 -10.08484172821045 2.5153274536132812
33.89952850341797 -10.2816162109375 2.512079954147339
33.965511322021484 -10.529613494873047 2.503260612487793
34.06783676147461 -10.790875434875488 2.4931390285491943
34.04460144042969 -11.013801574707031 2.4871394634246826
34.03889083862305 -11.243117332458496 2.4804933071136475
34.00701904296875 -11.464476585388184 2.4746761322021484
34.10036087036133 -11.729424476623535 2.46451735496521
34.06156921386719 -11.950292587280273 2.458808660507202
34.02793884277344 -12.173482894897461 2.4528706073760986
34.068904876708984 -12.424443244934082 2.4442763328552246
34.20175552368164 -12.711176872253418 2.432370662689209
34.3398323059082 -13.002837181091309 2.4201529026031494
34.32175064086914 -13.237332344055176 2.413353681564331
34.31695556640625 -13.47793960571289 2.4060144424438477
34.339271545410156 -13.730489730834961 2.3976290225982666
34.35699462890625 -13.982687950134277 2.3893253803253174
34.3516731262207 -14.226826667785645 2.3817765712738037
34.352935791015625 -14.474918365478516 2.3739123344421387
34.354278564453125 -14.724346160888672 2.3659658432006836
34.35842514038086 -14.97633171081543 2.357835531234741
34.40372085571289 -15.24795150756836 2.348086357116699
34.3986701965332 -15.498933792114258 2.3401265144348145
34.41545867919922 -15.761244773864746 2.331258773803711
34.414005279541016 -16.016756057739258 2.3229925632476807
34.41883850097656 -16.276683807373047 2.3144006729125977
34.40555191040039 -16.529483795166016 2.306417465209961
34.34465789794922 -16.7603816986084 2.300199508666992
34.34489822387695 -17.022218704223633 2.291533946990967
34.30482482910156 -17.265371322631836 2.2843616008758545
34.200767517089844 -17.47684097290039 2.279649019241333
34.098060607910156 -17.689067840576172 2.274841547012329
34.18946838378906 -18.00358772277832 2.2622108459472656
34.321475982666016 -18.342971801757812 2.247795343399048
34.35835266113281 -18.634624481201172 2.2370755672454834
34.24671936035156 -18.846960067749023 2.2323074340820312
30.681846618652344 -17.1314697265625 2.3696701526641846
30.214271545410156 -17.114477157592773 2.3805298805236816
34.23063278198242 -19.6676082611084 2.2044472694396973
34.36991882324219 -20.029157638549805 2.188875913619995
34.47593307495117 -20.375356674194336 2.1745223999023438
34.34153366088867 -20.581315994262695 2.170233964920044
34.438201904296875 -20.92754554748535 2.1560018062591553
34.46128463745117 -21.232223510742188 2.1447722911834717
34.423431396484375 -21.50144386291504 2.1360602378845215
34.33544158935547 -21.740530014038086 2.129446029663086
34.581382751464844 -22.194692611694336 2.108038902282715
34.54323196411133 -22.47069549560547 2.098968505859375
34.45793533325195 -22.71736717224121 2.091902732849121
34.44902038574219 -23.016016006469727 2.0813212394714355
34.62888717651367 -23.444812774658203 2.062049388885498
34.7108268737793 -23.81223487854004 2.046999454498291
34.71159744262695 -24.127363204956055 2.035492420196533
30.039562225341797 -21.15482521057129 2.240441083908081
34.78921127319336 -24.820079803466797 2.0084989070892334
34.79078674316406 -25.144804000854492 1.9964945316314697
34.8001594543457 -25.47815704345703 1.9839708805084229
34.829219818115234 -25.829233169555664 1.9703476428985596
34.83928680419922 -26.16961669921875 1.9574609994888306
34.851253509521484 -26.51472282409668 1.944316029548645
34.87137222290039 -26.86949348449707 1.9306033849716187
34.85928726196289 -27.2027587890625 1.9182931184768677
34.89302444458008 -27.575298309326172 1.903551697731018
34.84703826904297 -27.888084411621094 1.8925937414169312
34.694488525390625 -28.117042541503906 1.886858344078064
34.705745697021484 -28.48082160949707 1.8727549314498901
34.8414192199707 -28.951799392700195 1.8521009683609009
34.83802795410156 -29.312288284301758 1.8383153676986694
34.83075714111328 -29.67317008972168 1.8245437145233154
34.836246490478516 -30.048763275146484 1.8099141120910645
34.91594696044922 -30.493236541748047 1.791166067123413
34.8934326171875 -30.853107452392578 1.7775824069976807
34.88195037841797 -31.22650909423828 1.7632176876068115
34.90790939331055 -31.637828826904297 1.7466269731521606
34.963260650634766 -32.08103561401367 1.7281945943832397
34.91929626464844 -32.43769836425781 1.7149443626403809
34.95670700073242 -32.87443161010742 1.6970007419586182
32.18815612792969 30.31427574157715 2.868584156036377
32.35145568847656 30.0958251953125 2.8651366233825684
32.52212142944336 29.884626388549805 2.8614602088928223
32.675865173339844 29.658355712890625 2.8581292629241943
32.349365234375 29.002172470092773 2.8661282062530518
32.440494537353516 28.726961135864258 2.864168405532837
32.710838317871094 28.61035919189453 2.8579084873199463
37.04836654663086 28.59334373474121 2.753519058227539
37.330322265625 28.447349548339844 2.7463538646698
32.715946197509766 24.615392684936523 2.85549259185791
32.32447052001953 24.011810302734375 2.864295244216919
32.21629333496094 23.62623405456543 2.866323947906494
32.20503234863281 23.315595626831055 2.86600399017334
32.336788177490234 23.110042572021484 2.862231969833374
32.2907600402832 22.779266357421875 2.862652540206909
32.4027214050293 22.561904907226562 2.859259843826294
32.36985397338867 22.245498657226562 2.859281301498413
32.346744537353516 21.938762664794922 2.8590288162231445
32.33023452758789 21.639272689819336 2.8585777282714844
32.40387725830078 21.4019718170166 2.8559255599975586
32.281494140625 21.037940979003906 2.8579344749450684
32.41237258911133 20.841142654418945 2.8538222312927246
32.501522064208984 20.61782455444336 2.8506665229797363
32.516265869140625 20.34858512878418 2.849259853363037
32.563819885253906 20.101472854614258 2.8470206260681152
32.43364715576172 19.7474422454834 2.8490352630615234
32.24037170410156 19.3597412109375 2.852548122406006
32.23971176147461 19.091306686401367 2.851367473602295
32.41051483154297 18.924938201904297 2.8459854125976562
32.40806579589844 18.657926559448242 2.8447678089141846
32.47747039794922 18.43360710144043 2.841761589050293
32.383056640625 18.118343353271484 2.8427112102508545
32.5512809753418 17.951217651367188 2.837212085723877
32.73183822631836 17.789873123168945 2.8313591480255127
32.980384826660156 17.663799285888672 2.8237855434417725
33.11189651489258 17.4737548828125 2.819030284881592
44.47587585449219 23.12291717529297 2.5375685691833496
44.3755989074707 22.726152420043945 2.5378928184509277
44.13734817504883 22.263511657714844 2.5415914058685303
44.080448150634766 21.896717071533203 2.5407729148864746
43.87163543701172 21.458545684814453 2.5436840057373047
43.81315231323242 21.097932815551758 2.542830228805542
43.61639404296875 20.674617767333984 2.5453848838806152
43.48405075073242 20.286216735839844 2.546304941177368
43.3922119140625 19.92024040222168 2.5461792945861816
43.2319221496582 19.526527404785156 2.5477373600006104
43.124176025390625 19.160295486450195 2.547947406768799
42.94028854370117 18.76409912109375 2.5500447750091553
42.80002212524414 18.39101219177246 2.551017999649048
42.7102165222168 18.04292106628418 2.5506842136383057
42.57621383666992 17.679372787475586 2.5514421463012695
33.235870361328125 13.56261157989502 2.7866251468658447
33.200496673583984 13.311232566833496 2.785400390625
33.08794021606445 13.03112506866455 2.786123037338257
33.14757537841797 12.820337295532227 2.782407283782959
41.97148513793945 15.93775463104248 2.5531582832336426
41.85194396972656 15.599336624145508 2.5533859729766846
41.719505310058594 15.259211540222168 2.5539214611053467
41.606117248535156 14.929065704345703 2.5539393424987793
41.478004455566406 14.596572875976562 2.554314374923706
41.405029296875 14.286105155944824 2.5532279014587402
41.32223892211914 13.97452163696289 2.5523681640625
41.137550354003906 13.631475448608398 2.5541512966156006
41.07002639770508 13.330109596252441 2.552839517593384
40.9317626953125 13.00828742980957 2.5533628463745117
40.84456253051758 12.705290794372559 2.5525155067443848
40.707366943359375 12.389302253723145 2.552967071533203
40.64066696166992 12.097151756286621 2.5515239238739014
40.52872085571289 11.793716430664062 2.5512583255767822
33.857765197753906 9.627717971801758 2.726572036743164
33.8948860168457 9.413958549499512 2.722796678543091
33.87083435058594 9.183886528015137 2.7206292152404785
33.88969802856445 8.966225624084473 2.7172720432281494
33.893619537353516 8.7451810836792 2.7142834663391113
33.89610290527344 8.524426460266113 2.711298704147339
33.89132308959961 8.302542686462402 2.7084779739379883
33.912330627441406 8.087532043457031 2.7049179077148438
33.9222412109375 7.8703155517578125 2.7016241550445557
33.91710662841797 7.65020227432251 2.69870924949646
33.92324447631836 7.433229923248291 2.695448637008667
33.92995834350586 7.216886043548584 2.692136287689209
33.948997497558594 7.003565788269043 2.688445806503296
33.944149017333984 6.785775661468506 2.6853833198547363
33.94969177246094 6.570588111877441 2.6819965839385986
33.95976638793945 6.356691837310791 2.678445816040039
33.979312896728516 6.144874095916748 2.674591302871704
33.992610931396484 5.932195663452148 2.670872926712036
34.00458526611328 5.719585418701172 2.6671555042266846
33.99647903442383 5.504016399383545 2.6639719009399414
34.00577926635742 5.291679859161377 2.6602561473846436
34.007816314697266 5.078551769256592 2.6567111015319824
34.012481689453125 4.86616325378418 2.6530544757843018
34.02671813964844 4.655397415161133 2.6490840911865234
34.039642333984375 4.444640159606934 2.645111322402954
34.05622482299805 4.234515190124512 2.6409928798675537
34.07250213623047 4.024470806121826 2.636843204498291
33.59079360961914 3.758812189102173 2.6472671031951904
33.53059005737305 3.5439674854278564 2.6453425884246826
33.59036636352539 3.3420748710632324 2.639848470687866
33.67082595825195 3.1416237354278564 2.633690118789673
33.6694221496582 2.9332845211029053 2.6299140453338623
33.675697326660156 2.7258057594299316 2.6258716583251953
33.6667366027832 2.5173163414001465 2.622246503829956
12.543670654296875 0.8608269095420837 3.25496768951416
33.69683074951172 2.104219436645508 2.613436222076416
33.71297073364258 1.8977000713348389 2.6089346408843994
33.69789123535156 1.6895594596862793 2.605342149734497
33.72846221923828 1.4837387800216675 2.6003170013427734
33.71782302856445 1.2760941982269287 2.596510648727417
19.284011840820312 0.6115660071372986 3.037837266921997
33.729679107666016 0.8623145818710327 2.5877604484558105
33.75318908691406 0.6557610034942627 2.582775831222534
33.765438079833984 0.4488178789615631 2.5780959129333496
12.83326244354248 0.09210038185119629 3.230435609817505
12.546680450439453 0.01308611873537302 3.2377984523773193
33.78457260131836 -0.1726873517036438 2.564347505569458
33.78873825073242 -0.3799941837787628 2.5597476959228516
33.795631408691406 -0.5874289274215698 2.5550174713134766
12.280245780944824 -0.28856152296066284 3.239665985107422
33.82756805419922 -1.0032416582107544 2.544839382171631
12.410530090332031 -0.4440256357192993 3.232100248336792
