# .PCD v0.7 - Point Cloud Data file format
VERSION 0.7
FIELDS x y z
SIZE 4 4 4
TYPE F F F
COUNT 1 1 1
WIDTH 850
HEIGHT 1
VIEWPOINT 0 0 0 1 0 0 0
POINTS 850
DATA ascii
33.57408905029297 3.360090494155884 1.6023300886154175
33.62859344482422 3.1573503017425537 1.5958679914474487
33.65203857421875 2.951449394226074 1.5912028551101685
33.6593017578125 2.744161367416382 1.587438941001892
33.66926956176758 2.537193536758423 1.5834317207336426
33.67298126220703 2.3298606872558594 1.5797263383865356
33.67641830444336 2.1226394176483154 1.5759599208831787
33.65266418457031 1.9139877557754517 1.5737783908843994
33.674476623535156 1.708083152770996 1.5687296390533447
13.040445327758789 0.5810263156890869 2.832469940185547
13.032692909240723 0.5006034970283508 2.8314480781555176
13.02245044708252 0.4202325940132141 2.8305513858795166
33.72414779663086 0.881917417049408 1.5500202178955078
33.75160217285156 0.6754971742630005 1.5442063808441162
12.844049453735352 0.17798550426959991 2.8368513584136963
12.7589693069458 0.098531074821949 2.8405117988586426
33.768489837646484 0.054341621696949005 1.5303219556808472
12.648237228393555 -0.057499825954437256 2.844097852706909
12.653536796569824 -0.13514670729637146 2.8420727252960205
33.79190444946289 -0.5675227046012878 1.5152876377105713
12.776448249816895 -0.29324766993522644 2.8308701515197754
33.81477737426758 -0.9829844236373901 1.5043878555297852
33.82279968261719 -1.1909115314483643 1.4990237951278687
33.82056427001953 -1.3986045122146606 1.4942238330841064
12.576598167419434 -0.5976614952087402 2.8361377716064453
13.003108978271484 -0.6978866457939148 2.807131290435791
12.847058296203613 -0.7685804963111877 2.8150763511657715
12.885815620422363 -0.8502593636512756 2.810596227645874
33.87883758544922 -2.443587064743042 1.4645229578018188
12.530963897705078 -0.9814038276672363 2.829251766204834
33.87359619140625 -2.861368179321289 1.4538546800613403
33.8948860168457 -3.072697401046753 1.4468481540679932
12.751850128173828 -1.2351899147033691 2.808712959289551
33.92058181762695 -3.4951281547546387 1.433644413948059
13.334708213806152 -1.4569804668426514 2.7664036750793457
13.786377906799316 -1.5919628143310547 2.734595537185669
33.94773864746094 -4.130633354187012 1.413880467414856
33.94028091430664 -4.3411946296691895 1.4081865549087524
33.96217727661133 -4.555934429168701 1.4004734754562378
33.96295166015625 -4.768332004547119 1.3940532207489014
33.97029113769531 -4.9820709228515625 1.387105107307434
33.98910903930664 -5.198041915893555 1.3792988061904907
33.99275588989258 -5.41223669052124 1.372398853302002
34.0029182434082 -5.627976417541504 1.3649673461914062
33.99500274658203 -5.84117317199707 1.358644962310791
29.260597229003906 -5.212771892547607 1.669485092163086
34.02616882324219 -6.277320384979248 1.342553734779358
34.05729675292969 -6.499382972717285 1.3333007097244263
34.028236389160156 -6.710482120513916 1.3280117511749268
33.95778274536133 -6.913310527801514 1.3254482746124268
33.9115104675293 -7.1208600997924805 1.3211647272109985
33.93027877807617 -7.342453479766846 1.312349557876587
33.949546813964844 -7.5649800300598145 1.3033881187438965
33.99070358276367 -7.793371200561523 1.2928073406219482
34.028385162353516 -8.022095680236816 1.2823408842086792
34.07132339477539 -8.253220558166504 1.2713863849639893
34.051700592041016 -8.470004081726074 1.264655590057373
34.09740447998047 -8.703883171081543 1.2532652616500854
34.09421920776367 -8.926263809204102 1.2451664209365845
34.122344970703125 -9.157723426818848 1.2347571849822998
34.11427688598633 -9.380346298217773 1.2267738580703735
34.107643127441406 -9.604022979736328 1.218579888343811
34.127342224121094 -9.83598804473877 1.2084027528762817
34.133033752441406 -10.064888954162598 1.1990975141525269
34.115230560302734 -10.287604331970215 1.1913537979125977
34.152225494384766 -10.527822494506836 1.1795628070831299
34.17612838745117 -10.765283584594727 1.168575406074524
34.1651611328125 -10.992741584777832 1.159977912902832
34.14036560058594 -11.216423988342285 1.1522680521011353
34.130184173583984 -11.445608139038086 1.1433805227279663
34.18643569946289 -11.698346138000488 1.129507303237915
34.17681121826172 -11.929847717285156 1.120318055152893
34.16563415527344 -12.161673545837402 1.1111185550689697
34.1397590637207 -12.38904857635498 1.1028848886489868
34.25833511352539 -12.670544624328613 1.0837820768356323
34.2925910949707 -12.92300796508789 1.0707745552062988
34.30826187133789 -13.169931411743164 1.059003472328186
34.321258544921875 -13.4171724319458 1.0472862720489502
34.343631744384766 -13.66949462890625 1.034711241722107
34.35032653808594 -13.916977882385254 1.0231703519821167
34.35158157348633 -14.163537979125977 1.0118966102600098
34.36305618286133 -14.415653228759766 0.9996927380561829
34.36079788208008 -14.66335391998291 0.9883897304534912
34.381492614746094 -14.92229175567627 0.9751632213592529
29.539045333862305 -13.03665828704834 1.339456558227539
34.41992950439453 -15.443799018859863 0.9484398365020752
34.42584228515625 -15.700990676879883 0.9358660578727722
34.43259811401367 -15.96009635925293 0.9230628609657288
34.44559097290039 -16.22369956970215 0.9096002578735352
34.453041076660156 -16.486343383789062 0.8964047431945801
34.45137405395508 -16.746198654174805 0.8837652206420898
34.48269271850586 -17.023874282836914 0.8683128952980042
34.47801208496094 -17.28557777404785 0.8555659651756287
34.400299072265625 -17.51166534423828 0.84856116771698
34.37958908081055 -17.76767349243164 0.8368040323257446
34.44093704223633 -18.06810760498047 0.8181763887405396
34.41096115112305 -18.322616577148438 0.80681973695755
34.421268463134766 -18.600194931030273 0.7919766902923584
34.407596588134766 -18.866601943969727 0.7789279222488403
30.816804885864258 -17.144596099853516 1.0639691352844238
34.57234191894531 -19.512765884399414 0.7361920475959778
34.590965270996094 -19.80423927307129 0.7197948098182678
34.56418228149414 -20.071630477905273 0.7070252299308777
34.56807327270508 -20.358675003051758 0.6914647221565247
34.59370803833008 -20.660837173461914 0.6738332509994507
34.60071563720703 -20.954261779785156 0.6575697660446167
34.56462097167969 -21.22350311279297 0.6448124051094055
34.583248138427734 -21.52840232849121 0.6271140575408936
34.59352111816406 -21.83060073852539 0.6099061965942383
34.55097579956055 -22.101491928100586 0.5971055626869202
34.59007263183594 -22.42693328857422 0.5769006013870239
34.62730407714844 -22.754230499267578 0.5565908551216125
34.55473327636719 -23.011524200439453 0.5458182096481323
34.728294372558594 -23.436132431030273 0.5127585530281067
34.75468444824219 -23.765785217285156 0.4925740361213684
34.73653030395508 -24.06768035888672 0.47616127133369446
34.75433349609375 -24.397174835205078 0.4562242925167084
34.82220458984375 -24.765356063842773 0.43140196800231934
34.786529541015625 -25.063003540039062 0.41581854224205017
34.81777572631836 -25.411699295043945 0.39377567172050476
34.82118606567383 -25.743343353271484 0.3740277886390686
34.83140563964844 -26.08315658569336 0.3533526360988617
34.84987258911133 -26.4324951171875 0.3315972089767456
34.86456298828125 -26.782434463500977 0.3098871111869812
34.8526496887207 -27.115175247192383 0.290414035320282
34.84187316894531 -27.451860427856445 0.2705402374267578
34.85243225097656 -27.808712005615234 0.2482970654964447
34.77226638793945 -28.095911026000977 0.23459170758724213
34.74390411376953 -28.4273681640625 0.21556854248046875
34.8770866394043 -28.895666122436523 0.18025662004947662
34.891990661621094 -29.27117919921875 0.15622510015964508
34.876991271972656 -29.6253662109375 0.13483048975467682
34.891448974609375 -30.008419036865234 0.11013064533472061
30.304960250854492 -28.770339965820312 0.39996373653411865
32.34931564331055 30.86778450012207 1.223561406135559
32.42076873779297 30.55850601196289 1.2282557487487793
32.32375717163086 30.095050811767578 1.2452106475830078
32.45233917236328 29.845518112182617 1.2452794313430786
32.4866943359375 29.511611938476562 1.2521089315414429
32.45798110961914 29.124391555786133 1.2633459568023682
32.40333557128906 28.718772888183594 1.2762398719787598
32.549293518066406 28.493820190429688 1.2743552923202515
32.563804626464844 28.15582847595215 1.2818355560302734
32.580718994140625 27.823270797729492 1.288948655128479
32.58715057373047 27.485132217407227 1.296623706817627
32.599876403808594 27.15563201904297 1.3036576509475708
32.6013069152832 26.82003402709961 1.3113104104995728
32.640933990478516 26.518817901611328 1.3160649538040161
32.630592346191406 26.180007934570312 1.3241896629333496
32.67445755004883 25.887590408325195 1.3283032178878784
32.66249465942383 25.553783416748047 1.3361854553222656
32.691925048828125 25.255287170410156 1.340984582901001
32.69670104980469 24.94043731689453 1.3473480939865112
32.71480178833008 24.638490676879883 1.3526136875152588
32.71921157836914 24.32892417907715 1.3586723804473877
32.74039077758789 24.034414291381836 1.3634065389633179
32.52635192871094 23.571819305419922 1.3842532634735107
32.59128952026367 23.315509796142578 1.3856217861175537
32.67224884033203 23.071964263916016 1.3857557773590088
32.68920135498047 22.784908294677734 1.3901571035385132
32.69893264770508 22.495119094848633 1.3949072360992432
32.67330551147461 22.183637619018555 1.40192711353302
32.703983306884766 21.912776947021484 1.404954433441162
32.718414306640625 21.633014678955078 1.4089524745941162
32.719783782958984 21.3468074798584 1.413698434829712
32.76252746582031 21.08950424194336 1.415502905845642
32.78986740112305 20.82391357421875 1.418222427368164
32.80926513671875 20.555070877075195 1.421347737312317
18.42401885986328 11.385441780090332 2.3937411308288574
18.417491912841797 11.22596549987793 2.3965206146240234
18.396013259887695 11.058768272399902 2.400226354598999
18.379196166992188 10.895824432373047 2.40354323387146
32.840179443359375 19.198698043823242 1.4394768476486206
32.925052642822266 18.97844886779785 1.4374734163284302
32.88347625732422 18.686851501464844 1.4437838792800903
32.82563018798828 18.388669967651367 1.4510445594787598
32.877235412597656 18.153675079345703 1.4509044885635376
32.97454833984375 17.944509506225586 1.447625756263733
32.998390197753906 17.69614028930664 1.4491103887557983
33.01866912841797 17.447221755981445 1.4507163763046265
33.0291633605957 17.194570541381836 1.452855110168457
33.04136276245117 16.94426918029785 1.4547688961029053
33.06242752075195 16.699867248535156 1.4559868574142456
33.06565856933594 16.44784164428711 1.4582690000534058
33.077796936035156 16.20167350769043 1.4598536491394043
33.08277893066406 15.953372955322266 1.461800456047058
33.097679138183594 15.711186408996582 1.4629874229431152
33.109046936035156 15.468571662902832 1.4642995595932007
33.12957763671875 15.231413841247559 1.4649064540863037
33.158447265625 14.99911117553711 1.464864730834961
33.11275863647461 14.73455810546875 1.4695934057235718
33.11445617675781 14.492745399475098 1.4711183309555054
33.129112243652344 14.257779121398926 1.4716947078704834
33.13753890991211 14.021232604980469 1.4725764989852905
33.1590576171875 13.791253089904785 1.472504734992981
33.17808151245117 13.561159133911133 1.472496747970581
33.19367599487305 13.330605506896973 1.4726134538650513
33.08235168457031 13.050914764404297 1.480891466140747
33.11869812011719 12.831153869628906 1.4794590473175049
33.55569076538086 12.76440715789795 1.451882243156433
33.685447692871094 12.57789134979248 1.4441986083984375
33.711082458496094 12.352483749389648 1.4431877136230469
33.729583740234375 12.125207901000977 1.4425448179244995
33.73527908325195 11.894186019897461 1.4426382780075073
33.74317932128906 11.6648530960083 1.442493200302124
33.75994110107422 11.439393997192383 1.4416781663894653
33.76099395751953 11.209450721740723 1.4417883157730103
33.78518295288086 10.98794937133789 1.4403033256530762
33.785099029541016 10.759302139282227 1.4403009414672852
33.79873275756836 10.535821914672852 1.4393151998519897
33.813758850097656 10.313453674316406 1.4381474256515503
33.79959487915039 10.08301830291748 1.4387824535369873
33.81645965576172 9.862648010253906 1.437312126159668
33.83285140991211 9.642722129821777 1.4357813596725464
33.84493637084961 9.422161102294922 1.4344394207000732
33.85655212402344 9.202075958251953 1.4330377578735352
33.852272033691406 8.978363037109375 1.4325791597366333
33.87068176269531 8.761297225952148 1.4305565357208252
33.88479995727539 8.543610572814941 1.4287232160568237
33.892677307128906 8.3248872756958 1.4272063970565796
33.899147033691406 8.106389045715332 1.4256929159164429
33.90518569946289 7.888348579406738 1.424119234085083
33.90203857421875 7.66877555847168 1.4230557680130005
33.921844482421875 7.454892635345459 1.4204076528549194
33.937374114990234 7.240429401397705 1.4179505109786987
33.94275665283203 7.024234294891357 1.4160680770874023
33.94969940185547 6.80883264541626 1.4139962196350098
33.96703338623047 6.595892906188965 1.411157250404358
33.959495544433594 6.3785719871521 1.4098585844039917
33.97511672973633 6.166046619415283 1.4069561958312988
33.97957992553711 5.951846599578857 1.4046982526779175
33.99351501464844 5.739649772644043 1.401732325553894
34.006134033203125 5.527503967285156 1.3987650871276855
34.007568359375 5.313876628875732 1.3964450359344482
34.0116081237793 5.1010308265686035 1.3938686847686768
34.024192810058594 4.889753341674805 1.3906420469284058
34.03249740600586 4.678104877471924 1.3876104354858398
34.04542922973633 4.467315673828125 1.3841863870620728
34.06398010253906 4.257408142089844 1.3803025484085083
34.07529830932617 4.046733379364014 1.3768097162246704
33.55085372924805 3.775909662246704 1.4087568521499634
33.5056266784668 3.5628621578216553 1.4088879823684692
33.56827163696289 3.361450672149658 1.4017720222473145
33.61677932739258 3.158189058303833 1.3954992294311523
33.643184661865234 2.952624559402466 1.390607237815857
33.656402587890625 2.7458789348602295 1.3865065574645996
33.66237258911133 2.538630247116089 1.3828009366989136
33.668067932128906 2.3314785957336426 1.3790289163589478
33.666507720947266 2.123974084854126 1.3756557703018188
33.64275360107422 1.915382742881775 1.3736883401870728
33.65756607055664 1.7091866731643677 1.3690450191497803
33.669124603271484 1.5027904510498047 1.3645325899124146
33.67641830444336 1.2961993217468262 1.3602190017700195
19.276885986328125 0.6230422854423523 2.3300528526306152
13.009705543518066 0.34020933508872986 2.7523159980773926
33.72760772705078 0.6769917607307434 1.3447585105895996
12.418111801147461 0.1722773313522339 2.789348602294922
33.75572967529297 0.2633645534515381 1.33440363407135
33.757415771484375 0.05630599707365036 1.3299328088760376
12.730133056640625 -0.057633135467767715 2.76320743560791
33.77293014526367 -0.3580094575881958 1.319893479347229
33.77678298950195 -0.5652799606323242 1.3150050640106201
12.821342468261719 -0.2940309941768646 2.751704454421997
33.80759811401367 -0.9807809591293335 1.3033636808395386
33.80961608886719 -1.188450813293457 1.2983256578445435
33.80438232421875 -1.3959373235702515 1.2936991453170776
33.72313690185547 -1.5998632907867432 1.2942543029785156
12.709114074707031 -0.6818785071372986 2.750044822692871
12.899761199951172 -0.7714763283729553 2.734781503677368
12.87177848815918 -0.8490800857543945 2.734691619873047
12.826416015625 -0.9251519441604614 2.7357916831970215
12.520041465759277 -0.9803237318992615 2.7551841735839844
33.88513946533203 -2.8603248596191406 1.2505161762237549
12.800920486450195 -1.1604704856872559 2.731171131134033
12.738840103149414 -1.2336853742599487 2.733351469039917
12.786487579345703 -1.3175214529037476 2.72774338722229
13.968995094299316 -1.5259143114089966 2.641479253768921
12.288529396057129 -1.418839693069458 2.75860857963562
12.380487442016602 -1.5064696073532104 2.749784231185913
12.657840728759766 -1.6190556287765503 2.7276196479797363
12.635693550109863 -1.6950769424438477 2.7268073558807373
12.621979713439941 -1.7721354961395264 2.7253592014312744
12.603849411010742 -1.8485116958618164 2.7241973876953125
12.609907150268555 -1.9285004138946533 2.721254825592041
12.54551887512207 -1.9975048303604126 2.7233827114105225
12.5142183303833 -2.0713276863098145 2.7230911254882812
33.999141693115234 -5.839828014373779 1.152805209159851
29.246932983398438 -5.208683490753174 1.4933886528015137
34.00963592529297 -6.272206783294678 1.1375846862792969
34.043678283691406 -6.494715690612793 1.1276915073394775
34.02146530151367 -6.707078456878662 1.1218277215957642
33.94026565551758 -6.907680511474609 1.1202324628829956
33.89985275268555 -7.1163506507873535 1.1155341863632202
33.9302978515625 -7.340389728546143 1.1054648160934448
33.94855499267578 -7.562686920166016 1.0961793661117554
33.97313690185547 -7.787267208099365 1.0862985849380493
34.04574203491211 -8.024101257324219 1.0726796388626099
34.05661392211914 -8.24756908416748 1.0635685920715332
34.05634689331055 -8.469067573547363 1.0551784038543701
34.095218658447266 -8.701229095458984 1.0436978340148926
34.106475830078125 -8.92737102508545 1.0341827869415283
34.10371398925781 -9.150620460510254 1.0256136655807495
34.11198806762695 -9.377609252929688 1.0160770416259766
34.107242584228516 -9.601802825927734 1.0074156522750854
34.133602142333984 -9.835679054260254 0.996228814125061
34.130638122558594 -10.062064170837402 0.9871760606765747
34.13858413696289 -10.292526245117188 0.9771488904953003
34.16022872924805 -10.528164863586426 0.9659180045127869
34.14888000488281 -10.754572868347168 0.9571318626403809
34.14931869506836 -10.985514640808105 0.9472928643226624
34.14725875854492 -11.21655559539795 0.9375174045562744
34.15687942504883 -11.452424049377441 0.9266828298568726
34.173377990722656 -11.691737174987793 0.9151588678359985
34.17033386230469 -11.925443649291992 0.905048131942749
34.14409637451172 -12.151864051818848 0.8966585993766785
34.13979721069336 -12.38691520690918 0.8863785862922668
34.20590591430664 -12.648999214172363 0.8702701926231384
34.283138275146484 -12.917282104492188 0.8530724048614502
34.26992416381836 -13.153048515319824 0.8430435657501221
34.307106018066406 -13.409464836120605 0.8287537097930908
34.34242630004883 -13.666834831237793 0.8144407868385315
34.335208892822266 -13.908669471740723 0.8034573197364807
34.34290313720703 -14.1577730178833 0.7910895347595215
34.355262756347656 -14.410194396972656 0.7781707644462585
34.3447151184082 -14.654300689697266 0.7669954895973206
34.37179946899414 -14.915886878967285 0.7525126934051514
29.52581787109375 -13.02905559539795 1.1480692625045776
34.41289138793945 -15.438433647155762 0.7240992784500122
34.40153121948242 -15.68769359588623 0.7123274207115173
34.4173469543457 -15.950810432434082 0.6980755925178528
34.409576416015625 -16.204519271850586 0.6856585741043091
34.436851501464844 -16.47637367248535 0.6700551509857178
34.447731018066406 -16.742198944091797 0.6556693911552429
34.46379089355469 -17.012310028076172 0.6406442523002625
34.471588134765625 -17.280120849609375 0.6261424422264099
34.39653778076172 -17.50751495361328 0.6187096834182739
34.343013763427734 -17.746540069580078 0.6092526912689209
34.445003509521484 -18.067996978759766 0.5858898162841797
34.400882720947266 -18.31500816345215 0.5752336382865906
34.413787841796875 -18.593904495239258 0.5593226552009583
30.81774139404297 -16.896310806274414 0.8671668171882629
30.806373596191406 -17.136873245239258 0.8546081781387329
34.573368072509766 -19.511072158813477 0.4993464946746826
34.578067779541016 -19.79457664489746 0.48325780034065247
34.560760498046875 -20.067365646362305 0.46896442770957947
34.56888961791992 -20.356868743896484 0.45212772488594055
34.619258880615234 -20.673805236816406 0.4311533570289612
34.60137176513672 -20.95236587524414 0.4162502586841583
34.606849670410156 -21.24713134765625 0.3989509642124176
34.590538024902344 -21.530637741088867 0.38345983624458313
34.54843521118164 -21.799846649169922 0.37018272280693054
34.584102630615234 -22.120372772216797 0.34932053089141846
34.65058517456055 -22.46384620666504 0.3252336084842682
34.5866813659668 -22.725221633911133 0.31334397196769714
34.39143371582031 -22.900476455688477 0.31394457817077637
30.312650680541992 -20.454404830932617 0.6914321780204773
34.65174102783203 -23.69305992126465 0.251472532749176
34.68720626831055 -24.031171798706055 0.22891715168952942
34.70594787597656 -24.36086654663086 0.20769864320755005
29.87975311279297 -21.248483657836914 0.6671775579452515
29.955495834350586 -21.580501556396484 0.6424437165260315
29.730375289916992 -21.69685173034668 0.6475895643234253
29.654041290283203 -21.921457290649414 0.6377158164978027
29.60797882080078 -22.169837951660156 0.6245982050895691
29.564746856689453 -22.42209243774414 0.6109854578971863
29.53691291809082 -22.688007354736328 0.5955753922462463
32.377281188964844 30.852571487426758 0.9720714688301086
32.431854248046875 30.527494430541992 0.9790297150611877
32.334537506103516 30.064247131347656 0.998150110244751
32.42538833618164 29.7802677154541 1.0016798973083496
32.48514175415039 29.470142364501953 1.0075372457504272
32.4449348449707 29.07314109802246 1.0212417840957642
32.40333557128906 28.679729461669922 1.0347962379455566
32.56480026245117 28.468608856201172 1.0318676233291626
32.57002258300781 28.122844696044922 1.0412462949752808
32.60033416748047 27.802053451538086 1.0484133958816528
32.58442687988281 27.44529914855957 1.0590306520462036
32.60298156738281 27.12106704711914 1.066709280014038
32.63267135620117 26.809053421020508 1.0733126401901245
32.63496780395508 26.477567672729492 1.0818661451339722
32.640663146972656 26.152063369750977 1.0899512767791748
32.66551971435547 25.84482765197754 1.0963499546051025
32.695709228515625 25.544418334960938 1.1021509170532227
32.70289611816406 25.228761672973633 1.1095479726791382
32.70745086669922 24.913978576660156 1.1169594526290894
32.72214889526367 24.609691619873047 1.1234074831008911
32.72793960571289 24.30140495300293 1.1303584575653076
32.781097412109375 24.030561447143555 1.1335183382034302
32.56695556640625 23.568037033081055 1.1568512916564941
32.597713470458984 23.287179946899414 1.1613439321517944
32.66949462890625 23.037321090698242 1.1625748872756958
32.717315673828125 22.772064208984375 1.165470838546753
32.719520568847656 22.47713279724121 1.1716514825820923
32.76808547973633 22.21607780456543 1.1741888523101807
32.74085235595703 21.905874252319336 1.1822561025619507
32.76186752319336 21.63039207458496 1.1865503787994385
32.790771484375 21.362014770507812 1.1901054382324219
32.82097625732422 21.096256256103516 1.1934187412261963
32.81039810180664 20.806339263916016 1.1996142864227295
32.81441879272461 20.527936935424805 1.2045738697052002
32.794185638427734 20.236642837524414 1.2111778259277344
18.427419662475586 11.214825630187988 2.2752625942230225
18.415267944335938 11.053295135498047 2.2788612842559814
18.38808822631836 10.884201049804688 2.283479690551758
32.89173889160156 19.199594497680664 1.2230013608932495
32.9350700378418 18.95516014099121 1.224234938621521
32.93324661254883 18.686290740966797 1.2286394834518433
32.83878707885742 18.36748504638672 1.2396609783172607
32.886741638183594 18.130535125732422 1.2401596307754517
32.98651123046875 17.922752380371094 1.236771583557129
33.00755310058594 17.6729679107666 1.2389875650405884
33.02324676513672 17.421737670898438 1.2414658069610596
33.02470397949219 17.16453742980957 1.2448482513427734
33.05268096923828 16.922529220581055 1.2461884021759033
33.075374603271484 16.67902374267578 1.2477890253067017
33.05699920654297 16.416345596313477 1.2522292137145996
33.07609558105469 16.173812866210938 1.253846526145935
33.09975814819336 15.934690475463867 1.2550177574157715
33.108211517333984 15.689476013183594 1.257163643836975
33.119422912597656 15.446866989135742 1.258994460105896
33.12891387939453 15.204710960388184 1.26083242893219
33.16487503051758 14.975750923156738 1.2606604099273682
33.11811065673828 14.71086311340332 1.2662904262542725
33.089473724365234 14.455903053283691 1.2705059051513672
33.13505172729492 14.23454475402832 1.2693085670471191
33.15986251831055 14.005013465881348 1.269485354423523
33.17020034790039 13.770357131958008 1.2705837488174438
33.18815231323242 13.539870262145996 1.2710304260253906
33.21471405029297 13.313764572143555 1.2707570791244507
33.087493896484375 13.02787971496582 1.2813109159469604
33.11623001098633 12.805243492126465 1.280664086341858
33.5455322265625 12.735403060913086 1.2514665126800537
33.68442916870117 12.552398681640625 1.2428075075149536
33.72675704956055 12.333206176757812 1.2409013509750366
33.7394905090332 12.103857040405273 1.2409906387329102
33.75068283081055 11.874814987182617 1.2410850524902344
33.75090026855469 11.64283561706543 1.241852045059204
33.75522232055664 11.413216590881348 1.242224931716919
33.76272964477539 11.185551643371582 1.2422679662704468
33.78675079345703 10.964076042175293 1.2410399913787842
33.796016693115234 10.738492965698242 1.2407550811767578
33.79997634887695 10.5120210647583 1.2407441139221191
33.794795989990234 10.283581733703613 1.2412792444229126
33.799560546875 10.059015274047852 1.2410101890563965
33.81529998779297 9.838399887084961 1.239864706993103
33.83344650268555 9.619061470031738 1.238449215888977
33.85882568359375 9.402271270751953 1.2364224195480347
33.87607955932617 9.183701515197754 1.2348718643188477
33.86299514770508 8.957618713378906 1.235371708869934
33.86676788330078 8.736775398254395 1.2345808744430542
33.881683349609375 8.51938533782959 1.2329021692276
33.89714813232422 8.302614212036133 1.2310880422592163
33.911231994628906 8.085972785949707 1.229275107383728
33.895748138427734 7.862929821014404 1.2294613122940063
33.89826965332031 7.64477014541626 1.2282752990722656
33.919857025146484 7.431358337402344 1.2256406545639038
33.942054748535156 7.218383312225342 1.222866177558899
33.94337844848633 7.001382350921631 1.2214781045913696
33.95309829711914 6.786590576171875 1.2193986177444458
33.967342376708984 6.573078632354736 1.2169015407562256
33.95964431762695 6.3557915687561035 1.2158713340759277
33.9760856628418 6.143460750579834 1.2130271196365356
33.98432922363281 5.929964542388916 1.2106728553771973
33.9892578125 5.716265678405762 1.2084602117538452
34.015499114990234 5.5063958168029785 1.2046318054199219
34.01087188720703 5.29181432723999 1.2029134035110474
34.007850646972656 5.077938079833984 1.2009859085083008
34.01830291748047 4.866415500640869 1.1980018615722656
34.0205192565918 4.6540069580078125 1.1955125331878662
34.03822326660156 4.443949222564697 1.1918193101882935
34.05463409423828 4.233847141265869 1.1881232261657715
34.06380081176758 4.023006916046143 1.1848516464233398
33.55521774291992 3.754396438598633 1.2187482118606567
33.49993896484375 3.54032039642334 1.219973087310791
33.5524787902832 3.337930202484131 1.2133383750915527
33.61968231201172 3.136510133743286 1.2055432796478271
33.644935607910156 2.930837869644165 1.2006779909133911
33.65401077270508 2.723764181137085 1.1968871355056763
33.66281509399414 2.516761541366577 1.1930214166641235
33.6733283996582 2.3099570274353027 1.1889374256134033
33.678585052490234 2.102867364883423 1.1851409673690796
33.68356704711914 1.8958542346954346 1.1812704801559448
33.694244384765625 1.6892071962356567 1.1768901348114014
33.70366287231445 1.4824987649917603 1.1725075244903564
33.71180725097656 1.2757363319396973 1.1681214570999146
19.266672134399414 0.6098971366882324 2.2223708629608154
33.70733642578125 0.8616470098495483 1.160585641860962
33.71964645385742 0.6550292372703552 1.1556072235107422
13.01159954071045 0.17166300117969513 2.6758499145507812
33.74943923950195 0.24150484800338745 1.1449787616729736
33.752960205078125 0.034488432109355927 1.140356183052063
33.76816940307617 -0.1726294606924057 1.1347719430923462
12.821944236755371 -0.145482137799263 2.683107614517212
12.777817726135254 -0.22338522970676422 2.6846179962158203
11.702351570129395 -0.2765714228153229 2.7628519535064697
12.806770324707031 -0.3810938000679016 2.6788275241851807
33.805179595947266 -1.2101587057113647 1.1082583665847778
33.780853271484375 -1.4168249368667603 1.1050320863723755
33.731361389160156 -1.6220922470092773 1.1036022901535034
12.705461502075195 -0.69041907787323 2.6787173748016357
12.864109992980957 -0.7781886458396912 2.6647589206695557
12.866930961608887 -0.8576103448867798 2.6624739170074463
33.86210632324219 -2.462352752685547 1.072182059288025
12.532124519348145 -0.989923894405365 2.68359637260437
13.07911205291748 -1.1138170957565308 2.639904260635376
12.765067100524902 -1.166042685508728 2.6615569591522217
13.075129508972168 -1.2752439975738525 2.635641574859619
13.10462474822998 -1.35932457447052 2.63104248046875
13.115736961364746 -1.4418572187423706 2.6278018951416016
33.884315490722656 -3.9322667121887207 1.028730034828186
33.932456970214844 -4.148984909057617 1.0186347961425781
33.920867919921875 -4.358949184417725 1.013029932975769
33.95441818237305 -4.575183868408203 1.0038269758224487
33.93228530883789 -4.784343242645264 0.9988256096839905
12.949460983276367 -1.908218502998352 2.625542402267456
12.883182525634766 -1.9792941808700562 2.6280691623687744
13.054780960083008 -2.087693691253662 2.611964464187622
33.99314880371094 -5.646875381469727 0.9660897254943848
33.98798370361328 -5.860527992248535 0.9592148661613464
29.271493911743164 -5.232691764831543 1.3239803314208984
33.99616241455078 -6.292448997497559 0.9436661005020142
34.01631164550781 -6.512289047241211 0.934443473815918
12.599627494812012 -2.4937045574188232 2.631009340286255
33.91850662231445 -6.926098823547363 0.9266417026519775
33.8935661315918 -7.1379218101501465 0.9206801056861877
33.899452209472656 -7.35667610168457 0.9121360778808594
33.93798065185547 -7.58337926864624 0.9008407592773438
33.956539154052734 -7.806591033935547 0.8910192251205444
34.041542053222656 -8.046365737915039 0.8756824731826782
34.046409606933594 -8.268425941467285 0.8666921854019165
34.025638580322266 -8.484821319580078 0.859663188457489
34.075931549072266 -8.719806671142578 0.8467082381248474
34.10050964355469 -8.949402809143066 0.8357080221176147
34.100440979003906 -9.173417091369629 0.8265951871871948
34.117164611816406 -9.402799606323242 0.8159646987915039
34.10932159423828 -9.626237869262695 0.8072288036346436
34.119178771972656 -9.855466842651367 0.7968922257423401
34.13323211669922 -10.086874961853027 0.7860655188560486
34.141910552978516 -10.317673683166504 0.7755439877510071
34.147132873535156 -10.548371315002441 0.7651711106300354
34.14414978027344 -10.777423858642578 0.7553462386131287
34.15861129760742 -11.012953758239746 0.7439076900482178
34.152523040771484 -11.24283504486084 0.734061062335968
34.18458557128906 -11.486390113830566 0.7208250164985657
34.185707092285156 -11.720741271972656 0.7100688219070435
34.18711853027344 -11.956198692321777 0.6991387605667114
34.13058853149414 -12.17203140258789 0.6930510997772217
34.1232795715332 -12.40600872039795 0.6825907826423645
34.2153205871582 -12.677749633789062 0.6633585691452026
34.29037857055664 -12.945456504821777 0.6453902721405029
34.286216735839844 -13.1848726272583 0.6341440081596375
34.299896240234375 -13.432355880737305 0.6211749315261841
34.310890197753906 -13.680135726928711 0.6082705855369568
34.333065032958984 -13.933804512023926 0.5942065119743347
34.32669448852539 -14.177227020263672 0.5824973583221436
34.34710693359375 -14.433066368103027 0.5682342648506165
34.31801223754883 -14.669321060180664 0.5582229495048523
34.34214401245117 -14.929600715637207 0.5432706475257874
29.513172149658203 -13.046574592590332 0.9666776657104492
34.411033630371094 -15.46453857421875 0.510911762714386
34.38310623168945 -15.706369400024414 0.5001082420349121
34.40050506591797 -15.970258712768555 0.4849954843521118
34.40873718261719 -16.231552124023438 0.47052574157714844
34.42584228515625 -16.49871253967285 0.4550425708293915
34.42482376098633 -16.758848190307617 0.4410349130630493
34.424583435058594 -17.02091407775879 0.4267624020576477
34.45002365112305 -17.297470092773438 0.4098910689353943
34.3801383972168 -17.52745819091797 0.40175890922546387
34.311378479003906 -17.758617401123047 0.3933787941932678
34.428096771240234 -18.08783721923828 0.367257684469223
34.33365249633789 -18.308046340942383 0.36095109581947327
34.418338775634766 -18.625465393066406 0.33736303448677063
30.79779052734375 -16.911693572998047 0.6700307726860046
30.79492950439453 -17.15701675415039 0.6560357213020325
34.54560470581055 -19.525243759155273 0.2771488428115845
34.56391906738281 -19.81655502319336 0.2589039206504822
34.5179328918457 -20.072763442993164 0.2467217594385147
34.55078125 -20.37672996520996 0.22657711803913116
34.55296325683594 -20.66497802734375 0.20920054614543915
34.43362045288086 -20.881689071655273 0.20368646085262299
34.38846206665039 -21.1441650390625 0.19062203168869019
34.47243881225586 -21.48855972290039 0.16435912251472473
34.42291259765625 -21.752286911010742 0.15126270055770874
34.6223030090332 -22.176889419555664 0.11264556646347046
34.52192306518555 -22.412702560424805 0.10420059412717819
30.402883529663086 -20.273765563964844 0.49175453186035156
30.261856079101562 -20.44926643371582 0.4892634451389313
29.81917953491211 -21.235185623168945 0.46552279591560364
30.16142463684082 -21.75922966003418 0.4108797609806061
29.769554138183594 -21.755725860595703 0.43444061279296875
29.67355728149414 -21.96636199951172 0.42623651027679443
29.601600646972656 -22.19576072692871 0.4152648448944092
29.567611694335938 -22.455230712890625 0.3999536633491516
29.56945037841797 -22.74427032470703 0.3804604709148407
33.909202575683594 -29.93372917175293 -0.3637852370738983
33.75264358520508 -30.166370391845703 -0.3717864751815796
33.63660430908203 -30.43631362915039 -0.38480332493782043
33.6595458984375 -30.83514976501465 -0.4147772789001465
33.47726821899414 -31.048473358154297 -0.42037642002105713
20.204280853271484 -18.97161293029785 1.1700507402420044
20.022226333618164 -19.033416748046875 1.175248622894287
32.35898971557617 30.906280517578125 0.6813728213310242
31.45599365234375 29.6773681640625 0.7765395045280457
15.541080474853516 14.483799934387207 2.228306293487549
31.629058837890625 29.11625862121582 0.7856816053390503
31.683422088623047 28.809602737426758 0.7928314805030823
31.994298934936523 28.736066818237305 0.7768532037734985
32.326358795166016 28.678335189819336 0.7589582800865173
32.5028076171875 28.4808292388916 0.7548260688781738
32.5422477722168 28.164701461791992 0.7626506686210632
32.55780029296875 27.83101463317871 0.7723513245582581
32.600990295410156 27.523941040039062 0.7793962359428406
32.58723068237305 27.172021865844727 0.7911953926086426
32.62277603149414 26.86444091796875 0.7984643578529358
32.633323669433594 26.5391902923584 0.8076862692832947
32.639564514160156 26.213573455810547 0.8170572519302368
32.651649475097656 25.89570426940918 0.8257050514221191
32.653995513916016 25.573135375976562 0.8349730968475342
32.675724029541016 25.268604278564453 0.8423696160316467
32.71477508544922 24.979907989501953 0.848090410232544
32.68778991699219 24.64363670349121 0.8592269420623779
32.71954345703125 24.354509353637695 0.8651729226112366
32.75702667236328 24.071826934814453 0.8704494833946228
32.55970001220703 23.620878219604492 0.8952938318252563
32.60548400878906 23.350431442260742 0.8994565606117249
32.672813415527344 23.097015380859375 0.9016475677490234
32.693260192871094 22.812252044677734 0.9075899720191956
32.7245979309082 22.537160873413086 0.9124497175216675
32.786800384521484 22.284976959228516 0.914579451084137
32.741920471191406 21.962299346923828 0.9254118204116821
32.80913162231445 21.717002868652344 0.926798939704895
32.79020690917969 21.416606903076172 0.9351263046264648
32.841793060302734 21.164276123046875 0.9374833106994629
32.847747802734375 20.88429069519043 0.9434266686439514
32.84897232055664 20.60343360900879 0.949589729309082
32.826786041259766 20.31022834777832 0.9574961066246033
32.879737854003906 20.06536102294922 0.9591174125671387
32.84886932373047 19.771223068237305 0.967399001121521
32.894561767578125 19.52506446838379 0.9693096280097961
32.917808532714844 19.26699447631836 0.9728913307189941
32.91667175292969 18.99640655517578 0.9782928824424744
32.912593841552734 18.726070404052734 0.9837770462036133
32.82378387451172 18.410139083862305 0.9959172010421753
32.858070373535156 18.165502548217773 0.9980078935623169
32.96416473388672 17.961231231689453 0.994210422039032
33.01626205444336 17.728023529052734 0.9946132302284241
33.00855255126953 17.464061737060547 0.9996576309204102
33.029808044433594 17.21700096130371 1.0022499561309814
33.03596496582031 16.963504791259766 1.0059064626693726
33.05183792114258 16.7164306640625 1.0086549520492554
33.06056594848633 16.467130661010742 1.0118337869644165
33.06480026245117 16.21703338623047 1.0152348279953003
33.09235763549805 15.97965145111084 1.016656756401062
33.09303283691406 15.730550765991211 1.020074486732483
33.118106842041016 15.494297981262207 1.0214357376098633
33.12068557739258 15.248734474182129 1.0244418382644653
33.16874694824219 15.025124549865723 1.0237398147583008
33.11054611206055 14.754809379577637 1.0312715768814087
33.125186920166016 14.51860523223877 1.032945156097412
33.12169647216797 14.27566909790039 1.0359184741973877
33.13852310180664 14.04266357421875 1.037175178527832
33.1583366394043 13.81190299987793 1.0380756855010986
33.179344177246094 13.582560539245605 1.0387639999389648
33.21914291381836 13.361669540405273 1.0378656387329102
33.090511322021484 13.07482624053955 1.0500023365020752
33.11862564086914 12.851764678955078 1.0497742891311646
33.46865463256836 12.752066612243652 1.0243330001831055
33.66922378540039 12.5926513671875 1.010455846786499
33.71367263793945 12.374208450317383 1.0086379051208496
33.721046447753906 12.142852783203125 1.009590983390808
33.735321044921875 11.914861679077148 1.009892225265503
33.744300842285156 11.685843467712402 1.0104900598526
33.74324035644531 11.454279899597168 1.0117542743682861
33.75859451293945 11.229146003723145 1.0116292238235474
33.78099060058594 11.007035255432129 1.010844349861145
33.79433822631836 10.782646179199219 1.010650634765625
33.788116455078125 10.5528564453125 1.0118639469146729
33.808963775634766 10.332291603088379 1.0108650922775269
33.78633117675781 10.099299430847168 1.0131289958953857
33.819557189941406 9.883756637573242 1.0109508037567139
33.826473236083984 9.661065101623535 1.010703444480896
33.83578109741211 9.439730644226074 1.0101619958877563
33.85326385498047 9.221264839172363 1.0088783502578735
33.8471794128418 8.997045516967773 1.0093146562576294
33.85602951049805 8.777501106262207 1.008485198020935
33.86732864379883 8.559162139892578 1.0073591470718384
33.89368438720703 8.34506607055664 1.0049583911895752
33.900264739990234 8.126550674438477 1.0039854049682617
33.91127014160156 7.909625053405762 1.0025622844696045
33.90143966674805 7.688458442687988 1.0026518106460571
33.914520263671875 7.473072528839111 1.0008575916290283
33.93013381958008 7.258647918701172 0.9987610578536987
33.94537353515625 7.044513702392578 0.9965900778770447
33.95144271850586 6.828890800476074 0.9950253367424011
33.95809555053711 6.613838195800781 0.9933115243911743
33.959476470947266 6.398220539093018 0.9919041991233826
33.97911071777344 6.186404705047607 0.9889731407165527
33.995460510253906 5.974241733551025 0.9861933588981628
34.00163650512695 5.760610103607178 0.984102189540863
34.00843811035156 5.547447204589844 0.98185795545578
34.02277755737305 5.335805416107178 0.9789241552352905
34.01409912109375 5.120928764343262 0.9776826500892639
34.04157638549805 4.911767959594727 0.9735147953033447
34.052947998046875 4.700416564941406 0.9705013632774353
34.071903228759766 4.490279674530029 0.9667906761169434
34.07175827026367 4.27785062789917 0.9644719958305359
34.08513259887695 4.067361831665039 0.9609915018081665
33.582069396972656 3.7986044883728027 0.9979420304298401
33.49238204956055 3.580571413040161 1.00239098072052
33.54214859008789 3.3779637813568115 0.9957855343818665
33.62442398071289 3.178067445755005 0.9865126013755798
33.644935607910156 2.9719362258911133 0.9819931983947754
33.65126037597656 2.7646098136901855 0.9784884452819824
33.659297943115234 2.557542324066162 0.9747477769851685
33.67102813720703 2.350825071334839 0.9706119894981384
33.68049240112305 2.1439950466156006 0.9665514230728149
15.756494522094727 0.9062202572822571 2.3844285011291504
15.78648853302002 0.8108330368995667 2.380403518676758
15.797978401184082 0.7143009305000305 2.377795457839966
15.773016929626465 0.6162572503089905 2.378040075302124
15.797264099121094 0.5201848745346069 2.374318838119507
15.831886291503906 0.4241306185722351 2.3697152137756348
15.833033561706543 0.32699185609817505 2.3677327632904053
15.821622848510742 0.22968058288097382 2.3667075634002686
33.74737548828125 0.2824476659297943 0.9268110990524292
12.99903678894043 0.02929254248738289 2.5894627571105957
33.762550354003906 -0.13162317872047424 0.9168046116828918
33.76076126098633 -0.33871427178382874 0.9123988151550293
33.77463912963867 -0.5460646152496338 0.9066228866577148
33.788238525390625 -0.7536223530769348 0.9007614254951477
11.857344627380371 -0.3370051085948944 2.673017740249634
33.805633544921875 -1.1690914630889893 0.8895063400268555
33.815399169921875 -1.377157211303711 0.8836293816566467
33.738258361816406 -1.5813748836517334 0.884723961353302
13.065255165100098 -0.6925082206726074 2.567197561264038
12.810896873474121 -0.7578545808792114 2.5859158039093018
12.847646713256836 -0.8391498327255249 2.580814838409424
33.862850189208984 -2.4210963249206543 0.8526979088783264
12.634407997131348 -0.9810248017311096 2.594050645828247
33.86563491821289 -2.8393187522888184 0.8408767580986023
12.974530220031738 -1.1677569150924683 2.5615334510803223
33.90193557739258 -3.261704683303833 0.8258349895477295
33.90372848510742 -3.4719269275665283 0.8194943070411682
33.916107177734375 -3.683586835861206 0.8121593594551086
33.92617416381836 -3.8954179286956787 0.8048992156982422
33.92897415161133 -4.1067938804626465 0.7981285452842712
33.940345764160156 -4.319612503051758 0.7905233502388
33.96617889404297 -4.534836292266846 0.7815830707550049
33.97486114501953 -4.7483344078063965 0.7739596366882324
33.94866943359375 -4.957215309143066 0.7691580653190613
33.98621368408203 -5.175859451293945 0.7588574290275574
33.97608947753906 -5.387815952301025 0.7524645924568176
33.991188049316406 -5.604223251342773 0.7438108325004578
12.767782211303711 -2.185368061065674 2.545488119125366
13.398608207702637 -2.378070116043091 2.4887123107910156
34.02524948120117 -6.25520658493042 0.7180420756340027
34.01033401489258 -6.468447208404541 0.7114514708518982
34.02341079711914 -6.687507629394531 0.7023314237594604
33.96965026855469 -6.893695831298828 0.6988546252250671
33.92829513549805 -7.102336406707764 0.6942012906074524
33.934356689453125 -7.321239471435547 0.6853199601173401
34.00223159790039 -7.5545334815979 0.6709191799163818
34.055885314941406 -7.7860493659973145 0.657598078250885
34.080810546875 -8.012124061584473 0.6466336846351624
34.08002853393555 -8.232950210571289 0.6377834677696228
34.083614349365234 -8.455510139465332 0.6284142136573792
34.10409927368164 -8.68309497833252 0.6174126267433167
34.122100830078125 -8.91100025177002 0.6064824461936951
34.107791900634766 -9.131209373474121 0.5982792973518372
34.12184524536133 -9.359748840332031 0.5874118804931641
34.14876174926758 -9.592850685119629 0.575242817401886
34.16930389404297 -9.825258255004883 0.5634869337081909
34.17394256591797 -10.054061889648438 0.5530086755752563
34.16941833496094 -10.280998229980469 0.543209433555603
34.209102630615234 -10.522316932678223 0.5292535424232483
34.186275482177734 -10.745391845703125 0.5208161473274231
34.177181243896484 -10.973457336425781 0.510986864566803
34.16939926147461 -11.202749252319336 0.5008891820907593
34.21299362182617 -11.450065612792969 0.4859146475791931
34.20204162597656 -11.680309295654297 0.47579264640808105
34.227176666259766 -11.92396068572998 0.46217572689056396
34.19145965576172 -12.147350311279297 0.4540400207042694
34.143985748291016 -12.367020606994629 0.4468640089035034
34.25116729736328 -12.644181251525879 0.4250677824020386
34.301212310791016 -12.902429580688477 0.4084031879901886
34.30936813354492 -13.146442413330078 0.3954891264438629
34.32509231567383 -13.394661903381348 0.38168081641197205
34.32239532470703 -13.636950492858887 0.3694401979446411
34.333709716796875 -13.88606071472168 0.35568881034851074
34.31101608276367 -14.122553825378418 0.3450113534927368
34.31886291503906 -14.372758865356445 0.3312322497367859
34.30659866333008 -14.61578369140625 0.31920793652534485
34.33742141723633 -14.878607749938965 0.30282869935035706
29.507152557373047 -13.001274108886719 0.7597344517707825
34.42504119873047 -15.42127799987793 0.2668916583061218
34.38283920288086 -15.656494140625 0.257030189037323
34.407737731933594 -15.923567771911621 0.24039004743099213
34.40000534057617 -16.1771240234375 0.22676295042037964
34.36528015136719 -16.419164657592773 0.21562620997428894
34.39518737792969 -16.69356918334961 0.19785933196544647
34.312232971191406 -16.91435432434082 0.19118309020996094
34.334739685058594 -17.188249588012695 0.17374327778816223
34.07904815673828 -17.32270622253418 0.1842309981584549
34.30093002319336 -17.701316833496094 0.14617665112018585
33.78278732299805 -17.697391510009766 0.1832871288061142
34.264060974121094 -18.218475341796875 0.11811165511608124
34.184505462646484 -18.44626808166504 0.11006942391395569
34.11217498779297 -18.67855453491211 0.10112614184617996
29.85394859313965 -21.206510543823242 0.2269897311925888
30.217456817626953 -21.74515724182129 0.1661728322505951
29.797422409057617 -21.721866607666016 0.19502855837345123
29.70321273803711 -21.933794021606445 0.1863275170326233
29.62506103515625 -22.158504486083984 0.17558333277702332
29.586536407470703 -22.414348602294922 0.15999533236026764
29.607589721679688 -22.717830657958984 0.13711918890476227
33.7603874206543 -26.235322952270508 -0.3769664466381073
33.62724304199219 -26.464683532714844 -0.3850308954715729
33.529144287109375 -26.72256088256836 -0.3974824547767639
33.45083236694336 -26.99774169921875 -0.4125567078590393
32.89399719238281 -26.88360595703125 -0.36965230107307434
32.694969177246094 -27.05756187438965 -0.37010908126831055
32.51487731933594 -27.246713638305664 -0.3729825019836426
32.23501205444336 -27.3509464263916 -0.3635932505130768
31.967937469482422 -27.463804244995117 -0.3557557165622711
31.78407096862793 -27.646947860717773 -0.3583432734012604
31.312166213989258 -27.919464111328125 -0.35058504343032837
31.00445556640625 -28.33637809753418 -0.3640872538089752
31.12035369873047 29.725149154663086 0.5151530504226685
31.24367904663086 29.478952407836914 0.5171087384223938
15.539798736572266 14.482983589172363 2.090663194656372
31.354183197021484 28.86513900756836 0.5339016914367676
31.364980697631836 28.521976470947266 0.5463017225265503
31.550090789794922 28.339054107666016 0.5413357019424438
31.729656219482422 28.150957107543945 0.5367802381515503
31.915603637695312 27.968297958374023 0.531469464302063
32.00397872924805 27.70086669921875 0.535476565361023
32.039485931396484 27.389986038208008 0.5443774461746216
32.34596252441406 27.310691833496094 0.5270116925239563
32.51938247680664 27.117525100708008 0.5223395228385925
14.558902740478516 11.989850997924805 2.2461154460906982
14.645931243896484 11.911651611328125 2.2429847717285156
14.664122581481934 11.777877807617188 2.2463150024414062
14.706231117248535 11.664159774780273 2.247290849685669
14.712167739868164 11.522697448730469 2.251584053039551
14.701935768127441 11.370010375976562 2.257286787033081
14.726849555969238 11.24572467803955 2.2595973014831543
14.714164733886719 11.093944549560547 2.2653160095214844
14.760171890258789 10.987403869628906 2.2654831409454346
14.813462257385254 10.886622428894043 2.2649035453796387
14.872529029846191 10.790285110473633 2.263723134994507
