# .PCD v0.7 - Point Cloud Data file format
VERSION 0.7
FIELDS x y z
SIZE 4 4 4
TYPE F F F
COUNT 1 1 1
WIDTH 853
HEIGHT 1
VIEWPOINT 0 0 0 1 0 0 0
POINTS 853
DATA ascii
13.694498062133789 9.590596199035645 0.34927186369895935
13.742157936096191 9.49917984008789 0.3500669598579407
13.792525291442871 9.286630630493164 0.3618801534175873
13.852898597717285 9.204588890075684 0.3591848611831665
13.876683235168457 9.098481178283691 0.36499011516571045
13.890628814697266 8.986563682556152 0.37292391061782837
13.94011402130127 8.898041725158691 0.37234190106391907
13.989864349365234 8.809773445129395 0.3715594708919525
14.024890899658203 8.712424278259277 0.3740650713443756
14.040013313293457 8.60318660736084 0.3810282051563263
14.081191062927246 8.510326385498047 0.3817839026451111
14.123444557189941 8.418286323547363 0.38214701414108276
14.163408279418945 8.325053215026855 0.3828936517238617
14.210397720336914 8.23607063293457 0.3818866014480591
14.2721586227417 8.155583381652832 0.37737318873405457
14.367731094360352 7.9784955978393555 0.37435007095336914
14.440936088562012 7.903890609741211 0.3668881356716156
15.741517066955566 0.5542914867401123 0.3554131090641022
12.855586051940918 -0.6519825458526611 0.9305402636528015
12.859790802001953 -0.7313101291656494 0.9270058274269104
12.860573768615723 -0.8105312585830688 0.9240869879722595
16.206899642944336 -1.6219221353530884 0.1948486864566803
16.010379791259766 -1.7015408277511597 0.23222774267196655
15.798924446105957 -1.777173638343811 0.27276018261909485
15.758146286010742 -1.8705717325210571 0.276898056268692
15.868255615234375 -1.9824541807174683 0.24871854484081268
15.814621925354004 -2.074389934539795 0.25534164905548096
16.01630973815918 -2.2008960247039795 0.20720325410366058
15.95849323272705 -2.292819023132324 0.2144392877817154
15.832440376281738 -2.373967409133911 0.2362281084060669
15.774617195129395 -2.464376211166382 0.24329014122486115
15.996270179748535 -2.5996625423431396 0.19004952907562256
16.053842544555664 -2.710249185562134 0.17191824316978455
16.065370559692383 -2.8137125968933105 0.1635560840368271
16.145517349243164 -2.9299943447113037 0.14018528163433075
16.037395477294922 -3.012166976928711 0.15744619071483612
15.979763984680176 -3.1030068397521973 0.16367584466934204
16.002172470092773 -3.2094078063964844 0.15238261222839355
15.99130916595459 -3.309465169906616 0.14818185567855835
15.950173377990723 -3.4031879901885986 0.15045899152755737
13.747746467590332 9.628043174743652 0.23604056239128113
13.80933666229248 9.545784950256348 0.23352575302124023
13.804226875305176 9.294685363769531 0.25948813557624817
13.828718185424805 9.188700675964355 0.26551660895347595
13.865544319152832 9.091363906860352 0.2683606445789337
13.908278465270996 8.998176574707031 0.26960793137550354
13.94626235961914 8.902169227600098 0.2718469202518463
14.063815116882324 8.617992401123047 0.27674657106399536
14.119338989257812 8.533611297607422 0.27417871356010437
14.169305801391602 8.445860862731934 0.2728012800216675
14.211126327514648 8.35334587097168 0.2732156813144684
14.25997257232666 8.265055656433105 0.2718251645565033
14.287006378173828 8.164323806762695 0.275430291891098
16.172380447387695 0.768684983253479 0.17098049819469452
15.750712394714355 0.5551179051399231 0.25875574350357056
12.851839065551758 -0.7305902242660522 0.8512572646141052
12.857488632202148 -0.8100678324699402 0.8472476005554199
15.821569442749023 -1.9760948419570923 0.16271580755710602
15.747669219970703 -2.0650877952575684 0.1740543097257614
15.819438934326172 -2.173319101333618 0.15323056280612946
15.81309700012207 -2.271404266357422 0.1494443416595459
15.840927124023438 -2.3747074604034424 0.13797619938850403
15.893179893493652 -2.4823575019836426 0.12094733864068985
15.771036148071289 -2.661985158920288 0.13664159178733826
13.782292366027832 9.273003578186035 0.17192378640174866
13.853963851928711 9.198600769042969 0.16631552577018738
13.878573417663574 9.093079566955566 0.17234329879283905
13.897479057312012 8.984410285949707 0.17959782481193542
13.947761535644531 8.896384239196777 0.17887595295906067
13.950267791748047 8.778356552124023 0.18981267511844635
14.073147773742676 8.26576042175293 0.21441693603992462
15.758705139160156 0.5502889752388 0.16769450902938843
12.8441162109375 -0.7344708442687988 0.7798990607261658
12.856538772583008 -0.8143333196640015 0.7743142247200012
15.656336784362793 -1.8631170988082886 0.11407384276390076
15.661589622497559 -1.9612767696380615 0.1080903485417366
15.63913345336914 -2.056015968322754 0.10821467638015747
12.857095718383789 -0.7203601598739624 0.6973274946212769
12.850111961364746 -0.7990729212760925 0.6960898041725159
12.850266456604004 -0.7263344526290894 0.6159264445304871
12.846152305603027 -0.8051864504814148 0.6140157580375671
12.841057777404785 -0.7232344746589661 0.5376308560371399
12.841802597045898 -0.8023316860198975 0.5345439314842224
12.831315994262695 -0.7247924208641052 0.4686826169490814
12.834941864013672 -0.8040110468864441 0.4648480713367462
12.829992294311523 -0.7144117951393127 0.39084842801094055
12.848176002502441 -0.7945135831832886 0.38328826427459717
12.827692985534668 -0.7160751223564148 0.30545327067375183
12.855477333068848 -0.7967599034309387 0.2952360212802887
12.829729080200195 -0.7136432528495789 0.22599980235099792
12.868080139160156 -0.7949826717376709 0.21276959776878357
12.810111045837402 -0.7169297933578491 0.1615046113729477
12.884981155395508 -0.8004246354103088 0.13811640441417694
13.63150691986084 13.813427925109863 0.14230968058109283
12.663159370422363 12.743040084838867 1.2907830476760864
12.674030303955078 12.665457725524902 1.2957020998001099
12.773910522460938 12.76557731628418 0.37380242347717285
12.702131271362305 12.605430603027344 1.29756760597229
12.788415908813477 12.691439628601074 0.38016650080680847
12.725077629089355 12.536176681518555 1.3006097078323364
12.6924409866333 12.50448989868164 0.41381070017814636
12.741973876953125 12.465676307678223 1.304307460784912
12.735767364501953 12.460134506225586 0.41292423009872437
12.76565170288086 12.402127265930176 1.3067821264266968
12.789041519165039 12.338563919067383 1.3092557191848755
12.802846908569336 12.270355224609375 1.3129979372024536
31.011474609375 29.521413803100586 0.3361368179321289
12.820257186889648 12.201664924621582 1.3163899183273315
31.077835083007812 29.37877082824707 0.3376542031764984
12.849967956542969 12.14493179321289 1.3176376819610596
30.998149871826172 29.09951400756836 0.3539273738861084
12.86496639251709 12.074556350708008 1.3213353157043457
12.902321815490723 12.110518455505371 0.4285412132740021
32.38001251220703 30.173006057739258 2.3983144760131836
31.11526107788086 28.995941162109375 0.350538969039917
12.892608642578125 12.012123107910156 1.3231487274169922
12.922937393188477 12.041348457336426 0.4331549108028412
32.41347885131836 29.993629455566406 2.3984742164611816
31.142826080322266 28.81946563720703 0.3557487428188324
12.906963348388672 11.941794395446777 1.326846957206726
12.953797340393066 11.986154556274414 0.4348175525665283
32.48106384277344 29.846521377563477 2.3974506855010986
31.228288650512695 28.697124481201172 0.35504403710365295
12.933773040771484 11.883261680603027 1.3283970355987549
12.968108177185059 11.9158935546875 0.4403321444988251
32.5000114440918 29.655502319335938 2.39805006980896
31.307748794555664 28.569496154785156 0.35488906502723694
12.947504043579102 11.812980651855469 1.3320953845977783
12.983905792236328 11.847338676452637 0.4454187750816345
32.55362319946289 29.507312774658203 2.397387981414795
13.01476001739502 11.798827171325684 2.19565749168396
12.969890594482422 11.755005836486816 1.3339967727661133
13.008289337158203 11.791009902954102 0.44798097014427185
32.515132904052734 29.266462326049805 2.3998756408691406
13.048340797424316 11.746670722961426 2.1954851150512695
12.98669147491455 11.688108444213867 1.3370811939239502
13.032648086547852 11.730724334716797 0.4509248435497284
32.479087829589844 29.029579162597656 2.402249574661255
13.070562362670898 11.684453010559082 2.196422576904297
13.01428508758545 11.631153106689453 1.3383209705352783
13.051237106323242 11.665492057800293 0.4551534950733185
32.462345123291016 28.81154441833496 2.4039416313171387
13.086915969848633 11.617259979248047 2.197916269302368
13.037927627563477 11.570855140686035 1.3401745557785034
13.07137393951416 11.601906776428223 0.4589538872241974
32.511985778808594 28.653474807739258 2.4033660888671875
13.101092338562012 11.548447608947754 2.1995956897735596
13.050139427185059 11.500691413879395 1.343873143196106
13.091222763061523 11.538320541381836 0.4627535343170166
32.59785461425781 28.517696380615234 2.401599168777466
13.126325607299805 11.485596656799316 2.200300693511963
13.078946113586426 11.441370964050293 1.345064401626587
13.116486549377441 11.475693702697754 0.4656488299369812
32.60158920288086 28.330785751342773 2.402467727661133
13.143534660339355 11.424031257629395 2.2014687061309814
13.092300415039062 11.376803398132324 1.3481937646865845
13.135648727416992 11.416004180908203 0.4690644145011902
32.58930587768555 28.131103515625 2.4038491249084473
13.171801567077637 11.372252464294434 2.2015204429626465
13.114762306213379 11.320377349853516 1.349782943725586
13.15269660949707 11.354702949523926 0.47290927171707153
32.613189697265625 27.95377540588379 2.404040575027466
13.186698913574219 11.305130958557129 2.2030136585235596
13.13895320892334 11.261636734008789 1.3513256311416626
13.182662963867188 11.300735473632812 0.47413045167922974
32.60197067260742 27.74747085571289 2.405383825302124
13.206985473632812 11.242890357971191 2.2039482593536377
13.166670799255371 11.206077575683594 1.3522504568099976
13.199281692504883 11.235520362854004 0.47835734486579895
32.63361358642578 27.578683853149414 2.405263662338257
13.232707977294922 11.18547248840332 2.2043230533599854
13.18089771270752 11.139253616333008 1.355332851409912
13.223132133483887 11.176685333251953 0.48086559772491455
32.63576126098633 27.38591957092285 2.4061057567596436
13.24864387512207 11.120000839233398 2.205629587173462
13.211922645568848 11.086817741394043 1.3556385040283203
13.246733665466309 11.11782169342041 0.483372300863266
32.65898895263672 27.202177047729492 2.4062602519989014
13.275785446166992 11.060215950012207 2.205955743789673
13.227502822875977 11.017704963684082 1.3586738109588623
13.273896217346191 11.058187484741211 0.4854015111923218
32.66889190673828 27.01796531677246 2.4067909717559814
13.291146278381348 10.994754791259766 2.207261800765991
13.250411033630371 10.958836555480957 1.3602120876312256
13.283709526062012 10.988266944885254 0.4909175634384155
32.6701774597168 26.827669143676758 2.4075839519500732
13.315845489501953 10.937236785888672 2.2076332569122314
13.269237518310547 10.896796226501465 1.3623671531677246
13.304615020751953 10.927789688110352 0.4938531219959259
32.67634963989258 26.642431259155273 2.408188581466675
13.3325777053833 10.87337589263916 2.208751916885376
13.289710998535156 10.836322784423828 1.364212989807129
13.327173233032227 10.868856430053711 0.49635714292526245
32.685516357421875 26.46062660217285 2.4086689949035645
13.35677719116211 10.815807342529297 2.2091214656829834
13.309929847717285 10.77584171295166 1.366058349609375
13.349480628967285 10.80989933013916 0.4988603889942169
32.689918518066406 26.27594757080078 2.409283399581909
13.372967720031738 10.751955032348633 2.2102394104003906
13.329886436462402 10.715350151062012 1.3679027557373047
13.36769962310791 10.747830390930176 0.5022242665290833
32.71164321899414 26.096765518188477 2.4093310832977295
13.406320571899414 10.69821834564209 2.2098100185394287
13.351433753967285 10.652521133422852 1.3696998357772827
13.383654594421387 10.68035888671875 0.5064023733139038
32.712318420410156 25.91107940673828 2.410020351409912
13.420023918151855 10.632801055908203 2.2111144065856934
13.372804641723633 10.593549728393555 1.3712338209152222
13.412896156311035 10.627484321594238 0.5071802139282227
32.725833892822266 25.736515045166016 2.410256862640381
13.44518756866455 10.576659202575684 2.2112927436828613
13.390028953552246 10.531492233276367 1.3733865022659302
13.426444053649902 10.562355041503906 0.5114047527313232
32.71438980102539 25.55250358581543 2.411267042160034
13.466331481933594 10.521289825439453 2.211704969406128
13.416894912719727 10.48094367980957 1.3737266063690186
13.447587013244629 10.507184982299805 0.5135213732719421
32.732177734375 25.383054733276367 2.411315679550171
13.479226112365723 10.455904006958008 2.2130093574523926
13.433621406555176 10.418865203857422 1.3758783340454102
13.47421932220459 10.45266056060791 0.514726459980011
32.735321044921875 25.20311737060547 2.411827802658081
13.505653381347656 10.401201248168945 2.212996482849121
13.454009056091309 10.359823226928711 1.3774093389511108
13.490875244140625 10.390563011169434 0.5180875062942505
32.747535705566406 25.03106117248535 2.4120147228240967
13.531866073608398 10.346442222595215 2.212981939315796
13.47218132019043 10.299261093139648 1.3792502880096436
13.515087127685547 10.33445930480957 0.5197226405143738
32.75098419189453 24.85318374633789 2.4124703407287598
13.541972160339355 10.279568672180176 2.2144744396209717
13.499972343444824 10.246194839477539 1.3795382976531982
13.53907585144043 10.278313636779785 0.5213555097579956
32.76557159423828 24.684606552124023 2.4125328063964844
13.569698333740234 10.226252555847168 2.2142693996429443
13.515669822692871 10.184102058410645 1.381688117980957
13.5589017868042 10.219160079956055 0.5238516926765442
32.7613639831543 24.502758026123047 2.413196086883545
13.585240364074707 10.163908004760742 2.215195655822754
13.539046287536621 10.127968788146973 1.3825949430465698
13.582425117492676 10.162943840026855 0.5254828929901123
32.73823928833008 24.307838439941406 2.4144632816314697
13.612519264221191 10.110496520996094 2.2149882316589355
13.556220054626465 10.067359924316406 1.3844335079193115
13.5997896194458 10.10228157043457 0.5284097790718079
32.56543731689453 23.995006561279297 2.4206879138946533
13.629302978515625 10.045766830444336 2.215865135192871
13.578868865966797 10.007328033447266 1.385601282119751
13.624585151672363 10.043628692626953 0.5299909114837646
32.4149055480957 23.7100772857666 2.4261245727539062
13.648078918457031 9.986372947692871 2.21641206741333
13.599532127380371 9.949638366699219 1.3868167400360107
13.637466430664062 9.980040550231934 0.5337814688682556
32.46904754638672 23.57625961303711 2.424760341644287
13.668623924255371 9.928433418273926 2.216768980026245
13.623971939086914 9.894840240478516 1.3874082565307617
13.658039093017578 9.922272682189941 0.5358416438102722
32.51046371459961 23.442180633544922 2.4237775802612305
13.687217712402344 9.872862815856934 2.2171738147735596
13.640449523925781 9.838019371032715 1.388981819152832
13.670676231384277 9.862546920776367 0.5392480492591858
32.52086639404297 23.277679443359375 2.423820734024048
13.709324836730957 9.816336631774902 2.217339515686035
13.658400535583496 9.778816223144531 1.3905059099197388
13.690770149230957 9.804757118225098 0.5413073301315308
32.54680252075195 23.124971389770508 2.4233291149139404
13.735267639160156 9.762662887573242 2.2171247005462646
13.67812728881836 9.72104549407959 1.3917181491851807
13.704607963562012 9.742668151855469 0.5446650385856628
32.57004165649414 22.970922470092773 2.422905445098877
13.746744155883789 9.698868751525879 2.21823787689209
13.70167064666748 9.666111946105957 1.3923057317733765
13.692026138305664 9.662148475646973 0.553654134273529
32.57609176635742 22.796979904174805 2.4230453968048096
13.7698335647583 9.639863014221191 2.2183523178100586
13.718534469604492 9.603049278259277 1.3940918445587158
13.712984085083008 9.602043151855469 0.5556654930114746
32.60610580444336 22.648941040039062 2.4223549365997314
13.797146797180176 9.587489128112793 2.2179436683654785
13.74569034576416 9.550880432128906 1.3940529823303223
13.740119934082031 9.5499267578125 0.55599045753479
32.598445892333984 22.475446701049805 2.422888994216919
13.80989933013916 9.525135040283203 2.2188663482666016
13.766522407531738 9.494413375854492 1.394949197769165
13.769083023071289 9.499133110046387 0.5558804869651794
32.52603530883789 22.258527755737305 2.425539493560791
13.828554153442383 9.467033386230469 2.21921706199646
13.787127494812012 9.43791675567627 1.39584481716156
13.909601211547852 9.52475643157959 0.5319116115570068
32.51453399658203 22.084508895874023 2.4261584281921387
13.849035263061523 9.410318374633789 2.219376802444458
13.80545711517334 9.379998207092285 1.3970521688461304
14.182823181152344 9.639455795288086 0.4797210693359375
32.54604721069336 21.948654174804688 2.425325870513916
13.873860359191895 9.360177040100098 2.219012498855591
13.832209587097168 9.331412315368652 1.3967441320419312
14.210402488708496 9.589640617370605 0.4796300530433655
32.59743881225586 21.81826400756836 2.4238297939300537
13.891840934753418 9.302000045776367 2.2193610668182373
13.843916893005371 9.269295692443848 1.3988882303237915
32.550479888916016 21.622800827026367 2.4255590438842773
13.917890548706055 9.2493314743042 2.218944549560547
13.87188720703125 9.218192100524902 1.3985278606414795
13.888993263244629 9.232695579528809 0.5596914291381836
32.49629211425781 21.423797607421875 2.4275050163269043
13.9395751953125 9.193848609924316 2.2189090251922607
13.889314651489258 9.160178184509277 1.399732232093811
13.927068710327148 9.188247680664062 0.5573980808258057
32.415531158447266 21.20063018798828 2.4303138256073
13.968892097473145 9.139985084533691 2.218248128890991
13.916389465332031 9.105156898498535 1.3996325731277466
13.93980598449707 9.123686790466309 0.5607017874717712
32.43892288208008 21.05472755432129 2.429661512374878
13.985968589782715 9.081686019897461 2.218592882156372
13.931275367736816 9.045742988586426 1.4011484384536743
13.975464820861816 9.077679634094238 0.5588383078575134
32.46379089355469 20.910274505615234 2.4289398193359375
14.004900932312012 9.024727821350098 2.218745470046997
13.952171325683594 8.990363121032715 1.4017232656478882
14.00269603729248 9.026199340820312 0.5587109923362732
32.52595901489258 20.790128707885742 2.4269707202911377
14.029908180236816 8.97177505493164 2.2183218002319336
13.977028846740723 8.93761920928955 1.4016690254211426
14.006925582885742 8.96004867553711 0.5633674263954163
32.57773971557617 20.671472549438477 2.4253218173980713
14.042642593383789 8.914533615112305 2.2189064025878906
13.989677429199219 8.880609512329102 1.4032334089279175
14.015555381774902 8.90037727355957 0.5667701959609985
32.6072998046875 20.531034469604492 2.4243898391723633
14.069347381591797 8.862820625305176 2.218287944793701
14.020421981811523 8.831743240356445 1.402234435081482
32.585411071777344 20.358858108520508 2.4251346588134766
14.083178520202637 8.803105354309082 2.2188215255737305
14.034167289733887 8.772254943847656 1.403747320175171
32.56059265136719 20.185771942138672 2.425957202911377
14.107357025146484 8.749969482421875 2.2183926105499268
14.058211326599121 8.719314575195312 1.4036879539489746
14.40644359588623 8.938774108886719 0.5014612674713135
32.48175048828125 19.980377197265625 2.4285411834716797
14.129215240478516 8.695465087890625 2.2181549072265625
14.07994270324707 8.665011405944824 1.4039416313171387
14.376524925231934 8.851035118103027 0.5130698680877686
32.46931457519531 19.809165954589844 2.4289159774780273
14.156620979309082 8.64104175567627 2.217479705810547
14.107194900512695 8.610786437988281 1.4035141468048096
32.553131103515625 19.704795837402344 2.426100969314575
14.167396545410156 8.579972267150879 2.2182037830352783
14.122147560119629 8.552520751953125 1.4047095775604248
32.47807312011719 19.504878997802734 2.4285051822662354
14.190743446350098 8.526633262634277 2.2177696228027344
14.149618148803711 8.501916885375977 1.4040145874023438
32.432071685791016 19.32363510131836 2.429932117462158
14.222453117370605 8.478341102600098 2.2165608406066895
14.168388366699219 8.446146965026855 1.4045783281326294
14.177881240844727 8.455406188964844 0.5752277374267578
32.4227409362793 19.17276382446289 2.4301390647888184
14.239659309387207 8.424802780151367 2.2165606021881104
14.191889762878418 8.396612167358398 1.4042452573776245
14.188676834106445 8.398338317871094 0.5777564644813538
32.41392135620117 19.015249252319336 2.4303057193756104
14.264571189880371 8.372540473937988 2.215928316116333
14.208110809326172 8.339512825012207 1.4051222801208496
14.202814102172852 8.34006118774414 0.5797975063323975
32.44759750366211 18.883167266845703 2.4290530681610107
14.291448593139648 8.32146167755127 2.2151002883911133
14.23267650604248 8.287391662597656 1.4047361612319946
14.240119934082031 8.295413970947266 0.5770328640937805
32.47858810424805 18.749828338623047 2.427870273590088
14.30734920501709 8.264062881469727 2.2152395248413086
14.252758026123047 8.232720375061035 1.404979944229126
14.238919258117676 8.228442192077637 0.5821309685707092
32.62289047241211 18.674144744873047 2.422922372817993
14.341753005981445 8.214064598083496 2.213775157928467
14.274051666259766 8.175519943237305 1.4051710367202759
14.264469146728516 8.173778533935547 0.5819339156150818
32.68994903564453 18.561418533325195 2.4205119609832764
14.363727569580078 8.160276412963867 2.213329553604126
14.293708801269531 8.120766639709473 1.4054125547409058
14.32264518737793 8.140987396240234 0.5747888684272766
32.71742630004883 18.42638397216797 2.4193902015686035
14.385501861572266 8.106436729431152 2.2128825187683105
14.326120376586914 8.073277473449707 1.4037550687789917
14.301426887512207 8.0631685256958 0.5838243961334229
32.76180648803711 18.301130294799805 2.417691946029663
14.428831100463867 8.064701080322266 2.2104897499084473
14.345386505126953 8.018404960632324 1.4039937257766724
14.34720230102539 8.026537895202637 0.5789111256599426
32.80156707763672 18.18844985961914 2.416153907775879
14.383365631103516 7.98053503036499 1.401167631149292
14.3670654296875 7.975356578826904 0.5792469382286072
32.88008117675781 18.08230209350586 2.4132943153381348
14.418306350708008 7.938239097595215 0.5733989477157593
32.945091247558594 17.968645095825195 2.4108614921569824
14.964503288269043 8.16657829284668 2.1669397354125977
33.014102935791016 17.857133865356445 2.4082775115966797
14.923649787902832 8.07738208770752 1.3314862251281738
33.023277282714844 17.713470458984375 2.407654047012329
33.04730224609375 17.57817268371582 2.4065213203430176
33.08487319946289 17.44297981262207 2.4049057960510254
33.090091705322266 17.298477172851562 2.4043591022491455
27.778278350830078 14.529010772705078 1.0385122299194336
33.101356506347656 17.1575984954834 2.4035959243774414
27.80649757385254 14.42051887512207 1.03847336769104
33.09648895263672 17.008859634399414 2.4033498764038086
27.820999145507812 14.305169105529785 1.0396103858947754
33.10657501220703 16.868303298950195 2.4025912284851074
27.866121292114258 14.205739974975586 1.0380011796951294
33.1004638671875 16.71999740600586 2.402353048324585
33.100425720214844 16.575298309326172 2.4018959999084473
33.11769485473633 16.43968963623047 2.4008491039276123
33.13501739501953 16.297277450561523 2.3997581005096436
33.13993453979492 16.15636444091797 2.3990867137908936
33.16227340698242 16.024309158325195 2.397820234298706
33.152034759521484 15.884051322937012 2.3976454734802246
32.66000747680664 15.65710163116455 0.6326113939285278
33.15977096557617 15.745757102966309 2.39683198928833
32.617435455322266 15.497057914733887 0.638748049736023
33.17147445678711 15.609729766845703 2.395869731903076
32.70943069458008 15.401193618774414 0.6330357789993286
33.17583084106445 15.470646858215332 2.3951356410980225
32.98860168457031 15.392328262329102 0.6108971238136292
33.18642807006836 15.334864616394043 2.394176959991455
33.10297775268555 15.305360794067383 0.6031724214553833
33.187400817871094 15.195038795471191 2.3935229778289795
33.1536979675293 15.188716888427734 0.6009812355041504
33.196895599365234 15.05951976776123 2.392568826675415
33.18132019042969 15.061607360839844 0.6007692217826843
33.20161437988281 14.915254592895508 2.3917243480682373
33.18832015991211 14.918478965759277 0.6024215221405029
33.209999084472656 14.779995918273926 2.3907742500305176
33.19442367553711 14.782303810119629 0.6039965748786926
33.21327209472656 14.642848014831543 2.389979362487793
33.17947006225586 14.637218475341797 0.6073635816574097
33.2182731628418 14.506855010986328 2.3891098499298096
33.14106369018555 14.482437133789062 0.6127251982688904
33.22711944580078 14.379780769348145 2.3881325721740723
33.18182373046875 14.369525909423828 0.6110468506813049
33.22418212890625 14.24109935760498 2.387498140335083
33.18574523925781 14.234007835388184 0.612633228302002
33.24138641357422 14.11140251159668 2.386173963546753
33.196006774902344 14.101561546325684 0.6136239767074585
33.23736572265625 13.973045349121094 2.3855443000793457
33.2103385925293 13.971144676208496 0.6142174005508423
33.253536224365234 13.84352970123291 2.3842225074768066
33.23566818237305 13.845593452453613 0.613811731338501
33.23686981201172 13.700738906860352 2.383986711502075
33.232879638671875 13.708630561828613 0.6158052086830139
33.25662612915039 13.57333755493164 2.3825128078460693
33.27106475830078 13.588815689086914 0.6141999363899231
33.22493362426758 13.425374984741211 2.382751703262329
33.26030731201172 13.4492826461792 0.6167981624603271
33.248287200927734 13.293339729309082 2.3810830116271973
33.27442932128906 13.313445091247559 0.6172755360603333
33.21073532104492 13.144131660461426 2.3814895153045654
33.209259033203125 13.153215408325195 0.6244937777519226
33.158599853515625 12.989880561828613 2.3823745250701904
33.15729522705078 12.999056816101074 0.6305209398269653
33.1757698059082 12.869942665100098 2.380955219268799
33.15586853027344 12.871938705444336 0.6320556998252869
33.21339797973633 12.751404762268066 2.378786325454712
33.18408203125 12.749908447265625 0.6310602426528931
33.4005126953125 12.699564933776855 0.6137588620185852
33.51905059814453 12.61101245880127 0.6048901081085205
33.74011993408203 12.560033798217773 0.5871350765228271
33.75362014770508 12.421162605285645 2.3567471504211426
33.75312805175781 12.431029319763184 0.5873100161552429
33.75440216064453 12.287912368774414 2.355729341506958
33.79374313354492 12.312321662902832 0.5850613713264465
33.78759002685547 12.166661262512207 2.3535971641540527
33.756568908691406 12.165602684020996 0.5894812941551208
33.8036003112793 12.032721519470215 2.3519792556762695
33.774864196777344 12.032642364501953 0.5891320109367371
33.776939392089844 11.890624046325684 2.3518459796905518
33.7858772277832 11.903951644897461 0.5893107056617737
33.80161666870117 11.766932487487793 2.349954128265381
33.786991119384766 11.772050857543945 0.590301513671875
33.80492401123047 11.642605781555176 2.3488264083862305
33.79263687133789 11.648614883422852 0.5908085703849792
33.816864013671875 11.514901161193848 2.3473358154296875
33.806922912597656 11.521787643432617 0.590584933757782
33.81649398803711 11.383273124694824 2.34624981880188
33.81364059448242 11.392613410949707 0.5909713506698608
33.8179817199707 11.25257396697998 2.3450846672058105
33.82460403442383 11.265106201171875 0.5909520387649536
33.811859130859375 11.119661331176758 2.344165802001953
33.82088088989258 11.132987976074219 0.5921547412872314
33.8337287902832 10.996195793151855 2.3422741889953613
33.83324432373047 11.006424903869629 0.5919339060783386
33.84801483154297 10.870420455932617 2.3406262397766113
33.830894470214844 10.875338554382324 0.5929374694824219
33.84992980957031 10.740901947021484 2.339386463165283
33.83279800415039 10.745909690856934 0.5935351848602295
33.8603515625 10.607836723327637 2.337779998779297
33.850318908691406 10.615166664123535 0.5927863121032715
33.86842346191406 10.480745315551758 2.3362977504730225
33.841712951660156 10.482978820800781 0.594203531742096
33.863487243652344 10.343441009521484 2.3351857662200928
33.87489700317383 10.357457160949707 0.5920244455337524
33.85923385620117 10.21957015991211 2.3341591358184814
33.85159683227539 10.227814674377441 0.5945929884910583
33.868255615234375 10.093502044677734 2.33259916305542
33.83671951293945 10.094673156738281 0.5964285731315613
33.87201690673828 9.966082572937012 2.331205129623413
33.86674118041992 9.97513198852539 0.5943723917007446
33.890384674072266 9.849552154541016 2.329355478286743
33.90420150756836 9.864202499389648 0.5916162133216858
33.87882614135742 9.71813678741455 2.328460931777954
33.897483825683594 9.734146118164062 0.5926358699798584
33.89801788330078 9.595768928527832 2.326488971710205
33.89985656738281 9.606972694396973 0.5928354859352112
33.907142639160156 9.470698356628418 2.3248486518859863
33.89696502685547 9.478560447692871 0.593448281288147
33.89894485473633 9.341033935546875 2.3237948417663574
33.87916946411133 9.346309661865234 0.5952996611595154
33.904720306396484 9.215472221374512 2.322240114212036
33.935401916503906 9.234575271606445 0.5907658338546753
33.90279006958008 9.088044166564941 2.320939064025879
33.907039642333984 9.099961280822754 0.5934445261955261
33.90435791015625 8.955463409423828 2.319432497024536
33.90620803833008 8.966751098632812 0.5937351584434509
33.920799255371094 8.8333158493042 2.3174614906311035
33.917781829833984 8.843356132507324 0.5929121971130371
33.92560958862305 8.714599609375 2.315951108932495
33.9105110168457 8.721563339233398 0.5936599373817444
33.93149948120117 8.59002685546875 2.3143177032470703
33.92119598388672 8.598286628723145 0.5928371548652649
33.9442024230957 8.467331886291504 2.3124310970306396
33.93143844604492 8.475038528442383 0.5920158624649048
33.934627532958984 8.339286804199219 2.3113088607788086
33.93155288696289 8.349442481994629 0.5920228362083435
33.94643020629883 8.21670150756836 2.309422254562378
33.94331359863281 8.226882934570312 0.5909945964813232
33.94806671142578 8.091817855834961 2.307878017425537
33.9449348449707 8.102027893066406 0.5907959342002869
33.956546783447266 7.968735218048096 2.3060781955718994
33.94367599487305 7.976692199707031 0.5908070206642151
33.9659423828125 7.839765548706055 2.304154872894287
33.94331741333008 7.845541000366211 0.5906960368156433
33.97837829589844 7.717865943908691 2.3021833896636963
33.9556884765625 7.723735809326172 0.5894608497619629
33.983062744140625 7.594343185424805 2.3004698753356934
33.95547103881836 7.599217891693115 0.5892673134803772
33.97868347167969 7.475200653076172 2.2991397380828857
33.9559440612793 7.481256008148193 0.588991641998291
33.980045318603516 7.351299285888672 2.297515392303467
33.96944046020508 7.360085964202881 0.5875480771064758
33.99318313598633 7.230076313018799 2.2954583168029785
33.97520065307617 7.2373552322387695 0.5867307782173157
34.00343704223633 7.108340263366699 2.293487787246704
33.99028396606445 7.116714954376221 0.5850786566734314
34.00836181640625 6.985614776611328 2.291691303253174
33.98295974731445 6.99153995513916 0.5853081345558167
34.006683349609375 6.855525970458984 2.2900309562683105
33.99346923828125 6.864024639129639 0.5839492678642273
34.00334167480469 6.7314772605896 2.2884984016418457
33.99744415283203 6.741489410400391 0.5831342935562134
34.01311492919922 6.616326808929443 2.286566734313965
34.00472640991211 6.625894069671631 0.5820240378379822
34.013816833496094 6.4933762550354 2.2848594188690186
33.99805450439453 6.501582145690918 0.5820506811141968
34.035064697265625 6.38057804107666 2.2824888229370117
33.99962615966797 6.385166645050049 0.5813615918159485
34.02754211425781 6.256349086761475 2.2810468673706055
34.01902389526367 6.2660369873046875 0.5790772438049316
34.037837982177734 6.129410266876221 2.2788655757904053
34.01700973510742 6.136931419372559 0.5785607695579529
34.05154800415039 6.0092902183532715 2.2766315937042236
34.02573013305664 6.016025543212891 0.5771169066429138
34.04513168334961 5.885744094848633 2.275104284286499
34.02174758911133 5.893007278442383 0.576728105545044
34.0579719543457 5.765650749206543 2.272869348526001
34.03696823120117 5.773421287536621 0.5746511816978455
34.05314254760742 5.64268159866333 2.271256685256958
34.03948211669922 5.651760578155518 0.5736297369003296
34.051292419433594 5.5142741203308105 2.26943039894104
34.0548095703125 5.52620792388916 0.5714262127876282
34.060359954833984 5.393849849700928 2.2672853469848633
34.05644607543945 5.404609680175781 0.5704044699668884
34.05418395996094 5.271137714385986 2.2656750679016113
34.05518341064453 5.282685279846191 0.5695957541465759
34.0599250793457 5.150400638580322 2.2636191844940186
34.06825637817383 5.16307258605957 0.5675152540206909
34.06683349609375 5.035996437072754 2.261599063873291
34.06033706665039 5.046459674835205 0.5672571659088135
34.07667541503906 4.916012763977051 2.2593629360198975
34.07011413574219 4.926507949829102 0.5653888583183289
34.091060638427734 4.796718597412109 2.256946325302124
34.0671501159668 4.804811000823975 0.564582347869873
34.09263610839844 4.675685882568359 2.2549796104431152
34.08348083496094 4.685906410217285 0.562075138092041
34.106178283691406 4.556355953216553 2.2525603771209717
34.101871490478516 4.5672760009765625 0.5593531131744385
34.12671661376953 4.437952041625977 2.249868154525757
34.10008239746094 4.445998191833496 0.5583345293998718
34.107948303222656 4.30849552154541 2.2485010623931885
34.12332534790039 4.321967124938965 0.5550574064254761
34.10283279418945 4.187008380889893 2.246718406677246
34.110782623291016 4.199523448944092 0.5548924803733826
34.09284973144531 4.076627731323242 0.5551565885543823
34.116539001464844 3.958784818649292 0.5517894625663757
33.558353424072266 3.6514530181884766 2.2589080333709717
33.54594421386719 3.5317084789276123 2.2573540210723877
33.57785415649414 3.41664457321167 2.2541422843933105
33.26997375488281 3.3966643810272217 0.6195125579833984
33.6367073059082 3.3040854930877686 2.249910354614258
33.37311553955078 3.2895848751068115 0.6091132164001465
33.63853454589844 3.179873466491699 2.2476751804351807
33.295440673828125 3.158823013305664 0.6142650842666626
33.7065544128418 3.067671060562134 2.2430598735809326
33.27875900268555 3.040130615234375 0.6141741275787354
33.697044372558594 2.94828724861145 2.2413153648376465
33.05074691772461 2.9030802249908447 0.6323846578598022
33.69906997680664 2.835930585861206 2.2392306327819824
32.62565994262695 2.7568283081054688 0.6677715182304382
33.698699951171875 2.7175118923187256 2.2371160984039307
33.032073974609375 2.675110101699829 0.6308602094650269
33.71037292480469 2.600090265274048 2.2345328330993652
33.321598052978516 2.5815534591674805 0.6040324568748474
33.7066764831543 2.4815196990966797 2.232511281967163
32.8681755065918 2.431119918823242 0.6417478919029236
33.702571868896484 2.363006353378296 2.2304890155792236
32.920963287353516 2.3195619583129883 0.6354278922080994
33.70552444458008 2.245049238204956 2.22818660736084
33.115020751953125 2.217139482498169 0.6167669296264648
33.715919494628906 2.1216890811920166 2.225476026535034
33.06551742553711 2.092180013656616 0.6191781163215637
33.703060150146484 2.0028343200683594 2.2237391471862793
32.94062805175781 1.9689197540283203 0.6282212734222412
33.679805755615234 1.8835370540618896 2.2223808765411377
15.816503524780273 0.8910552263259888 2.1202380657196045
33.69575500488281 1.772396445274353 2.219635248184204
15.801858901977539 0.8376986384391785 2.1206462383270264
33.7091178894043 1.6551660299301147 2.216857671737671
15.81701374053955 0.7831685543060303 2.1183907985687256
15.83446979522705 0.7286564707756042 2.115915298461914
15.841782569885254 0.6736099123954773 2.1143085956573486
12.497968673706055 0.48385098576545715 3.021230459213257
15.836462020874023 0.6180367469787598 2.1137890815734863
19.313383102416992 0.7567712664604187 0.8500264286994934
12.467081069946289 0.43909671902656555 3.0215487480163574
15.840899467468262 0.5628609657287598 2.112398386001587
19.33550262451172 0.6900832056999207 0.8458775877952576
12.45607852935791 0.39302095770835876 3.0210583209991455
15.85518741607666 0.5052129030227661 2.1100757122039795
12.532246589660645 0.3516412377357483 3.017254590988159
15.856743812561035 0.44988441467285156 2.108901262283325
19.312294006347656 0.5509892106056213 0.8466843962669373
15.87055778503418 0.3948589563369751 2.106633424758911
19.32627296447754 0.4839102327823639 0.8435514569282532
15.869180679321289 0.3421933054924011 2.1057350635528564
12.570045471191406 0.22322779893875122 3.01316237449646
15.870169639587402 0.2868169844150543 2.1045584678649902
33.79277420043945 0.4787442088127136 2.1900365352630615
15.88839340209961 0.23168952763080597 2.1018481254577637
33.78413772583008 0.3607098460197449 2.1879186630249023
15.881524085998535 0.17616495490074158 2.101327896118164
33.792579650878906 0.24286572635173798 2.185121774673462
32.858211517333984 0.24765713512897491 0.6037856936454773
12.554276466369629 0.047688838094472885 3.0101144313812256
32.83375930786133 0.13289985060691833 0.6035448312759399
12.60678482055664 0.0038863574154675007 3.0071351528167725
32.88609313964844 0.018353857100009918 0.596491813659668
12.674116134643555 -0.04254365339875221 3.003514528274536
32.8807258605957 -0.10212194919586182 0.5943686366081238
12.726305961608887 -0.0871390625834465 3.0005180835723877
32.96710205078125 -0.2174365222454071 0.5842192769050598
12.780834197998047 -0.1321256011724472 2.99741530418396
33.00825119018555 -0.3329011797904968 0.5780247449874878
12.76276683807373 -0.1764807403087616 2.9971539974212646
32.869720458984375 -0.44621172547340393 0.5877072811126709
12.664658546447754 -0.2171049416065216 3.0000927448272705
32.8653564453125 -0.555128812789917 0.5856091380119324
12.643798828125 -0.26088324189186096 2.999940872192383
33.71696472167969 -0.6872647404670715 0.5073699355125427
33.847530364990234 -0.8199679851531982 2.1599724292755127
33.7315559387207 -0.8053306341171265 0.5033160448074341
33.85433578491211 -0.9383568167686462 2.1570608615875244
33.603851318359375 -0.9196161031723022 0.5118768811225891
33.84575653076172 -1.0563350915908813 2.154742479324341
33.06755828857422 -1.020399808883667 0.5567880272865295
33.841758728027344 -1.1744388341903687 2.1522257328033447
33.287559509277344 -1.1434882879257202 0.534373939037323
33.31797409057617 -1.2609566450119019 0.5287916660308838
12.943826675415039 -0.5361403226852417 2.3445494174957275
12.5483980178833 -0.5679783225059509 2.9967129230499268
12.95173454284668 -0.581751823425293 2.3426973819732666
12.688619613647461 -0.6165078282356262 2.990119218826294
33.299774169921875 -1.6095409393310547 0.5215792059898376
13.00316047668457 -0.6773350834846497 2.9764368534088135
13.005660057067871 -0.7229853868484497 2.9752678871154785
13.126280784606934 -0.7250937223434448 2.32358717918396
12.944337844848633 -0.712608814239502 1.6963815689086914
12.815991401672363 -0.757285475730896 2.9818496704101562
12.954545974731445 -0.7609370350837708 2.3377749919891357
12.944103240966797 -0.7579147219657898 1.6950726509094238
12.933744430541992 -0.7524506449699402 1.0446330308914185
12.902304649353027 -0.7522858381271362 0.38787341117858887
12.790786743164062 -0.8005958795547485 2.9818029403686523
12.91443920135498 -0.8038100004196167 2.340158224105835
12.911581993103027 -0.8012294173240662 1.6982488632202148
12.911238670349121 -0.7963582873344421 1.0473978519439697
12.875102996826172 -0.7957903742790222 0.3927716612815857
11.965343475341797 -0.790729820728302 3.0141940116882324
12.889100074768066 -0.847395122051239 2.3412067890167236
12.938215255737305 -0.8482235670089722 1.6931445598602295
12.922898292541504 -0.8423607349395752 1.0436389446258545
12.90111255645752 -0.8426080346107483 0.3847796618938446
11.967452049255371 -0.8328272700309753 3.0130999088287354
12.938138008117676 -0.895986020565033 2.3355512619018555
12.141153335571289 -0.889662504196167 3.00496244430542
12.917284965515137 -0.9421129822731018 2.3361053466796875
12.187742233276367 -0.9358583688735962 3.0020253658294678
12.906377792358398 -0.9866102933883667 2.3358142375946045
12.49061393737793 -1.0030264854431152 2.988595962524414
12.880423545837402 -1.0298503637313843 2.336869478225708
12.499438285827637 -1.0476531982421875 2.987154483795166
12.894026756286621 -1.0762416124343872 2.334338665008545
12.436132431030273 -1.0838701725006104 2.988720655441284
12.41232681274414 -1.1254533529281616 2.9886116981506348
33.62087631225586 -3.1584160327911377 0.45023420453071594
12.779468536376953 -1.2487965822219849 2.971249580383301
33.63667678833008 -3.2783725261688232 0.44524964690208435
12.807291984558105 -1.2966605424880981 2.9689581394195557
33.66195297241211 -3.399480104446411 0.43936023116111755
12.810096740722656 -1.3421274423599243 2.9676926136016846
33.69174575805664 -3.52132248878479 0.43301481008529663
13.259481430053711 -1.4384245872497559 2.9477880001068115
33.784812927246094 -3.656266927719116 0.42067110538482666
15.933123588562012 -1.7142560482025146 0.44515159726142883
13.371001243591309 -1.4977731704711914 2.941934585571289
33.88296127319336 -3.7865846157073975 0.4079863429069519
15.941454887390137 -1.771464467048645 0.44114983081817627
13.365643501281738 -1.5444239377975464 2.9409356117248535
33.88661575317383 -3.9067904949188232 0.403872549533844
15.949578285217285 -1.8287523984909058 0.4371466338634491
13.21874713897705 -1.57419753074646 2.9458553791046143
33.73655700683594 -4.008845329284668 0.41378024220466614
15.842883110046387 -1.8725581169128418 0.4551813006401062
12.596068382263184 -1.542320966720581 2.970815896987915
33.79205322265625 -4.129117965698242 0.4050465524196625
15.9143705368042 -1.9345510005950928 0.4390445649623871
12.61286735534668 -1.5890806913375854 2.9689364433288574
33.71544647216797 -4.2392377853393555 0.40818357467651367
16.104646682739258 -2.0147783756256104 0.3998427987098694
33.954708099365234 -4.401813507080078 2.0684268474578857
33.57675552368164 -4.340891361236572 0.4169987738132477
15.909753799438477 -2.0468051433563232 0.4347877502441406
33.98854446411133 -4.526875019073486 2.063796043395996
33.733924865722656 -4.480987071990967 0.3986043334007263
15.885235786437988 -2.1000454425811768 0.4368855655193329
33.99964904785156 -4.649179935455322 2.060101270675659
33.86831283569336 -4.619202136993408 0.38222867250442505
15.79241943359375 -2.14388370513916 0.45214176177978516
34.000423431396484 -4.770229339599609 2.0568222999572754
33.923255920410156 -4.747366905212402 0.37310388684272766
15.816224098205566 -2.2033777236938477 0.4448496401309967
34.0073127746582 -4.898341178894043 2.0530996322631836
33.9595947265625 -4.879417896270752 0.36543411016464233
16.07273292541504 -2.299236297607422 0.39235439896583557
34.02202224731445 -5.021728515625 2.049185276031494
15.911325454711914 -2.33284068107605 0.4207857549190521
34.021461486816406 -5.14303731918335 2.045898914337158
15.8737154006958 -2.3839597702026367 0.4252413213253021
34.02540588378906 -5.265167713165283 2.042400598526001
33.99696350097656 -5.24869966506958 0.34937340021133423
15.828662872314453 -2.4337260723114014 0.4311140477657318
34.02738952636719 -5.38106107711792 2.0391321182250977
34.01603317260742 -5.367191314697266 0.3435318171977997
15.805731773376465 -2.4838876724243164 0.4328133165836334
34.03047561645508 -5.503361701965332 2.035628080368042
33.991939544677734 -5.485060691833496 0.3414403200149536
15.825820922851562 -2.543696880340576 0.42597612738609314
34.020809173583984 -5.623711585998535 2.032653331756592
34.006736755371094 -5.60931396484375 0.3356928825378418
15.814189910888672 -2.5984978675842285 0.425261527299881
34.04273223876953 -5.749472618103027 2.0282950401306152
34.01617431640625 -5.732909679412842 0.3303995728492737
15.770895004272461 -2.647960901260376 0.4306768476963043
34.01288986206055 -5.854527950286865 0.3262471854686737
15.720187187194824 -2.695908308029175 0.4375128448009491
34.014076232910156 -5.977056503295898 0.3216342628002167
15.753974914550781 -2.7583653926849365 0.427841454744339
34.08003616333008 -6.129603385925293 2.016127586364746
34.08534240722656 -6.253452777862549 2.012392282485962
34.13439178466797 -6.385684490203857 2.0067222118377686
34.001625061035156 -6.348765850067139 0.308804452419281
16.12605857849121 -3.000899314880371 0.34535062313079834
34.06761932373047 -6.496337413787842 2.0060958862304688
33.986358642578125 -6.4687700271606445 0.3055635094642639
16.095951080322266 -3.053480625152588 0.34792107343673706
34.060489654541016 -6.612098217010498 2.0030205249786377
33.99626159667969 -6.587554931640625 0.3001498579978943
16.015613555908203 -3.09330415725708 0.3604828715324402
34.06404113769531 -6.736248016357422 1.999276876449585
34.021663665771484 -6.715786933898926 0.2929932177066803
16.05987548828125 -3.1600699424743652 0.34840288758277893
33.99613952636719 -6.846201419830322 1.9986640214920044
34.04414367675781 -6.843785285949707 0.2860604226589203
16.091835021972656 -3.2247700691223145 0.33868172764778137
33.962127685546875 -6.962786674499512 1.996543526649475
33.966156005859375 -6.9515533447265625 0.2885764241218567
16.10429573059082 -3.28580379486084 0.332739919424057
33.93017578125 -7.079729080200195 1.9943175315856934
33.91219711303711 -7.063939571380615 0.28879427909851074
16.150171279907227 -3.353956460952759 0.3201673626899719
33.90632247924805 -7.204524993896484 1.9915316104888916
33.898006439208984 -7.190726280212402 0.2849637269973755
16.11349868774414 -3.408015251159668 0.323629766702652
33.9199104309082 -7.331246376037598 1.9872424602508545
33.872459411621094 -7.308965682983398 0.28241637349128723
16.209251403808594 -3.487460136413574 0.3010962903499603
33.918392181396484 -7.45493221282959 1.983602523803711
33.84163284301758 -7.426048278808594 0.2803327441215515
16.136791229248047 -3.530867338180542 0.31172797083854675
33.92506790161133 -7.574413299560547 1.9797604084014893
16.11997413635254 -3.5832669734954834 0.3115237355232239
33.91291809082031 -7.696070671081543 1.9765528440475464
16.109521865844727 -3.6400272846221924 0.30983680486679077
33.855464935302734 -7.801162242889404 1.9755529165267944
33.98478698730469 -7.81891393661499 0.2518588602542877
16.121055603027344 -3.6988935470581055 0.3039405047893524
33.87898635864258 -7.931217193603516 1.970701813697815
34.00067138671875 -7.947653770446777 0.24512557685375214
16.100635528564453 -3.7534432411193848 0.30415183305740356
33.894710540771484 -8.059796333312988 1.9661743640899658
34.033023834228516 -8.080626487731934 0.23676082491874695
16.07286262512207 -3.8061985969543457 0.30578964948654175
33.878395080566406 -8.180960655212402 1.9630722999572754
34.04792785644531 -8.2098388671875 0.23001563549041748
33.95139694213867 -8.324116706848145 1.9558907747268677
34.05992126464844 -8.33866024017334 0.2234988659620285
34.02381134033203 -8.46788501739502 1.9486950635910034
34.069007873535156 -8.46706485748291 0.21720930933952332
34.0738410949707 -8.6067533493042 1.942481279373169
34.08968734741211 -8.598682403564453 0.209752157330513
34.109676361083984 -8.748924255371094 1.936683177947998
34.09867477416992 -8.734025001525879 0.20309174060821533
34.095741271972656 -8.872305870056152 1.933335304260254
34.11832809448242 -8.866106033325195 0.195622980594635
34.129642486572266 -9.008445739746094 1.9277642965316772
34.13987731933594 -8.999064445495605 0.18791399896144867
34.136470794677734 -9.137825012207031 1.9234092235565186
34.156097412109375 -9.130995750427246 0.18066704273223877
34.13558578491211 -9.265400886535645 1.9193854331970215
34.13578414916992 -9.25338077545166 0.17692209780216217
34.13180923461914 -9.392416954040527 1.9154695272445679
34.117431640625 -9.376396179199219 0.17294390499591827
34.13719177246094 -9.52220630645752 1.9111039638519287
34.093833923339844 -9.49806022644043 0.1694328486919403
34.127662658691406 -9.6480712890625 1.9074074029922485
34.05783462524414 -9.616292953491211 0.16709531843662262
34.14167785644531 -9.780863761901855 1.902586579322815
34.086029052734375 -9.752881050109863 0.15842512249946594
