# .PCD v0.7 - Point Cloud Data file format
VERSION 0.7
FIELDS x y z
SIZE 4 4 4
TYPE F F F
COUNT 1 1 1
WIDTH 846
HEIGHT 1
VIEWPOINT 0 0 0 1 0 0 0
POINTS 846
DATA ascii
33.11408615112305 14.76766300201416 0.15161609649658203
33.10971450805664 14.523092269897461 0.1572682410478592
33.09262466430664 14.274397850036621 0.1640804409980774
33.11497497558594 14.043949127197266 0.16658921539783478
33.144012451171875 13.817207336425781 0.16823619604110718
33.17520523071289 13.592145919799805 0.1694999486207962
33.20396041870117 13.36684799194336 0.17086146771907806
33.0673713684082 13.076918601989746 0.18929123878479004
33.1075553894043 12.85871696472168 0.18913157284259796
33.44855880737305 12.755768775939941 0.15755483508110046
33.62546920776367 12.587703704833984 0.14293232560157776
33.608184814453125 12.346899032592773 0.1483313888311386
33.651004791259766 12.129053115844727 0.14733876287937164
33.66521453857422 11.901522636413574 0.1491611897945404
33.6760139465332 11.673622131347656 0.15118162333965302
33.68435287475586 11.445713996887207 0.1533033400774002
33.693992614746094 11.219083786010742 0.15513847768306732
33.684146881103516 10.986900329589844 0.15883298218250275
33.70590591430664 10.76585578918457 0.15911583602428436
33.706275939941406 10.53872013092041 0.1614551991224289
33.72892379760742 10.319259643554688 0.16135166585445404
33.74919509887695 10.099632263183594 0.16134601831436157
33.74989700317383 9.874832153320312 0.1632079929113388
33.75293731689453 9.651494026184082 0.16468271613121033
33.76122283935547 9.430364608764648 0.16547365486621857
33.76998519897461 9.210017204284668 0.16607050597667694
33.789825439453125 8.993241310119629 0.1653871238231659
33.791893005371094 8.77231502532959 0.16638556122779846
33.802181243896484 8.554142951965332 0.16639815270900726
33.79946517944336 8.333312034606934 0.1676018089056015
33.814674377441406 8.117480278015137 0.1668272763490677
33.826560974121094 7.901319980621338 0.1662524789571762
33.83416748046875 7.684655666351318 0.1659773886203766
33.850101470947266 7.470337390899658 0.16470952332019806
33.86079406738281 7.255276679992676 0.16384029388427734
33.86427307128906 7.039148807525635 0.1635710448026657
33.880035400390625 6.825998783111572 0.16190563142299652
33.89055252075195 6.612156391143799 0.16064032912254333
33.88505554199219 6.3956708908081055 0.16087929904460907
33.89971160888672 6.183427810668945 0.1589152067899704
33.92185592651367 5.972795486450195 0.1560460478067398
33.91326904296875 5.7571258544921875 0.15619300305843353
33.92982482910156 5.546116828918457 0.15362592041492462
33.935245513916016 5.333574295043945 0.1520642787218094
33.9412956237793 5.121468544006348 0.15030360221862793
33.95488739013672 4.910767078399658 0.14763318002223969
33.97406768798828 4.70104455947876 0.14425259828567505
33.9781494140625 4.489444255828857 0.14228805899620056
33.98090744018555 4.27796745300293 0.14032499492168427
33.980377197265625 4.06638765335083 0.1385664939880371
32.45332336425781 3.6819498538970947 0.2937999963760376
32.42145919799805 3.47709584236145 0.2950957417488098
32.35068893432617 3.2689690589904785 0.3002754747867584
32.372676849365234 3.0707619190216064 0.29577401280403137
32.351829528808594 2.868715763092041 0.29556146264076233
32.35649490356445 2.6692464351654053 0.29259154200553894
32.357940673828125 2.4696736335754395 0.28982532024383545
32.382965087890625 2.271921157836914 0.2844933569431305
32.40082550048828 2.073570728302002 0.2797718644142151
15.753393173217773 0.9113994836807251 2.0018301010131836
15.782319068908691 0.8159887194633484 1.9973090887069702
15.786819458007812 0.719170331954956 1.9952565431594849
15.792715072631836 0.6224043369293213 1.9929955005645752
15.800002098083496 0.5256580710411072 1.9905261993408203
15.815645217895508 0.4290870130062103 1.9871225357055664
15.825725555419922 0.3322383165359497 1.984233021736145
15.818305015563965 0.23503002524375916 1.9831050634384155
32.50872039794922 0.28319957852363586 0.23688752949237823
32.67152404785156 0.08421403169631958 0.21568576991558075
32.583457946777344 -0.11587012559175491 0.22059305012226105
32.509098052978516 -0.3150182366371155 0.22395682334899902
32.41363525390625 -0.5129461884498596 0.22942736744880676
32.425350189208984 -0.712099015712738 0.22352099418640137
32.43185806274414 -0.9113056063652039 0.21802811324596405
32.42223358154297 -1.1101109981536865 0.2141045182943344
12.890856742858887 -0.5203328132629395 2.272414207458496
32.52847671508789 -1.5134810209274292 0.19259469211101532
13.079784393310547 -0.688785195350647 2.24820613861084
12.844827651977539 -0.75544673204422 2.2709388732910156
12.860618591308594 -0.8355724811553955 2.2670419216156006
12.855076789855957 -0.9144389033317566 2.265357732772827
12.8738374710083 -0.9951866865158081 2.2610297203063965
13.231978416442871 -1.1045829057693481 2.220376968383789
11.993721961975098 -1.0753117799758911 2.3504183292388916
12.817819595336914 -1.8669673204421997 2.2378857135772705
12.789237976074219 -1.9430124759674072 2.238023519515991
29.27007293701172 -5.185249328613281 0.4101792573928833
19.573383331298828 -6.946619510650635 1.3089393377304077
19.500200271606445 -7.055721759796143 1.3098969459533691
19.412429809570312 -7.159031867980957 1.3125404119491577
19.332500457763672 -7.264678955078125 1.3141950368881226
19.30026626586914 -7.388092517852783 1.3100531101226807
19.264469146728516 -7.51030158996582 1.3062478303909302
19.23990249633789 -7.637118816375732 1.300989031791687
19.21173858642578 -7.762801170349121 1.2960659265518188
19.173564910888672 -7.884646892547607 1.2922654151916504
20.600494384765625 -13.152703285217285 0.787522554397583
20.321426391601562 -13.150904655456543 0.812180757522583
20.010778427124023 -13.124939918518066 0.8414227366447449
19.818689346313477 -13.173745155334473 0.8542602062225342
19.593807220458984 -13.198497772216797 0.8717830181121826
19.4661808013916 -13.287067413330078 0.8756365180015564
19.381500244140625 -13.404513359069824 0.8733446002006531
19.353858947753906 -13.561893463134766 0.862793505191803
19.33148956298828 -13.724037170410156 0.851304292678833
19.314306259155273 -13.891057014465332 0.8388753533363342
19.304624557495117 -14.06481647491455 0.8251528739929199
19.294330596923828 -14.239568710327148 0.8113027811050415
19.30249786376953 -14.429590225219727 0.7945172786712646
19.27896499633789 -14.597465515136719 0.7821668982505798
19.2824649810791 -14.787353515625 0.7655888795852661
19.296117782592773 -14.986970901489258 0.7472357153892517
19.296327590942383 -15.178099632263184 0.7306265234947205
19.284814834594727 -15.361750602722168 0.7155320048332214
19.29882049560547 -15.567655563354492 0.6963078379631042
19.30486488342285 -15.769281387329102 0.6780073046684265
19.317569732666016 -15.978528022766113 0.6583939790725708
19.3238582611084 -16.1846981048584 0.6394702792167664
19.35711097717285 -16.415952682495117 0.61604243516922
19.395023345947266 -16.654043197631836 0.5915262699127197
20.805320739746094 -18.542116165161133 0.30843570828437805
20.54257583618164 -18.53566551208496 0.32941919565200806
20.303434371948242 -18.547456741333008 0.34677717089653015
20.097003936767578 -18.58668327331543 0.35895630717277527
19.80533790588379 -18.544002532958984 0.38520509004592896
19.648273468017578 -18.624820709228516 0.38950109481811523
19.450849533081055 -18.66591453552246 0.4004928171634674
15.50258731842041 14.453569412231445 1.5802990198135376
12.906668663024902 11.886319160461426 1.9323259592056274
12.959981918334961 11.789518356323242 1.933245062828064
14.381473541259766 12.9225492477417 1.7553092241287231
14.399195671081543 12.77992057800293 1.7614705562591553
14.4583740234375 12.674962043762207 1.7621121406555176
14.529597282409668 12.580831527709961 1.7610985040664673
13.126777648925781 11.226175308227539 1.9492207765579224
13.170092582702637 11.12425708770752 1.950800895690918
13.220294952392578 11.028607368469238 1.9514051675796509
13.263673782348633 10.927695274353027 1.9527828693389893
13.29859447479248 10.82038402557373 1.955132246017456
13.34123420715332 10.719911575317383 1.9564069509506226
13.362093925476074 10.602621078491211 1.9603149890899658
13.397686958312988 10.49775505065918 1.96226966381073
13.438794136047363 10.397721290588379 1.9634398221969604
13.474433898925781 10.293952941894531 1.9651941061019897
13.51089859008789 10.191338539123535 1.9667506217956543
13.547410011291504 10.089256286621094 1.9682066440582275
13.583179473876953 9.98710823059082 1.9696602821350098
13.618206024169922 9.88490104675293 1.9711114168167114
13.654109954833984 9.783799171447754 1.9723637104034424
13.695786476135254 9.687225341796875 1.972825288772583
13.722922325134277 9.580821990966797 1.9749599695205688
13.773032188415527 9.490826606750488 1.9742302894592285
13.8126802444458 9.393858909606934 1.9746805429458618
13.839264869689941 9.288444519042969 1.9766119718551636
13.872544288635254 9.187999725341797 1.9776511192321777
13.907612800598145 9.089130401611328 1.9783905744552612
13.948681831359863 8.994488716125488 1.9783331155776978
13.969802856445312 8.88740062713623 1.9805572032928467
14.015420913696289 8.796259880065918 1.9797972440719604
14.065523147583008 8.708035469055176 1.9784342050552368
14.097237586975098 8.608634948730469 1.97915780544281
14.132523536682129 8.511739730834961 1.979380488395691
14.17485237121582 8.419307708740234 1.9787006378173828
14.213144302368164 8.324664115905762 1.9784157276153564
14.249086380004883 8.22887134552002 1.9783270359039307
14.290440559387207 8.136396408081055 1.977533221244812
14.33206558227539 8.044208526611328 1.9766340255737305
14.620340347290039 8.088608741760254 1.9471983909606934
15.874014854431152 8.529836654663086 1.8107008934020996
27.464284896850586 14.54190731048584 0.4859984517097473
27.4952335357666 14.343269348144531 0.4890850782394409
27.49823570251465 14.131155967712402 0.4952034652233124
27.516542434692383 13.928080558776855 0.4994090497493744
27.46839714050293 13.692911148071289 0.5110098719596863
27.664005279541016 13.579410552978516 0.49476006627082825
27.783105850219727 13.427226066589355 0.48709386587142944
28.09901237487793 13.368114471435547 0.4570596218109131
28.42873764038086 13.311955451965332 0.4254281520843506
32.24100112915039 3.459970712661743 0.10203105211257935
15.755451202392578 0.9121907353401184 1.8986409902572632
15.767478942871094 0.8158958554267883 1.895825982093811
19.285791397094727 0.7609959840774536 1.5040104389190674
19.263996124267578 0.6418295502662659 1.5043559074401855
12.892151832580566 -0.5992066264152527 2.185981273651123
13.04583740234375 -0.6865688562393188 2.166541814804077
12.883462905883789 -0.7573073506355286 2.182607889175415
12.88731575012207 -0.8368939757347107 2.1799139976501465
12.857966423034668 -0.9142328500747681 2.180915355682373
12.835440635681152 -1.1503924131393433 2.1761996746063232
12.8269681930542 -1.2290029525756836 2.174628973007202
12.799687385559082 -1.3850808143615723 2.1725046634674072
12.799649238586426 -1.464578628540039 2.1698076725006104
12.774454116821289 -1.5411549806594849 2.169935941696167
12.749749183654785 -1.8566421270370483 2.161182165145874
29.248380661010742 -5.179383754730225 0.2185080647468567
19.86362648010254 -6.503976821899414 1.1682056188583374
19.463237762451172 -6.505435943603516 1.2103747129440308
19.234668731689453 -6.560576915740967 1.231271743774414
19.132789611816406 -6.657217979431152 1.2363533973693848
19.13152503967285 -6.788721561431885 1.2287461757659912
19.10415267944336 -6.911341190338135 1.2243136167526245
19.085309982299805 -7.037317276000977 1.2187023162841797
19.100034713745117 -7.176245212554932 1.2087211608886719
19.149934768676758 -7.329462051391602 1.1941207647323608
19.150558471679688 -7.464809417724609 1.1856516599655151
19.07732391357422 -7.571505546569824 1.186530351638794
20.36884307861328 -8.22916316986084 1.0116169452667236
19.096242904663086 -7.851767539978027 1.1667274236679077
19.115184783935547 -7.997100830078125 1.1553853750228882
19.097423553466797 -8.127800941467285 1.1486685276031494
28.395580291748047 -16.22207260131836 -0.35808658599853516
28.447032928466797 -16.484010696411133 -0.38338539004325867
28.428722381591797 -16.707460403442383 -0.399120956659317
28.35586929321289 -16.89980125427246 -0.4073322117328644
28.145803451538086 -17.009740829467773 -0.3960765302181244
27.94816017150879 -17.12552261352539 -0.3866063356399536
27.781352996826172 -17.2589054107666 -0.38160768151283264
27.681997299194336 -17.433731079101562 -0.38646194338798523
20.522457122802734 -13.101591110229492 0.6390084624290466
20.199663162231445 -13.070853233337402 0.6716740727424622
19.941940307617188 -13.078564643859863 0.6949954628944397
19.715482711791992 -13.103940963745117 0.7138439416885376
19.525693893432617 -13.151430130004883 0.7273493409156799
19.4024658203125 -13.24240779876709 0.7309573292732239
19.300086975097656 -13.347046852111816 0.7313945889472961
19.26786231994629 -13.500473976135254 0.7211559414863586
19.243383407592773 -13.66032886505127 0.7095604538917542
19.229745864868164 -13.829084396362305 0.6961121559143066
19.23721694946289 -14.014544486999512 0.6792044043540955
19.23594093322754 -14.195316314697266 0.6633921265602112
19.229984283447266 -14.374222755432129 0.6480604410171509
19.213056564331055 -14.546401023864746 0.6341996192932129
19.246706008911133 -14.75876522064209 0.6121686697006226
19.23379135131836 -14.937396049499512 0.5971693396568298
19.238121032714844 -15.131145477294922 0.5791866779327393
19.246219635009766 -15.329838752746582 0.5603211522102356
19.24101448059082 -15.519854545593262 0.5433000326156616
19.244953155517578 -15.719168663024902 0.5245278477668762
19.25710105895996 -15.927337646484375 0.5041237473487854
19.229373931884766 -16.104393005371094 0.4899214208126068
19.250896453857422 -16.3247013092041 0.4673705995082855
19.270429611206055 -16.54587745666504 0.4447983205318451
20.83845329284668 -18.570283889770508 0.1203949823975563
20.54247283935547 -18.534242630004883 0.14828753471374512
20.32465171813965 -18.565534591674805 0.16310708224773407
20.071533203125 -18.561853408813477 0.18410441279411316
19.854724884033203 -18.58899688720703 0.19901326298713684
19.632585525512695 -18.60872459411621 0.21496810019016266
19.442455291748047 -18.656660079956055 0.2254437357187271
12.866069793701172 11.991175651550293 1.8245338201522827
12.938425064086914 11.91136360168457 1.8230491876602173
12.968338966369629 11.79296588897705 1.8273992538452148
12.966950416564941 11.647394180297852 1.8359582424163818
14.365275382995605 12.74544620513916 1.6510913372039795
14.463884353637695 12.675456047058105 1.6464351415634155
13.108467102050781 11.34630012512207 1.8406901359558105
13.119382858276367 11.215914726257324 1.846997857093811
13.162632942199707 11.114059448242188 1.8487738370895386
13.209712982177734 11.015917778015137 1.849927306175232
13.256084442138672 10.917616844177246 1.851076602935791
13.27860164642334 10.80033016204834 1.855323076248169
13.32111644744873 10.699995040893555 1.856777310371399
13.355889320373535 10.593982696533203 1.859160304069519
13.390646934509277 10.488558769226074 1.8614379167556763
13.425403594970703 10.38371467590332 1.863610029220581
13.46570110321045 10.28366756439209 1.8649498224258423
13.498927116394043 10.178727149963379 1.8671181201934814
13.533764839172363 10.075545310974121 1.868972659111023
13.576662063598633 9.978799819946289 1.8696794509887695
13.601981163024902 9.869637489318848 1.8725718259811401
13.636173248291016 9.767492294311523 1.8742120265960693
13.680994987487793 9.673335075378418 1.8743878602981567
13.723544120788574 9.577857971191406 1.8747678995132446
13.757247924804688 9.476578712463379 1.8761905431747437
13.798450469970703 9.380836486816406 1.8765631914138794
13.830739974975586 9.279403686523438 1.8779805898666382
13.865621566772461 9.18012523651123 1.8789763450622559
13.907299995422363 9.085660934448242 1.8790236711502075
13.936639785766602 8.983485221862793 1.8805391788482666
13.965251922607422 8.881292343139648 1.8820534944534302
14.019247055053711 8.7954683303833 1.8802990913391113
14.035511016845703 8.68628978729248 1.883178949356079
14.093402862548828 8.603148460388184 1.8807806968688965
14.12098503112793 8.501668930053711 1.8820730447769165
14.166665077209473 8.411344528198242 1.8810361623764038
14.209193229675293 8.319271087646484 1.8803116083145142
14.246819496154785 8.224504470825195 1.8801113367080688
14.272584915161133 8.123193740844727 1.881287693977356
14.32625961303711 8.037933349609375 1.8789560794830322
14.508199691772461 8.02354621887207 1.860874056816101
14.948904991149902 8.148099899291992 1.811234474182129
15.868149757385254 8.52352523803711 1.7035059928894043
27.479129791259766 14.545016288757324 0.2980045974254608
27.48277473449707 14.332060813903809 0.30478405952453613
27.466278076171875 14.110066413879395 0.3138173520565033
27.5181827545166 13.924276351928711 0.31440868973731995
27.51544761657715 13.711770057678223 0.3214245140552521
27.627178192138672 13.5567626953125 0.31450700759887695
27.748783111572266 13.406088829040527 0.3062811493873596
27.91716194152832 13.27706241607666 0.2923372685909271
28.274078369140625 13.234989166259766 0.25576362013816833
28.72090721130371 13.230213165283203 0.2084447741508484
44.87453079223633 8.183371543884277 -1.537855863571167
19.289794921875 0.7585827112197876 1.387568473815918
19.250118255615234 0.6388015747070312 1.390149712562561
12.89797306060791 -0.680776834487915 2.105541467666626
12.868576049804688 -0.7584158778190613 2.1067955493927
12.864479064941406 -0.8373957276344299 2.1049928665161133
12.787232398986816 -1.3064031600952148 2.0992751121520996
12.701783180236816 -1.3764727115631104 2.1068572998046875
12.715596199035645 -1.4569507837295532 2.1024560928344727
12.632293701171875 -1.5259910821914673 2.1097092628479004
12.625456809997559 -1.6038175821304321 2.107692241668701
12.639789581298828 -1.6845022439956665 2.1030519008636475
12.63492488861084 -1.7628192901611328 2.1006736755371094
12.626626014709473 -1.8407118320465088 2.0986533164978027
12.544229507446289 -1.9073837995529175 2.105605125427246
20.12459945678711 -6.455867290496826 1.0161420106887817
20.11917495727539 -6.590606689453125 1.0089136362075806
19.045011520385742 -6.629570484161377 1.125831127166748
19.019559860229492 -6.751898765563965 1.1211951971054077
20.32393455505371 -7.35565710067749 0.9401664137840271
19.078350067138672 -7.439659118652344 1.071444034576416
20.25436782836914 -8.476871490478516 0.875261664390564
18.96904754638672 -8.21418285369873 1.0316373109817505
19.047815322875977 -8.387540817260742 1.0112175941467285
19.05362319946289 -8.530152320861816 1.0006574392318726
28.301095962524414 -13.727436065673828 -0.35344019532203674
28.29770851135254 -13.941089630126953 -0.36881986260414124
28.296310424804688 -14.156993865966797 -0.3847156763076782
28.246442794799805 -14.34959602355957 -0.3939391076564789
28.21026611328125 -14.549851417541504 -0.4053087830543518
28.105894088745117 -14.715237617492676 -0.40707826614379883
27.733383178710938 -14.73792839050293 -0.37025365233421326
27.58780288696289 -14.878556251525879 -0.3661346435546875
27.394556045532227 -14.992244720458984 -0.35514700412750244
27.255592346191406 -15.13446044921875 -0.35211268067359924
27.143573760986328 -15.291117668151855 -0.3531177043914795
27.03496551513672 -15.44943618774414 -0.35474276542663574
20.517818450927734 -13.10267448425293 0.4926714301109314
20.192699432373047 -13.070379257202148 0.5274300575256348
19.935108184814453 -13.078115463256836 0.5520070791244507
19.70462417602539 -13.100760459899902 0.5725347995758057
19.522327423095703 -13.153212547302246 0.5856630206108093
19.335222244262695 -13.20057201385498 0.5995995402336121
19.260826110839844 -13.323987007141113 0.5958182215690613
19.217317581176758 -13.469184875488281 0.5870224833488464
19.235010147094727 -13.658557891845703 0.568301796913147
19.217281341552734 -13.824332237243652 0.554980993270874
19.22709083557129 -14.011428833007812 0.5370047092437744
19.22175407409668 -14.189152717590332 0.5212094187736511
19.210983276367188 -14.364372253417969 0.506048858165741
19.21933364868164 -14.55555534362793 0.48751309514045715
19.223691940307617 -14.745572090148926 0.4693497121334076
19.21782112121582 -14.929496765136719 0.45259764790534973
19.229890823364258 -15.129232406616211 0.4325895607471466
19.225488662719727 -15.317937850952148 0.415031373500824
19.221805572509766 -15.509025573730469 0.39706987142562866
19.2364559173584 -15.71695327758789 0.37571391463279724
19.211071014404297 -15.89404296875 0.36084723472595215
19.289875030517578 -16.159912109375 0.3278643786907196
19.22549057006836 -16.308055877685547 0.3190964460372925
19.26380729675293 -16.5451602935791 0.2923232913017273
19.278230667114258 -16.76447868347168 0.26931124925613403
12.828790664672852 12.099764823913574 1.7186143398284912
12.880711555480957 12.000523567199707 1.7202755212783813
12.899715423583984 11.87147331237793 1.7266919612884521
13.951791763305664 12.682941436767578 1.580878496170044
14.094895362854004 12.656250953674316 1.5695103406906128
13.014127731323242 11.542407989501953 1.7366342544555664
14.490082740783691 12.694013595581055 1.530953288078308
13.133978843688965 11.364341735839844 1.7363379001617432
13.12159538269043 11.213813781738281 1.7464542388916016
13.161035537719727 11.108757019042969 1.7489632368087769
13.210370063781738 11.012548446655273 1.749944806098938
13.245976448059082 10.905409812927246 1.7527748346328735
13.285393714904785 10.80201244354248 1.7549487352371216
13.317068099975586 10.692937850952148 1.7581027746200562
13.339339256286621 10.57708740234375 1.7624585628509521
13.388082504272461 10.48281478881836 1.7629868984222412
13.413371086120605 10.370709419250488 1.7666854858398438
13.459118843078613 10.27497386932373 1.767425298690796
13.497848510742188 10.17427921295166 1.7690386772155762
13.526284217834473 10.066372871398926 1.7719662189483643
13.570723533630371 9.97086238861084 1.7725861072540283
13.590367317199707 9.857672691345215 1.776501178741455
13.63661003112793 9.764293670654297 1.776674747467041
13.674914360046387 9.66555404663086 1.7778351306915283
13.721487998962402 9.572967529296875 1.7777793407440186
13.7461576461792 9.465514183044434 1.780588150024414
13.782357215881348 9.366497993469238 1.7817399501800537
13.819513320922852 9.268500328063965 1.782667636871338
13.863442420959473 9.175336837768555 1.7825955152511597
13.885117530822754 9.067850112915039 1.7854002714157104
13.929387092590332 8.975517272949219 1.785099744796753
13.979755401611328 8.887247085571289 1.7839058637619019
14.005993843078613 8.783909797668457 1.7858169078826904
14.044167518615723 8.68842601776123 1.7860584259033203
14.072367668151855 8.587108612060547 1.7875211238861084
14.110921859741211 8.492435455322266 1.7875336408615112
14.153971672058105 8.400654792785645 1.7868729829788208
14.195570945739746 8.308161735534668 1.7863185405731201
14.2374267578125 8.21596908569336 1.7856475114822388
14.271778106689453 8.119644165039062 1.7858662605285645
14.308084487915039 8.024662971496582 1.7857459783554077
14.474202156066895 8.00167179107666 1.7688075304031372
15.8839111328125 8.528768539428711 1.5966737270355225
27.46102523803711 14.530579566955566 0.11931118369102478
27.488399505615234 14.330178260803223 0.12360436469316483
27.539098739624023 14.14269733428955 0.12474576383829117
27.543317794799805 13.932255744934082 0.13163450360298157
27.541549682617188 13.720077514648438 0.1390955001115799
27.618501663208008 13.547831535339355 0.1363973468542099
27.720321655273438 13.387687683105469 0.13040924072265625
27.939659118652344 13.283121109008789 0.10946027934551239
19.28553581237793 0.7557763457298279 1.275341510772705
19.236928939819336 0.6357313394546509 1.279268741607666
19.33740234375 0.520357072353363 1.264847993850708
12.87593936920166 -0.6816441416740417 2.0328152179718018
12.861406326293945 -0.7600216269493103 2.0323641300201416
12.869171142578125 -0.8397302627563477 2.0290744304656982
12.694524765014648 -1.4565682411193848 2.0302975177764893
12.632939338684082 -1.5280957221984863 2.0352392196655273
20.129629135131836 -6.3244805335998535 0.8997182250022888
20.1297607421875 -6.460547924041748 0.8916400074958801
20.12049674987793 -6.59407901763916 0.8847141265869141
20.07179069519043 -6.714844703674316 0.8830705881118774
18.982507705688477 -6.480390548706055 1.0244090557098389
18.972030639648438 -6.607127666473389 1.0177501440048218
18.94295310974121 -6.7276787757873535 1.0135434865951538
18.9522705078125 -6.862298011779785 1.0039032697677612
18.979145050048828 -7.404036998748779 0.9653818011283875
18.929929733276367 -8.338825225830078 0.9061812162399292
18.92240333557129 -8.47462272644043 0.8972342014312744
19.009567260742188 -8.6541748046875 0.8743945956230164
19.205001831054688 -8.885891914367676 0.8355250358581543
19.374065399169922 -9.108943939208984 0.8001391887664795
20.62848663330078 -12.999761581420898 0.3476879298686981
20.39007568359375 -13.025215148925781 0.3701680898666382
20.104721069335938 -13.01754379272461 0.40032845735549927
19.834327697753906 -13.016111373901367 0.42827731370925903
19.65219497680664 -13.070022583007812 0.4420778155326843
19.457006454467773 -13.11333179473877 0.4580623209476471
19.30295181274414 -13.182684898376465 0.4673738181591034
19.2262020111084 -13.304207801818848 0.46394893527030945
19.19169044494629 -13.455431938171387 0.45340394973754883
19.421031951904297 -13.794926643371582 0.39870700240135193
19.307472229003906 -13.893524169921875 0.40078309178352356
19.211854934692383 -14.004673957824707 0.39977604150772095
19.22640037536621 -14.196981430053711 0.38002699613571167
19.220260620117188 -14.375751495361328 0.363501638174057
19.215009689331055 -14.556774139404297 0.34655922651290894
19.229480743408203 -14.754556655883789 0.3259527087211609
19.21329116821289 -14.930572509765625 0.3103369474411011
19.231475830078125 -15.13512897491455 0.288480281829834
19.22384262084961 -15.321329116821289 0.2708071768283844
19.230833053588867 -15.521069526672363 0.25027281045913696
19.221511840820312 -15.70956039428711 0.23230189085006714
19.205251693725586 -15.894099235534668 0.21527042984962463
19.230728149414062 -16.115299224853516 0.19047659635543823
19.2322940826416 -16.31882095336914 0.16960805654525757
19.254621505737305 -16.54233169555664 0.14463739097118378
12.769194602966309 12.213662147521973 1.6105326414108276
12.834954261779785 12.12692928314209 1.6103262901306152
12.95024585723877 12.086617469787598 1.6022473573684692
12.931119918823242 11.921445846557617 1.6151368618011475
12.962615966796875 11.804454803466797 1.6199334859848022
13.001290321350098 11.694835662841797 1.6234736442565918
13.053220748901367 11.5977201461792 1.6248393058776855
13.052181243896484 11.45453929901123 1.634210467338562
13.1219482421875 11.374272346496582 1.6325950622558594
13.099153518676758 11.214760780334473 1.6449531316757202
13.14924430847168 11.118816375732422 1.6460827589035034
13.19636344909668 11.020767211914062 1.6475515365600586
13.234345436096191 10.915605545043945 1.6502801179885864
13.273848533630371 10.812273979187012 1.652661681175232
13.304067611694336 10.702018737792969 1.656306505203247
13.3272123336792 10.5868558883667 1.660872459411621
13.371333122253418 10.488978385925293 1.6622118949890137
13.411615371704102 10.388524055480957 1.6640088558197021
13.443279266357422 10.281933784484863 1.6669573783874512
13.479689598083496 10.179535865783691 1.6690959930419922
13.515353202819824 10.077077865600586 1.6712323427200317
13.557467460632324 9.979864120483398 1.6723244190216064
13.582023620605469 9.870246887207031 1.675845980644226
13.624311447143555 9.774022102355957 1.6767007112503052
13.66755199432373 9.678796768188477 1.6773192882537842
13.698739051818848 9.575441360473633 1.6795599460601807
13.740621566772461 9.479963302612305 1.6801713705062866
13.770355224609375 9.376503944396973 1.6824078559875488
13.814176559448242 9.283005714416504 1.6825464963912964
13.85157585144043 9.185480117797852 1.6834965944290161
13.886636734008789 9.086755752563477 1.6846766471862793
13.92267894744873 8.989025115966797 1.6856207847595215
13.9630708694458 8.894393920898438 1.6858599185943604
13.992735862731934 8.793261528015137 1.6874995231628418
14.038568496704102 8.70256519317627 1.6867947578430176
14.06687068939209 8.601274490356445 1.6884289979934692
14.11231803894043 8.510732650756836 1.687597632408142
14.145235061645508 8.412849426269531 1.6884050369262695
14.189475059509277 8.321914672851562 1.6875640153884888
14.228835105895996 8.228266716003418 1.6873054504394531
14.260677337646484 8.130512237548828 1.687984585762024
14.309171676635742 8.042407035827637 1.6863038539886475
14.391866683959961 7.973259449005127 1.6798973083496094
14.984108924865723 8.181777954101562 1.6043946743011475
15.877595901489258 8.543761253356934 1.488442301750183
19.26165199279785 0.7723711729049683 1.1624419689178467
19.248855590820312 0.6536446809768677 1.1620995998382568
19.29482078552246 0.5367560982704163 1.1541123390197754
12.87286376953125 -0.6689276695251465 1.9559026956558228
12.859394073486328 -0.7473517656326294 1.9553815126419067
12.870187759399414 -0.8272278904914856 1.9516277313232422
19.725168228149414 -6.045281410217285 0.8390646576881409
19.4140682220459 -6.0805487632751465 0.8752889037132263
19.235424041748047 -6.154510974884033 0.8927549123764038
19.102767944335938 -6.241595268249512 0.903664231300354
18.957551956176758 -6.323211193084717 0.9163545966148376
18.943382263183594 -6.4479851722717285 0.9101905226707458
18.9180965423584 -6.569250583648682 0.9055095911026001
18.908845901489258 -6.696403503417969 0.8983957767486572
18.896881103515625 -6.823019027709961 0.8915486335754395
18.892438888549805 -6.952821254730225 0.8834798336029053
18.906593322753906 -7.0901336669921875 0.8725590705871582
18.919771194458008 -7.2278828620910645 0.8616281747817993
18.891338348388672 -7.350253582000732 0.8566603660583496
18.88698387145996 -7.482402801513672 0.8480244278907776
18.97083854675293 -7.65071964263916 0.8261878490447998
18.936017990112305 -7.772195339202881 0.821748673915863
18.94155502319336 -7.910715103149414 0.8111789226531982
18.936983108520508 -8.045722961425781 0.8019640445709229
18.92862319946289 -8.31805419921875 0.7829694747924805
18.79637908935547 -8.398025512695312 0.7926074862480164
18.975934982299805 -8.618430137634277 0.7549141645431519
18.970903396606445 -8.757071495056152 0.7449750304222107
18.980127334594727 -8.903127670288086 0.7326979041099548
18.954288482666016 -9.03343391418457 0.725624680519104
19.00244903564453 -9.200017929077148 0.7070124745368958
19.196819305419922 -9.440093040466309 0.6655572652816772
20.696712493896484 -13.017659187316895 0.19125322997570038
20.489946365356445 -13.063962936401367 0.20952938497066498
20.115413665771484 -12.999658584594727 0.25606569647789
19.88327407836914 -13.023493766784668 0.2789255976676941
19.64006233215332 -13.037312507629395 0.30379459261894226
19.44919776916504 -13.08346176147461 0.31989583373069763
19.298603057861328 -13.155094146728516 0.3291701078414917
19.213041305541992 -13.270393371582031 0.3272532522678375
19.230623245239258 -13.457804679870605 0.30738192796707153
19.214311599731445 -13.623024940490723 0.2931114137172699
19.200712203979492 -13.7914400100708 0.2781304121017456
19.214580535888672 -13.981172561645508 0.25807520747184753
19.233211517333984 -14.176295280456543 0.2368772327899933
19.225570678710938 -14.35380744934082 0.22002865374088287
19.21015167236328 -14.526985168457031 0.2042970508337021
19.22004508972168 -14.720979690551758 0.18375824391841888
19.230619430541992 -14.917462348937988 0.1627792865037918
19.23482894897461 -15.11095905303955 0.14263154566287994
19.240476608276367 -15.307535171508789 0.12190306931734085
19.24905014038086 -15.508472442626953 0.10030926764011383
17.01766586303711 -16.514041900634766 0.20677725970745087
13.25614070892334 12.985076904296875 1.3908237218856812
12.743111610412598 12.330541610717773 1.488904595375061
12.779485702514648 12.215112686157227 1.4938280582427979
12.764400482177734 12.051994323730469 1.5071724653244019
12.862504005432129 11.996501922607422 1.5015052556991577
12.975005149841309 11.953712463378906 1.4934120178222656
12.981005668640137 11.813108444213867 1.502782940864563
14.007010459899902 12.43665885925293 1.3559807538986206
14.136483192443848 12.397642135620117 1.3455464839935303
13.01824951171875 11.276654243469238 1.5362207889556885
13.098226547241211 11.206279754638672 1.532792568206787
13.14522647857666 11.107795715332031 1.5345607995986938
13.197608947753906 11.014244079589844 1.5353549718856812
13.217936515808105 10.894580841064453 1.541117548942566
13.279633522033691 10.809548377990723 1.540204405784607
13.29281997680664 10.685609817504883 1.5468170642852783
13.33608627319336 10.586602210998535 1.5485690832138062
13.374733924865723 10.48440170288086 1.5509260892868042
13.407137870788574 10.3778715133667 1.5541329383850098
13.445836067199707 10.276762962341309 1.5562418699264526
13.486176490783691 10.177361488342285 1.5579816102981567
13.526602745056152 10.078445434570312 1.559596300125122
13.551131248474121 9.968241691589355 1.5635292530059814
13.589276313781738 9.868610382080078 1.5652616024017334
13.621063232421875 9.764840126037598 1.567847728729248
13.663432121276855 9.669075012207031 1.5687175989151
13.697816848754883 9.568042755126953 1.5706863403320312
13.741283416748047 9.473710060119629 1.571180820465088
13.78410816192627 9.379202842712402 1.571670651435852
13.807342529296875 9.271800994873047 1.5749826431274414
13.85046100616455 9.178171157836914 1.575219988822937
13.88298511505127 9.077842712402344 1.5769301652908325
13.914798736572266 8.977459907531738 1.578637957572937
13.944231986999512 8.875960350036621 1.5805904865264893
13.992273330688477 8.786575317382812 1.5797030925750732
14.043961524963379 8.699546813964844 1.5781912803649902
14.056156158447266 8.588411331176758 1.582359790802002
14.100666046142578 8.497428894042969 1.5817052125930786
14.141176223754883 8.404195785522461 1.5815403461456299
14.187066078186035 8.314295768737793 1.580503225326538
14.224653244018555 8.219677925109863 1.5805764198303223
14.256441116333008 8.121964454650879 1.5813908576965332
14.301408767700195 8.031943321228027 1.5802141427993774
14.384003639221191 7.962819576263428 1.5735580921173096
14.96536922454834 8.165300369262695 1.4955466985702515
15.257842063903809 8.203991889953613 1.4590145349502563
19.24555778503418 0.7660283446311951 1.0379666090011597
19.23866844177246 0.647606611251831 1.0369322299957275
19.279586791992188 0.5306335091590881 1.029340147972107
12.920963287353516 -0.675517737865448 1.8645656108856201
12.868874549865723 -0.7519815564155579 1.8693875074386597
12.881590843200684 -0.8320457935333252 1.8652580976486206
27.848127365112305 -5.807862758636475 -0.3516610264778137
27.780481338500977 -5.97189474105835 -0.35089337825775146
19.845247268676758 -5.95546817779541 0.6932905912399292
19.470056533813477 -5.973410606384277 0.740880012512207
19.229562759399414 -6.029036521911621 0.7685685157775879
19.072105407714844 -6.108514308929443 0.783912181854248
19.060253143310547 -6.233990669250488 0.7774277329444885
18.899211883544922 -6.310019493103027 0.7932477593421936
18.853221893310547 -6.423579216003418 0.7917233109474182
18.8514347076416 -6.552414417266846 0.7834157347679138
18.845972061157227 -6.680479049682617 0.775526762008667
18.842439651489258 -6.809733867645264 0.7672083973884583
18.84453010559082 -6.941593647003174 0.7578915357589722
18.841999053955078 -7.072345733642578 0.7491346597671509
18.840417861938477 -7.204036235809326 0.7400883436203003
18.834238052368164 -7.33453893661499 0.7316036224365234
18.85844612121582 -7.477641582489014 0.7182758450508118
18.860492706298828 -7.61279821395874 0.7082098722457886
18.864330291748047 -7.749390602111816 0.6977084279060364
18.85806655883789 -7.88250207901001 0.6886256337165833
18.86635971069336 -8.02241325378418 0.6771093010902405
18.86910057067871 -8.160758972167969 0.6662978529930115
18.878095626831055 -8.302630424499512 0.6543336510658264
18.91316032409668 -8.457037925720215 0.6380643844604492
18.907390594482422 -8.594171524047852 0.6280817985534668
18.93119239807129 -8.745664596557617 0.6132175326347351
18.924278259277344 -8.883896827697754 0.6030744910240173
18.91815948486328 -9.023226737976074 0.5926375389099121
18.918167114257812 -9.166268348693848 0.5810443162918091
18.941986083984375 -9.321885108947754 0.5654134154319763
18.969913482666016 -9.480794906616211 0.5489033460617065
16.509876251220703 -8.37849235534668 0.9384932518005371
16.480690002441406 -8.491375923156738 0.9325254559516907
16.724315643310547 -8.747298240661621 0.881519615650177
16.608062744140625 -8.94802474975586 0.878185510635376
16.649742126464844 -9.102875709533691 0.8597435355186462
16.35701560974121 -9.0737886428833 0.8970381617546082
16.307592391967773 -9.177820205688477 0.8936753273010254
16.243757247924805 -9.273738861083984 0.8926382660865784
16.188777923583984 -9.374676704406738 0.8900129795074463
16.322568893432617 -9.58652114868164 0.8551402688026428
16.177242279052734 -9.63531494140625 0.8676233291625977
19.92945098876953 -13.062448501586914 0.11331915855407715
19.626829147338867 -13.037196159362793 0.14997631311416626
19.44263458251953 -13.08772087097168 0.16576522588729858
19.292070388793945 -13.159337043762207 0.17558416724205017
19.19995880126953 -13.270096778869629 0.1748729646205902
19.210926055908203 -13.452850341796875 0.1553906798362732
19.223594665527344 -13.63852596282959 0.13530521094799042
19.15357208251953 -13.766559600830078 0.13004784286022186
19.211442947387695 -13.987981796264648 0.10111641138792038
12.847959518432617 12.901691436767578 1.3266105651855469
12.703312873840332 12.601168632507324 1.3649262189865112
12.690810203552246 12.435532569885254 1.37923264503479
12.739483833312988 12.331246376037598 1.382460117340088
12.667623519897461 12.112332344055176 1.4067442417144775
12.737796783447266 12.031007766723633 1.4058148860931396
12.86764907836914 12.005446434020996 1.3943943977355957
12.973589897155762 11.956557273864746 1.3871201276779175
13.019266128540039 11.852055549621582 1.3901978731155396
13.116517066955566 11.794535636901855 1.3842865228652954
13.194787979125977 11.575847625732422 1.3920598030090332
13.050128936767578 11.308262825012207 1.4268271923065186
13.094857215881348 11.207371711730957 1.4292724132537842
13.14262866973877 11.10955810546875 1.4310787916183472
13.185125350952148 11.00776481628418 1.4336432218551636
13.230694770812988 10.909022331237793 1.4355685710906982
13.263246536254883 10.8001127243042 1.439526915550232
13.285685539245605 10.683755874633789 1.4450129270553589
13.328948020935059 10.584798812866211 1.4469307661056519
13.359790802001953 10.476531982421875 1.4507588148117065
13.401572227478027 10.377392768859863 1.4526708126068115
13.441852569580078 10.277533531188965 1.454707145690918
13.479040145874023 10.175774574279785 1.4571237564086914
13.510714530944824 10.070390701293945 1.4603062868118286
13.540008544921875 9.963822364807129 1.4637432098388672
13.573318481445312 9.860771179199219 1.4664109945297241
13.615547180175781 9.764620780944824 1.4675371646881104
13.658727645874023 9.669468879699707 1.4684028625488281
13.698001861572266 9.571881294250488 1.4697779417037964
13.734145164489746 9.472485542297363 1.4715356826782227
13.77204418182373 9.374679565429688 1.4729042053222656
13.815024375915527 9.280634880065918 1.4733682870864868
13.835880279541016 9.172165870666504 1.4771790504455566
13.882481575012207 9.08116340637207 1.4768627882003784
13.905994415283203 8.975411415100098 1.4800264835357666
13.951314926147461 8.884095191955566 1.4797018766403198
13.998559951782227 8.794140815734863 1.478983759880066
14.024153709411621 8.690879821777344 1.4814951419830322
14.0735445022583 8.60263442993164 1.4802497625350952
14.103699684143066 8.50284481048584 1.4818493127822876
14.145092010498047 8.410100936889648 1.481630802154541
14.182456016540527 8.315162658691406 1.4819269180297852
14.215755462646484 8.218095779418945 1.482738971710205
14.250121116638184 8.12191390991211 1.483288049697876
14.29162311553955 8.029991149902344 1.4826620817184448
14.37936782836914 7.963804244995117 1.4749962091445923
14.863655090332031 8.113485336303711 1.40785813331604
15.242894172668457 8.199734687805176 1.3566539287567139
19.238582611083984 0.7699158191680908 0.9226223826408386
19.2297306060791 0.6514681577682495 0.9219332933425903
19.261720657348633 0.5343118906021118 0.9153767228126526
12.918304443359375 -0.6728404760360718 1.7868218421936035
12.869226455688477 -0.7494743466377258 1.7915014028549194
12.869091033935547 -0.828708827495575 1.789108157157898
19.761266708374023 -5.925603866577148 0.5810996294021606
19.485816955566406 -5.9736433029174805 0.6154075860977173
19.206762313842773 -6.0173492431640625 0.6503691673278809
19.08902359008789 -6.109410762786865 0.6602957248687744
18.866518020629883 -6.16615629196167 0.6865564584732056
18.816699981689453 -6.27799654006958 0.6858128309249878
18.822397232055664 -6.408584117889404 0.6762454509735107
18.806642532348633 -6.532341957092285 0.66991126537323
18.810585021972656 -6.663412570953369 0.660331130027771
18.811765670776367 -6.794107913970947 0.6510388255119324
18.81018829345703 -6.924386978149414 0.6420352458953857
18.81697654724121 -7.058376312255859 0.6315473914146423
18.819129943847656 -7.191299915313721 0.6216420531272888
18.82219886779785 -7.325234413146973 0.6114339828491211
18.8280086517334 -7.460935115814209 0.6006247997283936
18.83560562133789 -7.598094940185547 0.5893624424934387
18.841310501098633 -7.73525333404541 0.5782390236854553
18.847862243652344 -7.873532295227051 0.5668097734451294
18.845230102539062 -8.008703231811523 0.5567091107368469
18.85525894165039 -8.150025367736816 0.5443702936172485
18.874217987060547 -8.296147346496582 0.5303826928138733
18.873126983642578 -8.43433952331543 0.5195116996765137
18.870145797729492 -8.572422981262207 0.5087822675704956
18.896699905395508 -8.724879264831543 0.4929704964160919
18.909557342529297 -8.87210750579834 0.47923487424850464
19.16497802734375 -9.135960578918457 0.4246728718280792
19.107271194458008 -9.252899169921875 0.4222523868083954
18.935283660888672 -9.313623428344727 0.4390060603618622
16.633346557617188 -8.308807373046875 0.81666499376297
16.57023811340332 -8.404851913452148 0.8163813352584839
16.455595016479492 -8.474186897277832 0.8248127102851868
16.25398826599121 -8.497095108032227 0.8481382131576538
16.721710205078125 -8.872770309448242 0.7563526630401611
16.220918655395508 -8.735193252563477 0.8311353325843811
15.9732027053833 -8.728808403015137 0.8625296354293823
16.130826950073242 -8.944043159484863 0.8234606385231018
16.15887451171875 -9.089812278747559 0.8066602349281311
16.21664047241211 -9.253901481628418 0.7844106554985046
16.16861343383789 -9.358631134033203 0.7805631756782532
16.10541534423828 -9.454615592956543 0.7792890667915344
16.121492385864258 -9.597705841064453 0.7638046145439148
16.023014068603516 -9.672901153564453 0.7685917019844055
12.623299598693848 12.662668228149414 1.2634053230285645
12.6412935256958 12.526395797729492 1.2729063034057617
12.697762489318848 12.429214477539062 1.2750385999679565
12.737839698791504 12.316649436950684 1.2800637483596802
12.755514144897461 12.183515548706055 1.2890418767929077
12.749690055847168 12.029539108276367 1.3021131753921509
12.853400230407715 11.979508399963379 1.294997215270996
12.883323669433594 11.86083698272705 1.301205039024353
12.943811416625977 11.770928382873535 1.301729440689087
12.932896614074707 11.617127418518066 1.3149452209472656
12.976190567016602 11.513248443603516 1.3182438611984253
13.017208099365234 11.407967567443848 1.3218045234680176
13.040938377380371 11.28834342956543 1.3282787799835205
13.097593307495117 11.197843551635742 1.3287853002548218
13.141512870788574 11.096839904785156 1.3314094543457031
13.186209678649902 10.996986389160156 1.3337643146514893
13.22406005859375 10.891961097717285 1.337179183959961
13.258811950683594 10.785004615783691 1.3409903049468994
13.291207313537598 10.676793098449707 1.345066785812378
13.328210830688477 10.572898864746094 1.3482096195220947
13.362881660461426 10.467730522155762 1.3516169786453247
13.403820037841797 10.367989540100098 1.3538219928741455
13.440889358520508 10.265734672546387 1.356557846069336
13.47246265411377 10.159832000732422 1.3600926399230957
13.506423950195312 10.056295394897461 1.363092064857483
13.541221618652344 9.953897476196289 1.3658218383789062
13.577678680419922 9.853196144104004 1.3681477308273315
13.616633415222168 9.754730224609375 1.3699356317520142
13.653273582458496 9.655011177062988 1.37198805809021
13.693266868591309 9.55804443359375 1.3733669519424438
13.732586860656738 9.460949897766113 1.3747421503067017
13.772049903869629 9.364287376403809 1.3759793043136597
13.806732177734375 9.264735221862793 1.3778855800628662
13.848148345947266 9.17003345489502 1.3785780668258667
13.874820709228516 9.065954208374023 1.3815561532974243
13.914896965026855 8.971020698547363 1.3822414875030518
13.961854934692383 8.880722045898438 1.3817086219787598
13.989767074584961 8.778595924377441 1.3841406106948853
14.027060508728027 8.682719230651855 1.3849499225616455
14.058632850646973 8.58361530303955 1.3865668773651123
14.099702835083008 8.490584373474121 1.3865573406219482
14.141014099121094 8.397876739501953 1.3864082098007202
14.180007934570312 8.303977012634277 1.38652503490448
14.209803581237793 8.204960823059082 1.3879941701889038
14.242362022399902 8.107850074768066 1.388918399810791
14.288087844848633 8.01840591430664 1.3876653909683228
14.418204307556152 7.975711345672607 1.3730791807174683
14.776206970214844 8.055992126464844 1.322806477546692
15.260499000549316 8.199237823486328 1.2529700994491577
19.22296714782715 0.7599610090255737 0.8116455078125
19.227893829345703 0.6420800685882568 0.8089979887008667
19.255830764770508 0.5248146653175354 0.802857518196106
12.86361026763916 -0.6765091419219971 1.718761920928955
12.874771118164062 -0.7563177943229675 1.7147222757339478
12.865696907043457 -0.8350123167037964 1.7136261463165283
19.94448471069336 -5.857823371887207 0.4380630552768707
19.612422943115234 -5.891351699829102 0.4828812777996063
19.447011947631836 -5.972080707550049 0.5009846091270447
19.13990592956543 -6.006630897521973 0.5419836044311523
18.945127487182617 -6.0735368728637695 0.564909815788269
18.81694793701172 -6.1601080894470215 0.5770441889762878
18.78122329711914 -6.276337623596191 0.5740842819213867
18.768165588378906 -6.400336265563965 0.5673052668571472
18.854162216186523 -6.559145450592041 0.5441518425941467
18.798269271850586 -6.66937255859375 0.5440922975540161
18.775192260742188 -6.791259765625 0.53852379322052
18.804174423217773 -6.932595252990723 0.524212121963501
18.79974365234375 -7.062384128570557 0.5152590870857239
18.802730560302734 -7.195559024810791 0.5049176216125488
18.808473587036133 -7.330472469329834 0.4939536154270172
18.80499267578125 -7.462449073791504 0.4843658208847046
18.799684524536133 -7.594292163848877 0.47492536902427673
18.828187942504883 -7.740623950958252 0.4596230983734131
18.820959091186523 -7.87310791015625 0.45016685128211975
18.813718795776367 -8.006182670593262 0.4405507445335388
18.863582611083984 -8.16457748413086 0.42104217410087585
16.556488037109375 -7.28733491897583 0.8042560815811157
16.481348037719727 -7.375426292419434 0.8071465492248535
16.420141220092773 -7.46941614151001 0.8075724244117737
16.35391616821289 -7.5608625411987305 0.8087823987007141
16.305076599121094 -7.660180568695068 0.806901216506958
16.449995040893555 -7.851932048797607 0.771191418170929
18.97281837463379 -9.199284553527832 0.3196273744106293
16.621105194091797 -8.185762405395508 0.7195296883583069
16.525142669677734 -8.265015602111816 0.7252324819564819
16.38920021057129 -8.32327938079834 0.7379588484764099
16.44369888305664 -8.478401184082031 0.7169054746627808
