# .PCD v0.7 - Point Cloud Data file format
VERSION 0.7
FIELDS x y z
SIZE 4 4 4
TYPE F F F
COUNT 1 1 1
WIDTH 853
HEIGHT 1
VIEWPOINT 0 0 0 1 0 0 0
POINTS 853
DATA ascii
13.257884979248047 10.690102577209473 0.4151465594768524
13.282827377319336 10.576772689819336 0.42316538095474243
13.318469047546387 10.47264575958252 0.42839547991752625
13.363423347473145 10.376313209533691 0.43120378255844116
13.403021812438965 10.276232719421387 0.43512535095214844
13.440329551696777 10.174869537353516 0.4394162893295288
13.47217845916748 10.069903373718262 0.444823294878006
13.507200241088867 9.967845916748047 0.44929617643356323
13.535126686096191 9.861106872558594 0.45526015758514404
13.575016021728516 9.76357650756836 0.45823630690574646
13.629439353942871 9.67673110961914 0.4576605260372162
13.692157745361328 9.595784187316895 0.4550216495990753
13.829532623291016 9.566401481628418 0.434983491897583
14.141486167907715 9.654772758483887 0.3746936023235321
13.764992713928223 9.274763107299805 0.4728814363479614
13.84412670135498 9.205401420593262 0.4659121632575989
13.88843059539795 9.112784385681152 0.4667994976043701
13.926347732543945 9.016230583190918 0.46899449825286865
13.916419982910156 8.889415740966797 0.48187923431396484
13.965298652648926 8.800762176513672 0.4812575578689575
14.350617408752441 8.921333312988281 0.40475428104400635
14.018658638000488 8.59647274017334 0.48957860469818115
14.048033714294434 8.49661636352539 0.49289175868034363
14.08261775970459 8.400242805480957 0.4948861002922058
14.12755298614502 8.310235977172852 0.4944303333759308
14.148128509521484 8.206194877624512 0.49924236536026
14.190125465393066 8.114887237548828 0.4991549253463745
14.277732849121094 8.049412727355957 0.48888057470321655
14.29725170135498 7.94548225402832 0.4934934377670288
14.750126838684082 8.079371452331543 0.40296703577041626
14.805045127868652 7.9920268058776855 0.3997822403907776
15.201897621154785 8.08646011352539 0.3219383656978607
15.74635124206543 0.5593366026878357 0.45468538999557495
12.89061450958252 -0.6496211290359497 1.005431890487671
12.852787971496582 -0.7267827987670898 1.0105392932891846
12.855574607849121 -0.8060833811759949 1.0072572231292725
16.030092239379883 -1.5992519855499268 0.3351835310459137
15.956233978271484 -1.6908196210861206 0.34613484144210815
15.945137023925781 -1.7886438369750977 0.344040185213089
15.842972755432129 -1.875685453414917 0.3606490194797516
15.930865287780762 -1.985290288925171 0.33784085512161255
15.77227783203125 -2.0638864040374756 0.3659511208534241
16.034494400024414 -2.198366403579712 0.3066553771495819
15.80116081237793 -2.2652435302734375 0.3501114845275879
15.780731201171875 -2.3612358570098877 0.34924331307411194
15.745203971862793 -2.4548020362854004 0.35140568017959595
15.64145278930664 -2.537045955657959 0.36771446466445923
15.622274398803711 -2.6324353218078613 0.36626097559928894
16.082937240600586 -2.8116865158081055 0.2640879154205322
15.717084884643555 -2.847240686416626 0.33502697944641113
15.979949951171875 -2.9962799549102783 0.27382296323776245
15.993520736694336 -3.1005616188049316 0.2648259699344635
16.056339263916016 -3.2151238918304443 0.24527804553508759
16.054096221923828 -3.31729793548584 0.2393040806055069
16.074186325073242 -3.4244651794433594 0.22845476865768433
16.052438735961914 -3.5229790210723877 0.2263314574956894
16.0596923828125 -3.628047227859497 0.21790927648544312
16.02715492248535 -3.724252462387085 0.2178199291229248
12.67607307434082 12.595941543579102 0.1721680611371994
12.668586730957031 12.435447692871094 0.19345472753047943
12.650457382202148 12.266634941101074 0.2172272801399231
12.99746322631836 11.853889465332031 0.21487540006637573
13.030113220214844 11.738483428955078 0.2235831320285797
13.061841011047363 11.62312126159668 0.23229087889194489
13.083800315856934 11.500033378601074 0.243291974067688
13.11141586303711 11.382904052734375 0.2525743544101715
13.142562866210938 11.269701957702637 0.26070931553840637
13.175813674926758 11.159079551696777 0.26807814836502075
13.199922561645508 11.041545867919922 0.27755317091941833
13.240493774414062 10.938511848449707 0.2826223075389862
13.270413398742676 10.8273286819458 0.29018083214759827
13.301763534545898 10.718035697937012 0.2971636652946472
13.337650299072266 10.613040924072266 0.3028026223182678
13.375068664550781 10.509825706481934 0.30786365270614624
13.417926788330078 10.411362648010254 0.31138545274734497
13.432038307189941 10.291280746459961 0.3218224346637726
13.487445831298828 10.203386306762695 0.32187920808792114
13.508475303649902 10.089944839477539 0.3302018344402313
13.548368453979492 9.991189956665039 0.3337136209011078
13.582006454467773 9.888279914855957 0.33857014775276184
13.615692138671875 9.785902976989746 0.34323227405548096
13.655036926269531 9.68802547454834 0.34634989500045776
13.699320793151855 9.593972206115723 0.34811440110206604
13.752650260925293 9.506433486938477 0.34755808115005493
13.79171085357666 9.286083221435547 0.36207321286201477
13.843092918395996 9.19807243347168 0.36150431632995605
13.838120460510254 9.073196411132812 0.37407976388931274
13.899689674377441 8.992425918579102 0.3707955777645111
13.955825805664062 8.908071517944336 0.368663489818573
13.963299751281738 8.793044090270996 0.3777582049369812
14.00572395324707 8.700516700744629 0.37852296233177185
14.036666870117188 8.601136207580566 0.3818037509918213
14.079512596130371 8.50931167602539 0.38217201828956604
14.116703987121582 8.41426944732666 0.38370025157928467
14.159180641174316 8.3225679397583 0.3838649094104767
14.22227954864502 8.24295711517334 0.379165917634964
14.252570152282715 8.144389152526855 0.3818454444408417
14.366015434265137 7.977542877197266 0.37473946809768677
14.434913635253906 7.900594234466553 0.3682515025138855
15.744453430175781 0.5543949604034424 0.3548011779785156
12.873178482055664 -0.6528741121292114 0.9268380999565125
12.864675521850586 -0.7315877079963684 0.9259768724441528
12.859598159790039 -0.8104697465896606 0.9242928624153137
16.194244384765625 -1.6206560134887695 0.19753623008728027
16.010379791259766 -1.7015408277511597 0.23222774267196655
15.829063415527344 -1.7805627584457397 0.266344279050827
15.75425910949707 -1.8701106309890747 0.27772653102874756
15.863402366638184 -1.9818480014801025 0.2497546672821045
15.809772491455078 -2.073753833770752 0.25637808442115784
16.022125244140625 -2.2016947269439697 0.20595847070217133
15.934288024902344 -2.289341688156128 0.21962901949882507
15.85372257232666 -2.3771579265594482 0.23165829479694366
15.749488830566406 -2.460451602935791 0.24869465827941895
15.96054744720459 -2.593858242034912 0.1977449208498001
16.037445068359375 -2.707481861114502 0.17545592784881592
16.056699752807617 -2.8121941089630127 0.16543015837669373
16.149368286132812 -2.930692672729492 0.13935181498527527
16.033550262451172 -3.0114450454711914 0.15828047692775726
15.982645034790039 -3.1035659313201904 0.16304990649223328
16.000253677368164 -3.2090232372283936 0.1527998000383377
15.994182586669922 -3.3100597858428955 0.14755484461784363
15.964518547058105 -3.4062483310699463 0.1473238617181778
12.654474258422852 12.270434379577637 0.1107761561870575
13.756576538085938 9.63422966003418 0.23385675251483917
13.810142517089844 9.546341896057129 0.23332737386226654
13.794472694396973 9.288115501403809 0.26187434792518616
13.840961456298828 9.196837425231934 0.2625325918197632
13.81555461883545 9.058581352233887 0.28050220012664795
13.889354705810547 8.985932350158691 0.2741882801055908
13.952871322631836 8.906388282775879 0.27025309205055237
14.063815116882324 8.617992401123047 0.27674657106399536
14.119338989257812 8.533611297607422 0.27417871356010437
14.168463706970215 8.445359230041504 0.27300116419792175
14.209436416625977 8.3523530960083 0.2736153304576874
14.243867874145508 8.255720138549805 0.2756248712539673
14.318479537963867 8.18231201171875 0.26802676916122437
16.21926498413086 0.7709171175956726 0.16093522310256958
15.747781753540039 0.5550143718719482 0.25938430428504944
12.846960067749023 -0.7303134202957153 0.8523145914077759
12.856512069702148 -0.8100064992904663 0.8474595546722412
15.834175109863281 -1.977668285369873 0.15994872152805328
15.727323532104492 -2.0624215602874756 0.17852699756622314
15.820406913757324 -2.173452377319336 0.15301750600337982
15.820833206176758 -2.272515058517456 0.14773841202259064
15.81580638885498 -2.370943546295166 0.14352338016033173
15.898004531860352 -2.4831109046936035 0.11988022178411484
15.770071983337402 -2.661822557449341 0.13685539364814758
13.782292366027832 9.273003578186035 0.17192378640174866
13.836024284362793 9.186685562133789 0.17080903053283691
13.867111206054688 9.085567474365234 0.1752042919397354
13.897479057312012 8.984410285949707 0.17959782481193542
13.947761535644531 8.896384239196777 0.17887595295906067
13.978433609008789 8.796083450317383 0.18285447359085083
14.061333656311035 8.258820533752441 0.2172892540693283
15.749920845031738 0.5499810576438904 0.16962777078151703
12.854837417602539 -0.7350821495056152 0.7775150537490845
12.861410140991211 -0.8146410584449768 0.7732298970222473
15.654398918151855 -1.862886667251587 0.11450952291488647
15.664493560791016 -1.961640477180481 0.10743594169616699
15.63913345336914 -2.056015968322754 0.10821467638015747
12.860015869140625 -0.7205238938331604 0.696660041809082
12.854976654052734 -0.799375593662262 0.694976806640625
12.845406532287598 -0.7260599732398987 0.6170687675476074
12.855868339538574 -0.8057950139045715 0.6117299795150757
12.838146209716797 -0.7230707406997681 0.538333535194397
12.853446006774902 -0.803057849407196 0.5317316651344299
12.83325481414795 -0.7249016165733337 0.4682040810585022
12.84850788116455 -0.8048585653305054 0.46149545907974243
12.835801124572754 -0.7147353887557983 0.38937896490097046
12.840434074401855 -0.7940346598625183 0.3852485120296478
12.830592155456543 -0.7162368297576904 0.3047003448009491
12.830358505249023 -0.7952040433883667 0.30176517367362976
12.819113731384277 -0.713053822517395 0.22882211208343506
12.849752426147461 -0.7938522696495056 0.21764662861824036
12.819747924804688 -0.7174675464630127 0.15888985991477966
12.88305377960205 -0.8003053069114685 0.13863952457904816
12.663623809814453 12.739070892333984 1.2910443544387817
12.67798900604248 12.664999961853027 1.2953526973724365
12.772640228271484 12.759866714477539 0.3746109902858734
12.704322814941406 12.603214263916016 1.2975233793258667
12.795865058898926 12.694411277770996 0.3788416087627411
12.725077629089355 12.536176681518555 1.3006097078323364
12.6924409866333 12.50448989868164 0.41381070017814636
12.738036155700684 12.466166496276855 1.3046576976776123
12.726563453674316 12.455464363098145 0.4146767854690552
12.763495445251465 12.404353141784668 1.3068265914916992
12.783327102661133 12.337348937988281 1.3099122047424316
12.802846908569336 12.270355224609375 1.3129979372024536
31.01661491394043 29.516002655029297 0.3360285460948944
12.824175834655762 12.201138496398926 1.3160392045974731
31.061201095581055 29.352798461914062 0.3397575616836548
12.844863891601562 12.13587474822998 1.3188180923461914
31.028667449951172 29.11798858642578 0.3512358069419861
12.8670654296875 12.072312355041504 1.321290135383606
12.899033546447754 12.103212356567383 0.42977944016456604
32.32881164550781 30.125303268432617 2.400055408477783
31.11161994934082 28.992544174194336 0.3509080410003662
12.88171672821045 12.001976013183594 1.324988603591919
12.926542282104492 12.044705390930176 0.43229928612709045
32.397247314453125 29.98910140991211 2.3989622592926025
31.114025115966797 28.80287742614746 0.3582593500614166
12.904887199401855 11.944046020507812 1.3268921375274658
12.948101997375488 11.985067367553711 0.4357191026210785
32.486900329589844 29.862335205078125 2.3971896171569824
31.228797912597656 28.707632064819336 0.3545988202095032
12.928053855895996 11.882159233093262 1.3290562629699707
12.962410926818848 11.914822578430176 0.4412340223789215
32.537296295166016 29.699922561645508 2.3967244625091553
31.29356575012207 28.566551208496094 0.3559236228466034
12.949115753173828 11.818582534790039 1.3315268754959106
12.98730754852295 11.854582786560059 0.4441792666912079
32.53325653076172 29.488849639892578 2.3980774879455566
13.0092191696167 11.793804168701172 2.1962130069732666
12.969890594482422 11.755005836486816 1.3339967727661133
13.006464958190918 11.78935432434082 0.44840937852859497
32.523948669433594 29.264131546020508 2.3996365070343018
13.04297161102295 11.737724304199219 2.1961803436279297
12.988722801208496 11.685842514038086 1.3370356559753418
13.029190063476562 11.723509788513184 0.45216497778892517
32.44314193725586 28.98727798461914 2.4035208225250244
13.067020416259766 11.677190780639648 2.1969330310821533
13.010753631591797 11.623923301696777 1.3391976356506348
13.04958724975586 11.659933090209961 0.4559653401374817
32.46550750732422 28.804222106933594 2.403890609741211
13.085210800170898 11.611669540405273 2.1982414722442627
13.038081169128418 11.566934585571289 1.3404362201690674
13.071542739868164 11.597991943359375 0.4593368470668793
32.525108337402344 28.6650390625 2.402924060821533
13.110443115234375 11.556689262390137 2.198667526245117
13.057583808898926 11.507251739501953 1.3426425457000732
13.08752727508545 11.535064697265625 0.46361133456230164
32.591007232666016 28.521739959716797 2.4017767906188965
13.126200675964355 11.489527702331543 2.2001609802246094
13.071354866027832 11.438751220703125 1.3460341691970825
13.114496231079102 11.477981567382812 0.46569499373435974
32.58156204223633 28.32335662841797 2.4030895233154297
13.145308494567871 11.429595947265625 2.2011430263519287
13.095941543579102 11.383970260620117 1.347316026687622
13.137386322021484 11.421526908874512 0.468252032995224
32.6101188659668 28.149066925048828 2.4031503200531006
13.164252281188965 11.365736961364746 2.2022647857666016
13.112885475158691 11.318757057189941 1.3500910997390747
13.156425476074219 11.357922554016113 0.47205036878585815
32.58282470703125 27.927753448486328 2.4050605297088623
13.184805870056152 11.303508758544922 2.203199863433838
13.13895320892334 11.261636734008789 1.3513256311416626
13.17331314086914 11.292720794677734 0.47627800703048706
32.61338806152344 27.757186889648438 2.405001401901245
13.20318603515625 11.239657402038574 2.2043209075927734
13.157224655151367 11.198040008544922 1.3537919521331787
13.193655014038086 11.230731010437012 0.47964611649513245
32.62406921386719 27.57061767578125 2.405582904815674
13.230802536010742 11.183863639831543 2.2045094966888428
13.1865816116333 11.144057273864746 1.3544076681137085
13.209964752197266 11.165557861328125 0.48387348651885986
32.64150619506836 27.39073944091797 2.4059133529663086
13.254371643066406 11.124807357788086 2.2050697803497314
13.204319953918457 11.080439567565918 1.356872797012329
13.233526229858398 11.106739044189453 0.48638108372688293
32.64938735961914 27.19417953491211 2.4065821170806885
13.273869514465332 11.058619499206543 2.2061426639556885
13.231314659118652 11.020878791809082 1.3580563068389893
13.258757591247559 11.045578956604004 0.4888416528701782
32.66311264038086 27.01318359375 2.406984567642212
13.296910285949707 10.999524116516113 2.2067012786865234
13.248499870300293 10.957255363464355 1.3605211973190308
13.287504196166992 10.991405487060547 0.49005743861198425
32.6701774597168 26.827669143676758 2.4075839519500732
13.315845489501953 10.937236785888672 2.2076332569122314
13.267317771911621 10.895221710205078 1.3626762628555298
13.310324668884277 10.932476997375488 0.49256226420402527
32.682167053222656 26.647171020507812 2.4079947471618652
13.33837604522705 10.878104209899902 2.208190441131592
13.287790298461914 10.834756851196289 1.364522099494934
13.327173233032227 10.868856430053711 0.49635714292526245
32.687461853027344 26.46219825744629 2.408604145050049
13.35677719116211 10.815807342529297 2.2091214656829834
13.311858177185059 10.777403831481934 1.3657488822937012
13.347565650939941 10.808349609375 0.4992910325527191
32.691864013671875 26.27751350402832 2.4092183113098145
13.376852989196777 10.755077362060547 2.209864616394043
13.33375358581543 10.718457221984863 1.3672839403152466
13.3657808303833 10.74628734588623 0.5026549696922302
32.703189849853516 26.099355697631836 2.4095771312713623
13.404458999633789 10.70055866241455 2.209857225418091
13.351523399353027 10.656397819519043 1.3694370985031128
13.393349647521973 10.691910743713379 0.5038648247718811
32.70191955566406 25.912126541137695 2.4103310108184814
13.422080993652344 10.638237953186035 2.2107865810394287
13.376797676086426 10.600502967834473 1.3703519105911255
13.40719223022461 10.626765251159668 0.5080894231796265
32.72190856933594 25.733427047729492 2.4103870391845703
13.441268920898438 10.573578834533691 2.2116682529449463
13.39198112487793 10.533025741577148 1.3730764389038086
13.439992904663086 10.57301139831543 0.5083873867988586
32.71293258666992 25.54218292236328 2.4113478660583496
13.46423053741455 10.515871047973633 2.212033271789551
13.412849426269531 10.474021911621094 1.374609351158142
13.457173347473145 10.510900497436523 0.5117487907409668
32.74007797241211 25.38918113708496 2.41105318069458
13.481194496154785 10.457430839538574 2.2128212451934814
13.427740097045898 10.41430377960205 1.376808762550354
13.476162910461426 10.454168319702148 0.514295220375061
32.70957946777344 25.18330192565918 2.4126830101013184
13.511579513549805 10.405762672424316 2.2124316692352295
13.450078964233398 10.35679817199707 1.3780298233032227
13.500631332397461 10.398075103759766 0.5159302949905396
32.751502990722656 25.034095764160156 2.4118833541870117
13.523943901062012 10.340386390686035 2.213735580444336
13.470209121704102 10.297754287719727 1.3795605897903442
13.509218215942383 10.329974174499512 0.5210171341896057
32.762935638427734 24.862247467041016 2.4120736122131348
13.551902770996094 10.287103652954102 2.213531732559204
13.49404525756836 10.24169635772705 1.380469560623169
13.537114143371582 10.276823997497559 0.5217875242233276
32.757591247558594 24.6785945892334 2.412797689437866
13.575671195983887 10.230752944946289 2.2137036323547363
13.513689041137695 10.182610511779785 1.3819990158081055
13.54906940460205 10.211750984191895 0.5260108709335327
32.75736618041992 24.499765396118164 2.4133288860321045
13.585240364074707 10.163908004760742 2.215195655822754
13.52911376953125 10.120540618896484 1.3841490745544434
13.570595741271973 10.154094696044922 0.5280751585960388
32.73422622680664 24.304859161376953 2.4145967960357666
13.608518600463867 10.107524871826172 2.2153658866882324
13.556220054626465 10.067359924316406 1.3844335079193115
13.583976745605469 10.090538024902344 0.531866729259491
32.61557388305664 24.04072380065918 2.419004201889038
13.621533393859863 10.043705940246582 2.2164807319641113
13.575133323669434 10.008225440979004 1.385960578918457
13.616898536682129 10.041622161865234 0.5313358902931213
32.42095947265625 23.714508056640625 2.4259233474731445
13.650091171264648 9.987844467163086 2.2162227630615234
13.597527503967285 9.948172569274902 1.3871279954910278
13.619582176208496 9.966955184936523 0.53767329454422
32.46904754638672 23.57625961303711 2.424760341644287
13.668623924255371 9.928433418273926 2.216768980026245
13.617949485778809 9.890467643737793 1.3883424997329712
13.65405559539795 9.919379234313965 0.5367066264152527
32.486167907714844 23.416051864624023 2.4246013164520264
13.69095516204834 9.871932983398438 2.216935634613037
13.638134002685547 9.832738876342773 1.3895564079284668
13.652412414550781 9.845760345458984 0.5435269474983215
32.51680374145508 23.274770736694336 2.4239556789398193
13.711352348327637 9.817788124084473 2.2171499729156494
13.662433624267578 9.781702995300293 1.3898826837539673
13.68876838684082 9.803322792053223 0.541740357875824
32.577362060546875 23.14668083190918 2.422318458557129
13.733235359191895 9.761219024658203 2.2173147201538086
13.682170867919922 9.723918914794922 1.3910948038101196
13.682531356811523 9.726977348327637 0.5494284629821777
32.55778503417969 22.9622802734375 2.4233109951019287
13.746744155883789 9.698868751525879 2.21823787689209
13.70775032043457 9.670400619506836 1.391370177268982
13.712143898010254 9.676342010498047 0.5493224859237671
32.571998596191406 22.794113159179688 2.423180341720581
13.771873474121094 9.641292572021484 2.2181622982025146
13.722599983215332 9.605894088745117 1.3934677839279175
13.69886302947998 9.592157363891602 0.5586987733840942
32.589683532714844 22.637537002563477 2.4228973388671875
13.793052673339844 9.584644317626953 2.2183244228363037
13.74569034576416 9.550880432128906 1.3940529823303223
13.740119934082031 9.5499267578125 0.55599045753479
32.61078643798828 22.48395538330078 2.4224812984466553
13.805794715881348 9.522305488586426 2.2192468643188477
13.762438774108887 9.491597175598145 1.3955739736557007
13.771110534667969 9.500533103942871 0.5554470419883728
32.54047775268555 22.268407821655273 2.425062417984009
13.834725379943848 9.471257209777832 2.2186455726623535
13.78508186340332 9.436515808105469 1.3961576223373413
13.92179012298584 9.533101081848145 0.529309093952179
32.48765563964844 22.06625747680664 2.4270448684692383
13.855220794677734 9.414521217346191 2.2188048362731934
13.80750846862793 9.381393432617188 1.3967394828796387
14.172640800476074 9.632536888122559 0.4818906784057617
32.55848693847656 21.95703887939453 2.4249160289764404
13.871794700622559 9.358782768249512 2.219203472137451
13.830154418945312 9.330025672912598 1.3970568180084229
14.189994812011719 9.575871467590332 0.4839703440666199
32.56005859375 21.793243408203125 2.4250636100769043
13.898055076599121 9.306160926818848 2.2187881469726562
13.852161407470703 9.27481460571289 1.3976364135742188
14.053299903869629 9.412605285644531 0.5189970135688782
32.54839324951172 21.621414184570312 2.4256272315979004
13.913735389709473 9.24657154083252 2.219326972961426
13.87188720703125 9.218192100524902 1.3985278606414795
13.915647506713867 9.250410079956055 0.5540452003479004
32.49837875366211 21.425172805786133 2.427436590194702
13.933333396911621 9.189732551574707 2.219482660293579
13.897595405578613 9.165637969970703 1.3984793424606323
13.929123878479004 9.189604759216309 0.5569635033607483
32.434837341308594 21.221332550048828 2.429671049118042
13.954788208007812 9.134232521057129 2.2194466590881348
13.91273307800293 9.106225967407227 1.3999953269958496
13.946465492248535 9.131513595581055 0.5590128302574158
32.40538024902344 21.032960891723633 2.430767059326172
13.975513458251953 9.074898719787598 2.219550848007202
13.939595222473145 9.051143646240234 1.3998942375183105
13.971336364746094 9.074997901916504 0.5597075819969177
32.4700927734375 20.914337158203125 2.42873215675354
13.990232467651367 9.015277862548828 2.2200875282287598
13.954256057739258 8.991705894470215 1.4014095067977905
13.988210678100586 9.016862869262695 0.5617552995681763
32.52595901489258 20.790128707885742 2.4269707202911377
14.01520824432373 8.962377548217773 2.2196648120880127
13.981207847595215 8.940290451049805 1.4010415077209473
14.013147354125977 8.964027404785156 0.5620622634887695
32.59612274169922 20.675159454345703 2.4247186183929443
14.039981842041016 8.90941047668457 2.219240188598633
13.991217613220215 8.878169059753418 1.4031834602355957
14.06091022491455 8.85750675201416 2.2190566062927246
14.020421981811523 8.831743240356445 1.402234435081482
14.083178520202637 8.803105354309082 2.2188215255737305
14.036270141601562 8.77357006072998 1.4034329652786255
32.53934860229492 20.172607421875 2.426656723022461
14.105238914489746 8.748655319213867 2.21858549118042
14.070856094360352 8.727155685424805 1.4018011093139648
14.387617111206055 8.927094459533691 0.5053821206092834
32.490257263183594 19.985612869262695 2.4282612800598145
14.122845649719238 8.691545486450195 2.2187328338623047
14.08839225769043 8.670210838317871 1.4026832580566406
14.374428749084473 8.84974479675293 0.513505756855011
32.49786376953125 19.83435821533203 2.427978038787842
14.148735046386719 8.639615058898926 2.218108654022217
14.10146713256836 8.610661506652832 1.4041938781738281
32.52533721923828 19.68797492980957 2.4270176887512207
14.16952896118164 8.58126449584961 2.218010663986206
14.122147560119629 8.552520751953125 1.4047095775604248
32.48664474487305 19.510025024414062 2.42822265625
14.201427459716797 8.533053398132324 2.216804027557373
14.143241882324219 8.498085975646973 1.404959797859192
14.156950950622559 8.509891510009766 0.5744949579238892
32.414894104003906 19.31340217590332 2.4304988384246826
14.222453117370605 8.478341102600098 2.2165608406066895
14.166257858276367 8.444876670837402 1.4048932790756226
14.171539306640625 8.451624870300293 0.576537013053894
32.42393112182617 19.165834426879883 2.43009352684021
14.247559547424316 8.426122665405273 2.2159297466278076
14.18694019317627 8.390348434448242 1.4051406383514404
14.188013076782227 8.394609451293945 0.5781420469284058
32.41607666015625 19.016511917114258 2.430233955383301
14.271021842956543 8.376325607299805 2.2153477668762207
14.208110809326172 8.339512825012207 1.4051222801208496
14.215553283691406 8.347538948059082 0.577177107334137
32.42816162109375 18.871854782104492 2.429694414138794
14.282831192016602 8.316445350646973 2.2158751487731934
14.226248741149902 8.283648490905762 1.405683159828186
14.21884822845459 8.283025741577148 0.5814015865325928
32.48724365234375 18.754825592041016 2.427584648132324
14.30518913269043 8.262816429138184 2.215433359146118
14.257054328918457 8.235201835632324 1.4043481349945068
14.243183135986328 8.230904579162598 0.5812566876411438
32.59794998168945 18.667417526245117 2.4237544536590576
14.327348709106445 8.20913314819336 2.2149903774261475
14.276937484741211 8.180475234985352 1.4045902490615845
14.271597862243652 8.181161880493164 0.5802360773086548
32.674739837646484 18.55278205871582 2.4210143089294434
14.357226371765137 8.156584739685059 2.213912010192871
14.29802131652832 8.123215675354004 1.4047802686691284
14.326926231384277 8.14341926574707 0.5739144086837769
32.72613525390625 18.43128776550293 2.419102430343628
14.392014503479004 8.110107421875 2.2122995853424072
14.323959350585938 8.072060585021973 1.4040716886520386
14.331446647644043 8.080089569091797 0.5776993632316589
32.753082275390625 18.296255111694336 2.4179797172546387
14.428831100463867 8.064701080322266 2.2104897499084473
14.345386505126953 8.018404960632324 1.4039937257766724
14.34720230102539 8.026537895202637 0.5789111256599426
32.80156707763672 18.18844985961914 2.416153907775879
14.379027366638184 7.978128433227539 1.4018009901046753
14.3670654296875 7.975356578826904 0.5792469382286072
32.8691291809082 18.076278686523438 2.4136550426483154
14.431242942810059 7.94536018371582 0.5707709193229675
32.92534637451172 17.95787811279297 2.411513328552246
14.938247680664062 8.152254104614258 2.169278621673584
33.00970458984375 17.854759216308594 2.4084227085113525
14.936736106872559 8.08446216583252 1.3295842409133911
33.00565719604492 17.704021453857422 2.408236265182495
33.053924560546875 17.581695556640625 2.4063031673431396
33.06415557861328 17.439428329467773 2.405609130859375
33.08929443359375 17.305410385131836 2.404404878616333
27.806665420532227 14.550031661987305 1.035871982574463
33.103580474853516 17.158750534057617 2.4035227298736572
27.824195861816406 14.429696083068848 1.0369068384170532
33.1120491027832 17.016855239868164 2.402834177017212
27.843162536621094 14.316563606262207 1.0376499891281128
33.10879898071289 16.86943817138672 2.4025180339813232
27.828371047973633 14.186497688293457 1.0413366556167603
33.11831283569336 16.729013442993164 2.401761293411255
33.11830139160156 16.58424949645996 2.401303291320801
33.12664794921875 16.444133758544922 2.4005520343780518
33.13890075683594 16.306367874145508 2.3996541500091553
33.146671295166016 16.15964698791504 2.398862600326538
33.15327453613281 16.019962310791016 2.398118734359741
33.15930938720703 15.880425453186035 2.397376775741577
32.68519973754883 15.662172317504883 0.6305203437805176
33.16703414916992 15.742115020751953 2.3965628147125244
32.65389633178711 15.507402420043945 0.6356679797172546
33.16469192504883 15.606539726257324 2.3960955142974854
32.722957611083984 15.407562255859375 0.6318500638008118
33.17356872558594 15.469593048095703 2.3952107429504395
32.96828079223633 15.382845878601074 0.6126769781112671
33.175086975097656 15.32962417602539 2.394554853439331
33.10523986816406 15.306405067443848 0.6029739379882812
33.18285369873047 15.192956924438477 2.393674373626709
33.1536979675293 15.188716888427734 0.6009812355041504
33.18779754638672 15.055392265319824 2.3928723335266113
33.1722412109375 15.057487487792969 0.6015627384185791
33.20357131958008 14.923095703125 2.3916921615600586
33.19936752319336 14.930401802062988 0.6013505458831787
33.21198654174805 14.787823677062988 2.3907415866851807
33.18730545043945 14.786067008972168 0.6045138835906982
33.21098327636719 14.641839981079102 2.3900551795959473
33.18630599975586 14.64023494720459 0.6067668795585632
33.2182731628418 14.506855010986328 2.3891098499298096
33.175315856933594 14.497404098510742 0.6097408533096313
33.21586227416992 14.368030548095703 2.388472557067871
33.18660354614258 14.364725112915039 0.6107280850410461
33.23355484008789 14.23825454711914 2.3871471881866455
33.1859245300293 14.227235794067383 0.6127126812934875
33.22758865356445 14.105545043945312 2.3866357803344727
33.189117431640625 14.09863567352295 0.6142230033874512
33.2281494140625 13.969170570373535 2.3858530521392822
33.22182083129883 13.975975036621094 0.613219141960144
33.23969650268555 13.8377685546875 2.3846864700317383
33.23566818237305 13.845593452453613 0.613811731338501
33.23225021362305 13.698834419250488 2.384141445159912
33.23748779296875 13.710530281066895 0.6154059171676636
33.25662612915039 13.57333755493164 2.3825128078460693
33.26644515991211 13.586929321289062 0.614600658416748
33.28053665161133 13.447840690612793 2.38088321685791
33.27185821533203 13.45395278930664 0.6157966256141663
33.2645263671875 13.306565284729004 2.380579948425293
33.27674865722656 13.3211030960083 0.6169947385787964
33.21310043334961 13.15176773071289 2.3814537525177
33.211605072021484 13.160844802856445 0.6242138147354126
33.1633186340332 12.998401641845703 2.3822593688964844
33.1666374206543 13.009391784667969 0.6296374797821045
33.17334747314453 12.862345695495605 2.3809926509857178
33.151126861572266 12.863448143005371 0.6325390338897705
33.23894500732422 12.754561424255371 2.3778793811798096
33.20024871826172 12.749476432800293 0.6297329664230347
33.400390625 12.692851066589355 0.6138392090797424
33.532901763916016 12.609549522399902 0.6037611961364746
33.712501525878906 12.53974723815918 2.359113931655884
33.751792907714844 12.564379692077637 0.586126983165741
33.781761169433594 12.431514739990234 2.355795383453369
33.77183151245117 12.437917709350586 0.5856958031654358
33.77553939819336 12.295605659484863 2.355013370513916
33.78203582763672 12.30805778503418 0.5860719084739685
33.78053283691406 12.1641206741333 2.3538362979888916
33.79174041748047 12.178275108337402 0.5864486694335938
33.78502655029297 12.032752990722656 2.352661371231079
33.76808166503906 12.03686237335205 0.5896589159965515
33.79608154296875 11.903989791870117 2.351247787475586
33.79555892944336 11.913987159729004 0.5884214043617249
33.803977966308594 11.767754554748535 2.3498735427856445
33.80111312866211 11.776968955993652 0.5890853404998779
33.811668395996094 11.63833236694336 2.3485429286956787
33.79701614379883 11.643531799316406 0.5904827117919922
33.81414031982422 11.507391929626465 2.3473737239837646
33.80419921875 11.5142822265625 0.590868353843689
33.825965881347656 11.386460304260254 2.3459270000457764
33.804195404052734 11.38943099975586 0.5917836427688599
33.825096130371094 11.254939079284668 2.344841957092285
33.81041717529297 11.260384559631348 0.5921717286109924
33.82135009765625 11.122783660888672 2.343841314315796
33.81614685058594 11.131429672241211 0.5925611853599548
33.83848190307617 10.997740745544434 2.3421120643615723
33.835609436035156 11.007195472717285 0.591730535030365
33.831363677978516 10.865074157714844 2.341196298599243
33.830894470214844 10.875338554382324 0.5929374694824219
33.84992980957031 10.740901947021484 2.339386463165283
33.84230041503906 10.748926162719727 0.5927184224128723
33.83942794799805 10.607766151428223 2.338557481765747
33.84610366821289 10.620328903198242 0.5931134819984436
33.857051849365234 10.483699798583984 2.336749315261841
33.846473693847656 10.484453201293945 0.5937954783439636
33.87065505981445 10.345629692077637 2.334939479827881
33.85822296142578 10.3523588180542 0.5934563875198364
33.8634033203125 10.214383125305176 2.333953380584717
33.86290740966797 10.224788665771484 0.5936509370803833
33.867618560791016 10.086878776550293 2.3325581550598145
33.857574462890625 10.094463348388672 0.5946663618087769
33.88094711303711 9.962285995483398 2.3308329582214355
33.87324905395508 9.970630645751953 0.5938388109207153
33.88010787963867 9.840154647827148 2.3296456336975098
33.870025634765625 9.847853660583496 0.5945717692375183
33.89733123779297 9.717044830322266 2.327756404876709
33.87761306762695 9.72204875946045 0.5943604111671448
33.89801788330078 9.595768928527832 2.326488971710205
33.87109375 9.598822593688965 0.5953027606010437
33.89992141723633 9.468681335449219 2.325098752975464
33.875370025634766 9.472524642944336 0.5953006744384766
33.90375900268555 9.342360496520996 2.323627471923828
33.89838409423828 9.35161018371582 0.5936522483825684
33.92158889770508 9.22005844116211 2.321654796600342
33.88732147216797 9.221492767333984 0.5948877930641174
33.90037536621094 9.087396621704102 2.3210232257843018
33.8853874206543 9.09415054321289 0.5953012108802795
33.91970443725586 8.965847969055176 2.3189682960510254
33.90224838256836 8.972030639648438 0.5940655469894409
33.90958786010742 8.836715698242188 2.317922353744507
33.90419006347656 8.846129417419434 0.5940691232681274
33.92470169067383 8.708059310913086 2.3159117698669434
33.90960693359375 8.715025901794434 0.5937432050704956
33.96298599243164 8.597994804382324 2.313218355178833
33.92119598388672 8.598286628723145 0.5928371548652649
33.929656982421875 8.463703155517578 2.3129401206970215
33.93143844604492 8.475038528442383 0.5920158624649048
33.95404052734375 8.344056129455566 2.310628652572632
33.93396759033203 8.350038528442383 0.5918153524398804
33.956146240234375 8.2190523147583 2.3090827465057373
33.93605422973633 8.225122451782227 0.5916165709495544
33.955360412597656 8.093555450439453 2.307622194290161
33.95463180541992 8.104341506958008 0.5899654030799866
33.9614143371582 7.969876766204834 2.3059072494506836
33.953372955322266 7.978971481323242 0.5899758338928223
33.94753646850586 7.841754913330078 2.304877996444702
33.95895004272461 7.855391979217529 0.5893639326095581
33.96619415283203 7.715100288391113 2.302612781524658
33.96540451049805 7.725945472717285 0.5886273980140686
33.958683013916016 7.588895320892334 2.30133056640625
33.9651985168457 7.601393222808838 0.5884339809417725
33.988441467285156 7.477347373962402 2.298794984817505
33.97783660888672 7.48607873916626 0.5871137380599976
33.97027587890625 7.349185943603516 2.297860622406006
33.98405075073242 7.363249778747559 0.586295485496521
33.978515625 7.226958274841309 2.2959775924682617
33.98981857299805 7.240468978881836 0.5854776501655579
33.99854278564453 7.107317924499512 2.293661117553711
33.98784255981445 7.116204738616943 0.5852872133255005
34.00590896606445 6.98511266708374 2.2917778491973877
34.00004959106445 6.995053768157959 0.5838431119918823
34.02263641357422 6.864917755126953 2.289546251296997
33.999610900878906 6.87143611907959 0.5834449529647827
34.03158187866211 6.743234634399414 2.2875757217407227
34.00605010986328 6.749359607696533 0.5824198722839355
34.027835845947266 6.61918830871582 2.286041498184204
33.99983215332031 6.624941349029541 0.5824442505836487
34.0272216796875 6.489781379699707 2.284296989440918
34.011409759521484 6.497987747192383 0.5808756947517395
34.03236770629883 6.367781639099121 2.2824151515960693
34.00917053222656 6.374679088592529 0.5804818272590637
34.017425537109375 6.242218494415283 2.2812373638153076
34.02118682861328 6.254166603088379 0.5788277387619019
34.03152847290039 6.12214469909668 2.2790045738220215
34.03032302856445 6.133204460144043 0.5773836374282837
34.04170227050781 6.007553577423096 2.276984214782715
34.03553771972656 6.017759323120117 0.5762746334075928
34.05251693725586 5.887020587921143 2.27483868598938
34.03893280029297 5.89598274230957 0.5752515196800232
34.048118591308594 5.763982772827148 2.2732248306274414
34.04187774658203 5.774253845214844 0.5742291808128357
34.05314254760742 5.64268159866333 2.271256685256958
34.04193878173828 5.6521687507629395 0.5734186172485352
34.065128326416016 5.522613525390625 2.2690212726593018
34.058773040771484 5.532947540283203 0.5711284875869751
34.05295181274414 5.3926777839660645 2.2675535678863525
34.05644607543945 5.404609680175781 0.5704044699668884
34.06159210205078 5.272282600402832 2.265407085418701
34.06748962402344 5.28459358215332 0.5685365796089172
34.04757308959961 5.148532867431641 2.2640678882598877
34.0657958984375 5.162700653076172 0.5677272081375122
34.05287551879883 5.027862548828125 2.2620127201080322
34.06367111206055 5.040882110595703 0.5669198632240295
34.07505798339844 4.909710884094238 2.2593276500701904
34.08575439453125 4.922699451446533 0.5639886856079102
34.071266174316406 4.7939348220825195 2.257667303085327
34.081947326660156 4.806896686553955 0.5633066296577454
34.077789306640625 4.673650741577148 2.255520820617676
34.09334945678711 4.687263011932373 0.5612246990203857
34.09626388549805 4.555032730102539 2.252922296524048
34.09199523925781 4.565954685211182 0.5602052807807922
34.079647064208984 4.431833744049072 2.2515909671783447
34.10008239746094 4.445998191833496 0.5583345293998718
34.09976577758789 4.313506126403809 2.2488999366760254
34.11269760131836 4.326667308807373 0.556036651134491
34.105316162109375 4.187314033508301 2.246626615524292
34.110782623291016 4.199523448944092 0.5548924803733826
34.12955093383789 4.069453716278076 2.243748664855957
34.11016082763672 4.078695297241211 0.5536614060401917
34.10417175292969 3.957350969314575 0.5528584122657776
33.74131774902344 3.7960164546966553 0.5828735828399658
33.55586624145508 3.651182174682617 2.2589995861053467
33.382083892822266 3.6436264514923096 0.6126368641853333
33.5509147644043 3.532231569290161 2.257169723510742
33.36463928222656 3.5239810943603516 0.6127476096153259
33.58282470703125 3.4171502590179443 2.253957986831665
33.27244567871094 3.3969171047210693 0.6192976832389832
33.629249572753906 3.3033533096313477 2.250187397003174
33.37063980102539 3.2893407344818115 0.6093282699584961
33.69021987915039 3.1906862258911133 2.2458560466766357
33.33705520629883 3.1686363220214844 0.6107345223426819
33.706024169921875 3.073552131652832 2.2431838512420654
33.28567886352539 3.046617031097412 0.6136518716812134
33.70450973510742 2.9489400386810303 2.2410364151000977
33.01849365234375 2.9002487659454346 0.6351833343505859
33.70703125 2.8306775093078613 2.2388272285461426
32.64598846435547 2.7528090476989746 0.665926992893219
33.71364212036133 2.7187156677246094 2.236555576324463
32.94518280029297 2.668079137802124 0.6384077072143555
33.720333099365234 2.600858211517334 2.234159231185913
33.321598052978516 2.5815534591674805 0.6040324568748474
33.71664047241211 2.482252597808838 2.2321367263793945
32.801109313964844 2.4261634349823 0.6475802063941956
33.72749710083008 2.3647522926330566 2.2295517921447754
33.02531433105469 2.3269076347351074 0.6263480186462402
33.72298049926758 2.2462105751037598 2.2275288105010986
33.14483642578125 2.2191343307495117 0.614170253276825
33.72053527832031 2.1278860569000244 2.2254128456115723
33.0726203918457 2.098422050476074 0.618650496006012
33.71019744873047 2.009160280227661 2.2235798835754395
32.9402961730957 1.9746670722961426 0.6283426284790039
33.69477844238281 1.884373426437378 2.221813440322876
15.814018249511719 0.8909154534339905 2.120454788208008
33.6960563659668 1.766516923904419 2.219510793685913
15.809460639953613 0.8353350162506104 2.119936466217041
33.706626892089844 1.655043363571167 2.2169530391693115
15.821990013122559 0.7834141254425049 2.1179561614990234
12.5567626953125 0.5739076137542725 3.020702600479126
15.831982612609863 0.7285423278808594 2.116132974624634
12.563637733459473 0.5302953124046326 3.019582509994507
15.831829071044922 0.6731880307197571 2.1151790618896484
12.505457878112793 0.48413971066474915 3.020944118499756
15.836462020874023 0.6180367469787598 2.1137890815734863
19.30595588684082 0.7564810514450073 0.8510458469390869
12.454599380493164 0.438659131526947 3.022027015686035
15.84836483001709 0.5631253719329834 2.1117446422576904
19.315702438354492 0.6893786191940308 0.848596453666687
12.441031455993652 0.3947213888168335 3.021679639816284
15.85012435913086 0.5078203082084656 2.1105709075927734
12.554662704467773 0.3544587790966034 3.0164365768432617
15.861647605895996 0.4527924954891205 2.108523368835449
19.317161560058594 0.5545000433921814 0.8460755944252014
12.618267059326172 0.30997827649116516 3.013054132461548
15.863086700439453 0.39467403292655945 2.1072890758514404
19.33370018005371 0.48409539461135864 0.842529833316803
12.60174560546875 0.265577495098114 3.012794017791748
15.871726989746094 0.3394775688648224 2.105457305908203
12.555096626281738 0.22077342867851257 3.013695240020752
15.877681732177734 0.28418081998825073 2.1038432121276855
33.790348052978516 0.47281309962272644 2.1900081634521484
15.88593864440918 0.22888189554214478 2.102008581161499
33.796627044677734 0.36084243655204773 2.187433958053589
15.879034996032715 0.17613764107227325 2.1015472412109375
33.792579650878906 0.24286572635173798 2.185121774673462
32.903045654296875 0.24799223244190216 0.599834680557251
12.56427001953125 0.047725167125463486 3.0097250938415527
32.843711853027344 0.13293962180614471 0.6026666164398193
12.614278793334961 0.003887465689331293 3.006842613220215
32.88858413696289 0.018355119973421097 0.5962715744972229
12.644148826599121 -0.040232062339782715 3.0047340393066406
32.850868225097656 -0.09629572182893753 0.5971319079399109
12.736296653747559 -0.08720908313989639 3.000126361846924
32.95714569091797 -0.21737027168273926 0.5851004123687744
12.780834197998047 -0.1321256011724472 2.99741530418396
33.048091888427734 -0.3333054780960083 0.574497401714325
12.782748222351074 -0.1767602413892746 2.996367931365967
32.857269287109375 -0.44604194164276123 0.5888106226921082
12.657125473022461 -0.21918374300003052 3.0003409385681152
32.847816467285156 -0.5605644583702087 0.5870325565338135
12.62631607055664 -0.26051971316337585 3.000631332397461
33.731903076171875 -0.6875701546669006 0.5060434937477112
33.842533111572266 -0.8198466300964355 2.160170793533325
33.7315559387207 -0.8053306341171265 0.5033160448074341
33.85184097290039 -0.9382875561714172 2.1571595668792725
33.578956604003906 -0.9189333319664001 0.5140901803970337
33.84825897216797 -1.0564132928848267 2.1546435356140137
32.9630241394043 -1.017167568206787 0.566092848777771
33.8492546081543 -1.1746994256973267 2.1519277095794678
33.362213134765625 -1.1460576057434082 0.527722954750061
33.14627456665039 -1.2544480562210083 0.5441036820411682
12.933972358703613 -0.5334699749946594 2.3454861640930176
12.55089282989502 -0.568091630935669 2.996613025665283
12.946758270263672 -0.581527590751648 2.343141555786133
12.681026458740234 -0.6183556318283081 2.9903724193573
33.39399719238281 -1.6199413537979126 0.5130015015602112
13.0005464553833 -0.6794732213020325 2.9764888286590576
13.128702163696289 -0.6815766096115112 2.3245155811309814
12.995555877685547 -0.7246967554092407 2.975621461868286
13.131120681762695 -0.7276601195335388 2.323092460632324
12.986235618591309 -0.7171949148178101 1.690474033355713
12.938800811767578 -0.709712028503418 1.0450823307037354
12.815857887268066 -0.7595216035842896 2.981801986694336
12.964350700378418 -0.7637845873832703 2.336834669113159
12.94643497467041 -0.7603184580802917 1.6946797370910645
12.921342849731445 -0.7539895176887512 1.0469142198562622
12.902304649353027 -0.7522858381271362 0.38787341117858887
12.800760269165039 -0.8012217283248901 2.9813995361328125
12.874677658081055 -0.8013289570808411 2.3437297344207764
12.921467781066895 -0.8018443584442139 1.6968690156936646
12.911238670349121 -0.7963582873344421 1.0473978519439697
12.884805679321289 -0.7963915467262268 0.3904277980327606
11.985282897949219 -0.7920509576797485 3.013385534286499
12.896554946899414 -0.8478864431381226 2.340536594390869
12.928333282470703 -0.8475741744041443 1.6945257186889648
12.920446395874023 -0.8422006368637085 1.044105052947998
12.90111255645752 -0.8426080346107483 0.3847796618938446
12.002338409423828 -0.8352610468864441 3.0116827487945557
12.913296699523926 -0.8942618370056152 2.33778715133667
12.156257629394531 -0.8886392712593079 3.004399061203003
12.91745376586914 -0.9398592710494995 2.336153507232666
12.217795372009277 -0.9360265731811523 3.000851631164551
12.911520004272461 -0.9847380518913269 2.3354146480560303
12.493103981018066 -1.00322687625885 2.9884941577911377
12.880423545837402 -1.0298503637313843 2.336869478225708
12.504416465759277 -1.0480713844299316 2.986950635910034
12.894026756286621 -1.0762416124343872 2.334338665008545
12.438427925109863 -1.0862576961517334 2.988572120666504
12.427054405212402 -1.1289775371551514 2.9879510402679443
33.60791778564453 -3.163114309310913 0.4512331187725067
12.764552116394043 -1.2473366260528564 2.9718658924102783
33.60941696166992 -3.2757139205932617 0.4477250277996063
12.80480670928955 -1.2964085340499878 2.9690608978271484
33.65947723388672 -3.3992300033569336 0.439585417509079
12.822517395019531 -1.3434308767318726 2.967177152633667
33.72393798828125 -3.524689197540283 0.430083692073822
13.197650909423828 -1.4293774366378784 2.9504191875457764
33.76318359375 -3.6479644775390625 0.4228275418281555
15.940759658813477 -1.7122644186019897 0.443805992603302
13.366299629211426 -1.4948840141296387 2.9421916007995605
33.89105224609375 -3.7815017700195312 0.4074351191520691
15.944215774536133 -1.7689546346664429 0.4407411813735962
13.340829849243164 -1.5415529012680054 2.941972255706787
33.88661575317383 -3.9067904949188232 0.403872549533844
15.94469928741455 -1.8281923532485962 0.438084214925766
13.241070747375488 -1.5768593549728394 2.9449210166931152
33.748924255371094 -4.010314464569092 0.4126487076282501
15.852635383605957 -1.873712182044983 0.45330578088760376
12.613152503967285 -1.54664945602417 2.9700405597686768
33.801204681396484 -4.136222839355469 0.40401533246040344
15.906706809997559 -1.9364358186721802 0.44039270281791687
12.570737838745117 -1.583765983581543 2.970707654953003
33.6314582824707 -4.228672981262207 0.4158858358860016
16.09490203857422 -2.0135579109191895 0.40171974897384644
33.99186325073242 -4.406632900238037 2.0668609142303467
33.603912353515625 -4.344404220581055 0.4145049750804901
15.909753799438477 -2.0468051433563232 0.4347877502441406
33.98606872558594 -4.526545524597168 2.0639004707336426
33.74872589111328 -4.482954502105713 0.3972436189651489
15.882804870605469 -2.0997235774993896 0.4373549520969391
33.99964904785156 -4.649179935455322 2.060101270675659
33.865848541259766 -4.618865966796875 0.3824557662010193
15.787553787231445 -2.1432228088378906 0.4530812203884125
34.000423431396484 -4.770229339599609 2.0568222999572754
33.91339111328125 -4.745985507965088 0.3740130364894867
15.808926582336426 -2.202360153198242 0.4462602138519287
33.990867614746094 -4.88991641998291 2.0539627075195312
33.97524642944336 -4.875616073608398 0.36419573426246643
16.058561325073242 -2.294347047805786 0.395235151052475
34.008079528808594 -5.013605117797852 2.0499441623687744
15.88987922668457 -2.326859712600708 0.42507869005203247
