# .PCD v0.7 - Point Cloud Data file format
VERSION 0.7
FIELDS x y z
SIZE 4 4 4
TYPE F F F
COUNT 1 1 1
WIDTH 847
HEIGHT 1
VIEWPOINT 0 0 0 1 0 0 0
POINTS 847
DATA ascii
34.090389251708984 -8.457189559936523 0.627817690372467
34.109893798828125 -8.6845703125 0.6168999671936035
34.13078308105469 -8.9132661819458 0.6057122349739075
34.12607955932617 -9.136104583740234 0.5966518521308899
34.12184524536133 -9.359748840332031 0.5874118804931641
34.12861633300781 -9.587191581726074 0.5770466327667236
34.16930389404297 -9.825258255004883 0.5634869337081909
34.172027587890625 -10.053499221801758 0.553181529045105
34.17609786987305 -10.28300666809082 0.5426059365272522
34.20053482055664 -10.519680976867676 0.5300317406654358
34.200531005859375 -10.749873161315918 0.5195176601409912
34.158206939697266 -10.967366218566895 0.5127206444740295
34.188331604003906 -11.208956718444824 0.4991530776023865
34.20354461669922 -11.446904182434082 0.4867846965789795
34.20675277709961 -11.68191909790039 0.47535744309425354
34.22905731201172 -11.924615859985352 0.4620015323162079
34.18958282470703 -12.146683692932129 0.45421454310417175
34.15335464477539 -12.370413780212402 0.4459892213344574
34.24836349487305 -12.643145561218262 0.4253300428390503
34.29655075073242 -12.900675773620605 0.40884220600128174
34.300994873046875 -13.143234252929688 0.39627954363822937
34.32695007324219 -13.395387649536133 0.3815048038959503
34.325172424316406 -13.638053894042969 0.36917611956596375
34.332786560058594 -13.885686874389648 0.35577699542045593
34.319305419921875 -14.12596607208252 0.3442167341709137
34.357452392578125 -14.388919830322266 0.32751861214637756
34.320343017578125 -14.6216402053833 0.3178796172142029
34.298118591308594 -14.861577033996582 0.3066409230232239
29.507152557373047 -13.001274108886719 0.7597344517707825
34.42413330078125 -15.420870780944824 0.2669805884361267
34.37649154663086 -15.653604507446289 0.2576529085636139
34.41044998168945 -15.924822807312012 0.24012210965156555
34.370262145996094 -16.163137435913086 0.22970928251743317
34.406620025634766 -16.438915252685547 0.21151453256607056
34.41041946411133 -16.70096206665039 0.19633826613426208
34.30866241455078 -16.91259002685547 0.1915423423051834
34.32227325439453 -17.182008743286133 0.17499969899654388
34.093257904052734 -17.329927444458008 0.18279345333576202
34.285003662109375 -17.69309425354004 0.14779651165008545
33.68838882446289 -17.64794158935547 0.19292894005775452
34.215694427490234 -18.192760467529297 0.12307390570640564
34.08897018432617 -18.394716262817383 0.11991645395755768
34.091209411621094 -18.667076110839844 0.10329773277044296
29.844207763671875 -21.199588775634766 0.2281014323234558
30.227964401245117 -21.752717971801758 0.16496728360652924
29.824777603149414 -21.74180793762207 0.1918717324733734
29.716026306152344 -21.943256378173828 0.18483994901180267
29.633831024169922 -22.165067672729492 0.17455989122390747
29.600820541381836 -22.4251708984375 0.1583176702260971
29.621807098388672 -22.72873878479004 0.1354401856660843
33.77846908569336 -26.249374389648438 -0.37911468744277954
33.65071487426758 -26.483156204223633 -0.38783520460128784
33.5914306640625 -26.77220344543457 -0.40497148036956787
33.44618225097656 -26.993989944458008 -0.41199517250061035
32.789161682128906 -26.79792022705078 -0.3568916618824005
32.57915115356445 -26.961713790893555 -0.35592538118362427
32.402706146240234 -27.1527156829834 -0.3591596186161041
32.168212890625 -27.29426383972168 -0.3553091883659363
31.96944808959961 -27.465103149414062 -0.3559446632862091
31.780317306518555 -27.643680572509766 -0.35787147283554077
31.192996978759766 -28.159021377563477 -0.3616977632045746
31.06250762939453 -28.389434814453125 -0.37157270312309265
31.17444610595703 29.776817321777344 0.5097322463989258
31.200878143310547 29.438568115234375 0.5213784575462341
15.521557807922363 14.465983390808105 2.0924746990203857
31.30061912536621 28.815826416015625 0.539197564125061
31.358339309692383 28.51593780517578 0.546955406665802
31.553058624267578 28.341718673706055 0.5410451889038086
31.69906997680664 28.12381935119629 0.5397656559944153
31.919353485107422 27.971586227416992 0.5311049222946167
32.02735137939453 27.721099853515625 0.5332131385803223
31.998552322387695 27.35498809814453 0.5483250021934509
32.36882400512695 27.329994201660156 0.5248157382011414
32.53086853027344 27.127105712890625 0.5212404131889343
14.568140983581543 11.997458457946777 2.245234966278076
14.635098457336426 11.902841567993164 2.244013547897339
14.661789894104004 11.776004791259766 2.2465357780456543
14.710137367248535 11.667258262634277 2.246922492980957
14.69803524017334 11.511629104614258 2.2529118061065674
14.717713356018066 11.38221263885498 2.2558093070983887
14.71971607208252 11.240277290344238 2.260262966156006
14.72292423248291 11.100547790527344 2.2645013332366943
14.75937271118164 10.986807823181152 2.265557289123535
14.805426597595215 10.880717277526855 2.26564621925354
14.883829116821289 10.798484802246094 2.2626821994781494
14.87016773223877 10.650081634521484 2.268120050430298
14.916319847106934 10.545431137084961 2.2679760456085205
14.966653823852539 10.444038391113281 2.2673797607421875
15.04012393951416 10.358827590942383 2.2646093368530273
15.180734634399414 10.319076538085938 2.255687952041626
15.06718921661377 10.107439994812012 2.2697558403015137
15.093814849853516 9.99171257019043 2.2710204124450684
15.119587898254395 9.87603759765625 2.272284984588623
15.167142868041992 9.775010108947754 2.271516799926758
15.169431686401367 9.645411491394043 2.2747392654418945
15.215473175048828 9.544236183166504 2.273966073989868
15.272716522216797 9.450203895568848 2.2721292972564697
15.330227851867676 9.356346130371094 2.2702090740203857
15.382891654968262 9.259567260742188 2.2686591148376465
15.436659812927246 9.1635103225708 2.2669503688812256
15.484663963317871 9.064120292663574 2.265690565109253
32.91058349609375 18.995098114013672 0.732111394405365
32.948123931884766 18.748493194580078 0.7348249554634094
32.83604431152344 18.419214248657227 0.7505229711532593
32.85380935668945 18.16535186767578 0.7546387910842896
32.95112609863281 17.956336975097656 0.7516393661499023
32.99264907836914 17.717559814453125 0.7533820271492004
33.02014923095703 17.472421646118164 0.7562021017074585
33.0246696472168 17.216550827026367 0.7608717083930969
33.04326248168945 16.969478607177734 0.7641656994819641
33.04850769042969 16.716976165771484 0.7684691548347473
33.04922866821289 16.463712692260742 0.7730147838592529
33.0749397277832 16.224241256713867 0.7752488851547241
33.0872917175293 15.979439735412598 0.7784958481788635
33.08077621459961 15.726960182189941 0.783223569393158
33.08867263793945 15.482767105102539 0.7865644693374634
33.112030029296875 15.246991157531738 0.7884358763694763
33.147361755371094 15.017682075500488 0.7891417741775513
33.1319580078125 14.766595840454102 0.7940633893013
33.08916091918945 14.505056381225586 0.80118727684021
33.12131118774414 14.277748107910156 0.8017563819885254
33.13264083862305 14.04241943359375 0.8039721846580505
33.15522384643555 13.81285572052002 0.8050955533981323
33.17623519897461 13.583541870117188 0.8062223792076111
33.203086853027344 13.357465744018555 0.8067225813865662
33.06987380981445 13.068916320800781 0.8207104802131653
33.113746643066406 12.852120399475098 0.8194974064826965
33.49061584472656 12.76271915435791 0.7898821234703064
33.65754699707031 12.590584754943848 0.7780042886734009
33.714134216308594 12.376686096191406 0.7753751277923584
33.722469329833984 12.145673751831055 0.7767124772071838
33.7292366027832 11.915023803710938 0.7780556082725525
33.73351287841797 11.68442153930664 0.7794844508171082
33.74660873413086 11.457737922668457 0.7800413370132446
33.74968719482422 11.228499412536621 0.7813221216201782
33.760704040527344 11.002741813659668 0.7818081974983215
33.76167297363281 10.774541854858398 0.7830199599266052
33.77158737182617 10.550012588500977 0.7833551168441772
33.782875061035156 10.326641082763672 0.7834528088569641
33.7965202331543 10.104666709899902 0.7832323312759399
33.819236755371094 9.88598918914795 0.7821266055107117
33.82808303833008 9.663850784301758 0.7820722460746765
33.839317321777344 9.443047523498535 0.7816979289054871
33.85489273071289 9.224039077758789 0.7808393836021423
33.86038589477539 9.002887725830078 0.7807129621505737
33.854793548583984 8.779513359069824 0.7814041972160339
33.86996078491211 8.562163352966309 0.7802295684814453
33.88664245605469 8.345670700073242 0.7788107395172119
33.89128112792969 8.12673568725586 0.7782909870147705
33.89063262939453 7.907151222229004 0.7781025767326355
33.897308349609375 7.689863681793213 0.7771815657615662
33.913307189941406 7.475149154663086 0.775360643863678
33.924049377441406 7.25969123840332 0.7738685011863708
33.93244934082031 7.044178485870361 0.7724606990814209
33.94045639038086 6.829030513763428 0.7709711790084839
33.94906234741211 6.614428520202637 0.7693188190460205
33.950435638427734 6.398868560791016 0.7681642174720764
33.97103500366211 6.187289237976074 0.7652739882469177
33.987369537353516 5.975177764892578 0.7626299858093262
33.98960876464844 5.760931015014648 0.7610649466514587
33.99837112426758 5.548163890838623 0.7588366270065308
34.00973892211914 5.336122512817383 0.7562758922576904
34.00992965698242 5.122663497924805 0.7545489072799683
34.019630432128906 4.910966873168945 0.7519055604934692
34.039859771728516 4.7009782791137695 0.7482577562332153
34.05583572387695 4.490533351898193 0.744857907295227
34.064571380615234 4.279321670532227 0.7419600486755371
34.06705093383789 4.0675787925720215 0.739481508731842
33.63949203491211 3.807434320449829 0.7734607458114624
33.48846435546875 3.582474708557129 0.7838570475578308
33.529266357421875 3.3789944648742676 0.777826189994812
33.622406005859375 3.180213689804077 0.7672182321548462
33.64289855957031 2.9740967750549316 0.7626867890357971
33.65120315551758 2.7669477462768555 0.7590837478637695
33.66121292114258 2.560032844543457 0.7552236318588257
33.666969299316406 2.352888822555542 0.7516174912452698
33.66946029663086 2.145641565322876 0.7481806874275208
15.751103401184082 0.906572163105011 2.2823781967163086
15.788039207458496 0.8115786910057068 2.277594566345215
15.791555404663086 0.7146778106689453 2.2756261825561523
15.793477058410645 0.6177243590354919 2.273743152618408
15.800780296325684 0.5209702849388123 2.271343946456909
15.825416564941406 0.42463040351867676 2.2673943042755127
15.831535339355469 0.327635258436203 2.264988422393799
15.812153816223145 0.23021668195724487 2.2647366523742676
33.74515914916992 0.28479933738708496 0.7076560258865356
33.75984191894531 0.07784117013216019 0.7020444869995117
12.211814880371094 -0.0470300018787384 2.571789503097534
12.9592924118042 -0.12937717139720917 2.5050244331359863
33.767372131347656 -0.5435674786567688 0.6876979470252991
33.77796173095703 -0.751010537147522 0.6819827556610107
12.631653785705566 -0.35865965485572815 2.528191089630127
11.757936477661133 -0.4060792028903961 2.6029276847839355
33.81699752807617 -1.3748306035995483 0.6634964346885681
13.19665241241455 -0.6178877353668213 2.4727156162261963
13.182519912719727 -0.6982948184013367 2.4718661308288574
12.825822830200195 -0.7583390474319458 2.5012295246124268
12.825757026672363 -0.8373197317123413 2.499110698699951
12.721871376037598 -0.9089497923851013 2.506150960922241
33.86832046508789 -2.628005266189575 0.625668466091156
12.84943675994873 -1.0766661167144775 2.490361452102661
13.004154205322266 -1.170004963874817 2.4742558002471924
12.983696937561035 -1.2485084533691406 2.4737021923065186
12.997446060180664 -1.3303544521331787 2.4700467586517334
33.917396545410156 -3.681300640106201 0.590242862701416
33.91753005981445 -3.8919970989227295 0.5836535692214966
33.91932678222656 -4.1031951904296875 0.576792299747467
33.93955993652344 -4.317076683044434 0.5681412816047668
33.95647048950195 -4.531099319458008 0.559658408164978
33.955257415771484 -4.743151664733887 0.5526873469352722
13.095850944519043 -1.9115978479385376 2.4427897930145264
13.120158195495605 -1.9974335432052612 2.4377450942993164
13.190135955810547 -2.090967893600464 2.428466558456421
13.220146179199219 -2.1789584159851074 2.4227683544158936
33.99111557006836 -5.816198348999023 0.5120783448219299
29.25535011291504 -5.190884113311768 0.9402637481689453
34.01924514770508 -6.251633644104004 0.4936298131942749
34.031700134277344 -6.470037937164307 0.4843446910381317
34.0163688659668 -6.68364953994751 0.47749805450439453
33.965538024902344 -6.8903889656066895 0.47382596135139465
33.91637420654297 -7.097370624542236 0.4698881506919861
33.9331169128418 -7.318496227264404 0.4596722722053528
34.03202438354492 -7.5586652755737305 0.44160157442092896
34.09624481201172 -7.792779922485352 0.4266017973423004
34.07743835449219 -8.008831024169922 0.4192597568035126
34.095008850097656 -8.234065055847168 0.40834128856658936
34.08306884765625 -8.452866554260254 0.4000706374645233
34.09288024902344 -8.677727699279785 0.38959062099456787
34.12818908691406 -8.910072326660156 0.37652453780174255
34.12922286987305 -9.134424209594727 0.36657044291496277
34.121097564697266 -9.357020378112793 0.35734525322914124
34.12494659423828 -9.58363151550293 0.3468194901943207
34.14164352416992 -9.814770698547363 0.3348972201347351
34.15105438232422 -10.044790267944336 0.3235156238079071
34.13985824584961 -10.269560813903809 0.3139767050743103
34.18903732299805 -10.513595581054688 0.29839539527893066
34.18996047973633 -10.743996620178223 0.2873461842536926
34.1656379699707 -10.967198371887207 0.27861371636390686
34.198516845703125 -11.209734916687012 0.2640974819660187
34.18815612792969 -11.439188003540039 0.2536689341068268
34.176265716552734 -11.668937683105469 0.24323245882987976
34.22677230834961 -11.921242713928223 0.22642146050930023
34.1366081237793 -12.125288963317871 0.22345906496047974
34.05739974975586 -12.333087921142578 0.21928773820400238
34.16652297973633 -12.610349655151367 0.196048766374588
34.3033332824707 -12.900627136230469 0.169756680727005
34.31328201293945 -13.145336151123047 0.15604305267333984
34.30760192871094 -13.385224342346191 0.14372870326042175
34.262325286865234 -13.610472679138184 0.13527779281139374
33.784568786621094 -13.661391258239746 0.17100340127944946
33.74571228027344 -13.887298583984375 0.1617555171251297
33.67780303955078 -14.10171127319336 0.155350461602211
33.6085319519043 -14.315814018249512 0.14894968271255493
33.613712310791016 -14.562446594238281 0.13466110825538635
29.504966735839844 -12.998163223266602 0.5501530766487122
33.65328598022461 -15.072969436645508 0.10241691023111343
33.49594497680664 -22.574005126953125 -0.3689703047275543
20.544750213623047 -14.030159950256348 1.1656895875930786
20.06682777404785 -13.885255813598633 1.2101489305496216
19.881553649902344 -13.938385963439941 1.2194968461990356
19.73857307434082 -14.019731521606445 1.223731517791748
19.626041412353516 -14.121936798095703 1.2242228984832764
19.57170295715332 -14.266077995300293 1.2174838781356812
19.56195831298828 -14.44377326965332 1.2050814628601074
19.509326934814453 -14.590896606445312 1.1978422403335571
19.539697647094727 -14.801606178283691 1.1800448894500732
19.500320434570312 -14.961148262023926 1.1708016395568848
19.50057029724121 -15.152508735656738 1.1563640832901
29.12216567993164 -26.287242889404297 -0.3519785404205322
20.252201080322266 -18.96967887878418 0.8061497807502747
20.07300567626953 -19.034666061401367 0.8120908737182617
32.36176300048828 31.27206802368164 0.10790302604436874
30.924238204956055 29.51862907409668 0.28049957752227783
31.009288787841797 29.238800048828125 0.286945641040802
15.52100944519043 14.455527305603027 1.9664137363433838
31.127849578857422 28.638187408447266 0.3046208322048187
31.25529670715332 28.4038143157959 0.30580586194992065
31.13475227355957 27.947856903076172 0.3330901563167572
31.273860931396484 27.72858428955078 0.33254820108413696
31.41594886779785 27.512596130371094 0.33151769638061523
13.535059928894043 11.70683479309082 2.2171013355255127
13.560206413269043 11.584095001220703 2.220244884490967
13.603407859802246 11.477560043334961 2.221412181854248
13.612884521484375 11.343486785888672 2.225982427597046
13.653558731079102 11.23633861541748 2.227227210998535
13.694978713989258 11.13037395477295 2.2283105850219727
13.668761253356934 10.970661163330078 2.2362277507781982
13.722345352172852 10.87608814239502 2.2358810901641846
13.774499893188477 10.780655860900879 2.235607862472534
13.806283950805664 10.669753074645996 2.2373239994049072
13.847528457641602 10.566725730895996 2.2380003929138184
13.895194053649902 10.468994140625 2.2379539012908936
13.927787780761719 10.36036491394043 2.239344358444214
13.98688793182373 10.271790504455566 2.238006830215454
14.027670860290527 10.170008659362793 2.2384281158447266
14.075839042663574 10.073912620544434 2.238041877746582
14.103005409240723 9.96323013305664 2.2396626472473145
14.135885238647461 9.857151985168457 2.2406387329101562
14.181133270263672 9.760088920593262 2.2403218746185303
14.22077465057373 9.659481048583984 2.240485191345215
14.258889198303223 9.558197021484375 2.2407257556915283
14.294634819030762 9.455708503723145 2.2411253452301025
14.327991485595703 9.352051734924316 2.2416844367980957
14.36732006072998 9.252657890319824 2.241591691970825
14.402603149414062 9.150995254516602 2.2418205738067627
14.439713478088379 9.050835609436035 2.24180269241333
14.472748756408691 8.948467254638672 2.242107391357422
14.515281677246094 8.852261543273926 2.2414302825927734
14.551201820373535 8.752273559570312 2.2413203716278076
14.638728141784668 8.683197021484375 2.2362146377563477
14.75175952911377 8.628470420837402 2.2286338806152344
14.821501731872559 8.547783851623535 2.2251338958740234
14.925459861755371 8.486271858215332 2.218334674835205
15.007486343383789 8.411620140075684 2.2135720252990723
14.929523468017578 8.248075485229492 2.223872423171997
15.098692893981934 8.221168518066406 2.2107670307159424
27.732128143310547 14.881452560424805 1.0250067710876465
27.787322998046875 14.692437171936035 1.024811029434204
27.950836181640625 14.560397148132324 1.0143394470214844
33.046470642089844 16.449798583984375 0.5530641674995422
32.93966293334961 16.14546775817871 0.5681169629096985
33.02961349487305 15.939224243164062 0.5646932721138
33.06427001953125 15.70682430267334 0.5662678480148315
33.07114028930664 15.462356567382812 0.5702693462371826
33.1070442199707 15.232558250427246 0.5714316964149475
33.1431884765625 15.003722190856934 0.57242751121521
33.11769485473633 14.74825668334961 0.5789658427238464
33.09762191772461 14.496866226196289 0.5848476886749268
33.10042953491211 14.256919860839844 0.5884713530540466
33.129066467285156 14.029141426086426 0.5895729660987854
33.157997131347656 13.802313804626465 0.5905083417892456
33.16141891479492 13.56584644317627 0.5936436653137207
33.21034240722656 13.348808288574219 0.5924684405326843
33.078060150146484 13.060683250427246 0.6077390313148499
33.10979080200195 12.839170455932617 0.6078536510467529
33.501338958740234 12.755331993103027 0.574977457523346
33.656959533691406 12.578907012939453 0.56355220079422
33.703163146972656 12.361247062683105 0.5619844794273376
33.711402893066406 12.130334854125977 0.5637441873550415
33.72371292114258 11.901773452758789 0.564996063709259
33.73167037963867 11.672540664672852 0.5665087103843689
33.745635986328125 11.446215629577637 0.5673418641090393
33.75053024291992 11.217643737792969 0.5688652396202087
33.75863265991211 10.990981101989746 0.569963812828064
33.77946853637695 10.769181251525879 0.5697762966156006
33.7855339050293 10.543380737304688 0.5707970261573792
33.79391860961914 10.319074630737305 0.5714780688285828
33.78555679321289 10.090496063232422 0.573546290397644
33.813907623291016 9.873579025268555 0.5721595883369446
33.81788635253906 9.650131225585938 0.5728524923324585
33.82903289794922 9.429410934448242 0.5727691054344177
33.83489990234375 9.207867622375488 0.5730361342430115
33.83836364746094 8.98635196685791 0.5733950138092041
33.8548469543457 8.76888370513916 0.5724493861198425
33.87670135498047 8.55325698852539 0.5708944201469421
33.8807373046875 8.33364486694336 0.570824921131134
33.88142395019531 8.113838195800781 0.5709344744682312
33.88166046142578 7.894561767578125 0.570961594581604
33.89116668701172 7.678006649017334 0.5700262784957886
33.909996032714844 7.463985919952393 0.5681259632110596
33.91968536376953 7.248354911804199 0.5669296979904175
33.92409896850586 7.032075881958008 0.5660873651504517
33.93788528442383 6.81817102432251 0.5642769932746887
33.95520782470703 6.605310916900635 0.5620244145393372
33.94575119018555 6.387702465057373 0.5620735883712769
33.961360931396484 6.175268650054932 0.5597336888313293
33.98447799682617 5.964431285858154 0.5565938353538513
33.991546630859375 5.751046657562256 0.5547850728034973
33.99629592895508 5.5376386642456055 0.5530667304992676
34.00069808959961 5.324539661407471 0.5512610077857971
34.003761291503906 5.111593723297119 0.549456775188446
34.01337814331055 4.899943828582764 0.5469382405281067
34.029571533203125 4.689454555511475 0.5437023639678955
34.04150390625 4.4785590171813965 0.5407344698905945
34.046199798583984 4.266947269439697 0.5383036732673645
34.05649948120117 4.05626916885376 0.535244345664978
33.67162322998047 3.8011441230773926 0.5680484771728516
33.46416091918945 3.570021152496338 0.5846200585365295
33.47909164428711 3.36409592628479 0.5808233022689819
33.51258850097656 3.159990072250366 0.5752144455909729
33.54582977294922 2.9556849002838135 0.5695063471794128
33.563926696777344 2.7499494552612305 0.565061092376709
33.49635696411133 2.537703037261963 0.5683373212814331
33.607261657714844 2.3389077186584473 0.5551584959030151
33.593746185302734 2.1310224533081055 0.5532523393630981
15.746087074279785 0.9012633562088013 2.1884765625
15.783954620361328 0.8063431978225708 2.183412790298462
15.792398452758789 0.7096925377845764 2.1809937953948975
15.78532600402832 0.6123872399330139 2.1799468994140625
15.793578147888184 0.5157154202461243 2.1774330139160156
15.822139739990234 0.41952040791511536 2.1729862689971924
15.82622241973877 0.3225043714046478 2.170741319656372
15.800833702087402 0.22503945231437683 2.1711678504943848
33.713321685791016 0.27476462721824646 0.5085915923118591
33.691070556640625 0.06792426854372025 0.5063214898109436
33.694435119628906 -0.13874490559101105 0.5015563368797302
33.72042465209961 -0.34569934010505676 0.49456363916397095
12.917257308959961 -0.21245084702968597 2.4295952320098877
11.952990531921387 -0.27003350853919983 2.5177977085113525
12.126133918762207 -0.34835880994796753 2.4998528957366943
12.85896110534668 -0.44829437136650085 2.4293806552886963
33.78445053100586 -1.3832985162734985 0.4638619124889374
33.71126937866211 -1.5875016450881958 0.465425968170166
13.162246704101562 -0.7015388607978821 2.39475679397583
12.826587677001953 -0.7626147866249084 2.424248695373535
12.791711807250977 -0.839322566986084 2.4253857135772705
33.840274810791016 -2.426914930343628 0.43077051639556885
12.760294914245605 -0.9946318864822388 2.423917770385742
12.878799438476562 -1.0833839178085327 2.4103691577911377
33.85110855102539 -3.0547986030578613 0.4115253984928131
12.506503105163574 -1.2068060636520386 2.441113233566284
33.90235137939453 -3.4792721271514893 0.3938441574573517
33.897762298583984 -3.689091205596924 0.387688547372818
33.90275955200195 -3.9002389907836914 0.38048580288887024
33.906436920166016 -4.111588478088379 0.37327665090560913
33.92063903808594 -4.324642658233643 0.3649199306964874
33.930545806884766 -4.537633419036865 0.35684025287628174
33.94009017944336 -4.751047611236572 0.3486573100090027
33.95223617553711 -4.965328693389893 0.3400835692882538
33.95122146606445 -5.1781392097473145 0.3326497972011566
33.971473693847656 -5.394716262817383 0.323007196187973
33.98937225341797 -5.611576557159424 0.3134487569332123
33.969573974609375 -5.822640895843506 0.30743408203125
29.257158279418945 -5.200063228607178 0.7619473934173584
13.28571605682373 -2.446239709854126 2.326589584350586
34.03040313720703 -6.480011463165283 0.2767484486103058
34.00129699707031 -6.690926551818848 0.2710999548435211
33.93967056274414 -6.89539098739624 0.2685474455356598
33.90993881225586 -7.106293201446533 0.2627108097076416
33.9421272277832 -7.330748558044434 0.25057193636894226
33.952430725097656 -7.55133056640625 0.24045522511005402
34.04861831665039 -7.792296886444092 0.22157666087150574
34.04526901245117 -8.01170539855957 0.21249932050704956
34.03179931640625 -8.229265213012695 0.2042917013168335
34.00437927246094 -8.44384479522705 0.19734875857830048
34.09230041503906 -8.688133239746094 0.17857690155506134
34.113983154296875 -8.916960716247559 0.16633081436157227
34.11202621459961 -9.140459060668945 0.15632370114326477
34.098045349121094 -9.361371040344238 0.1473880410194397
34.07880783081055 -9.581381797790527 0.1388397067785263
34.119354248046875 -9.819125175476074 0.1239902526140213
34.08189010620117 -10.03524112701416 0.11700145900249481
34.07068634033203 -10.259591102600098 0.10715136677026749
29.590805053710938 -12.83013916015625 0.3596806526184082
29.46377944946289 -12.99052619934082 0.3609806001186371
33.382686614990234 -19.09722137451172 -0.354483038187027
33.33150100708008 -19.34054946899414 -0.36703917384147644
33.275146484375 -19.581954956054688 -0.3791861832141876
33.27687072753906 -19.859073638916016 -0.39858120679855347
20.313249588012695 -13.518524169921875 1.0722944736480713
20.078712463378906 -13.541106224060059 1.0886695384979248
19.749425888061523 -13.496241569519043 1.1172341108322144
19.586626052856445 -13.562207221984863 1.1247156858444214
19.504365921020508 -13.683226585388184 1.12184739112854
19.4748592376709 -13.84177303314209 1.1120599508285522
19.457050323486328 -14.009767532348633 1.100587010383606
19.64439582824707 -14.328665733337402 1.0620709657669067
19.45372200012207 -14.55902099609375 1.0584239959716797
19.393035888671875 -14.700289726257324 1.0518709421157837
19.31083869934082 -14.825617790222168 1.0480668544769287
19.347145080566406 -15.234850883483887 1.0129656791687012
19.43724822998047 -15.500151634216309 0.9852158427238464
28.749622344970703 -23.805265426635742 -0.35495829582214355
28.70311164855957 -24.065473556518555 -0.3729315996170044
28.701480865478516 -24.365903854370117 -0.39751559495925903
28.682151794433594 -24.654251098632812 -0.4199903905391693
28.743610382080078 -25.015731811523438 -0.4543244242668152
28.63682746887207 -25.233623504638672 -0.46509936451911926
20.92791175842285 -18.670846939086914 0.619077205657959
20.772747039794922 -18.762866973876953 0.6219821572303772
20.340625762939453 -18.60074806213379 0.665284276008606
20.090776443481445 -18.600200653076172 0.6823192238807678
19.886688232421875 -18.639448165893555 0.6927533149719238
19.685043334960938 -18.6789493560791 0.7029032707214355
19.54461669921875 -18.775224685668945 0.7039551138877869
15.525836944580078 14.444893836975098 1.8473917245864868
13.102217674255371 11.603784561157227 2.1530659198760986
13.111473083496094 11.469400405883789 2.1583664417266846
13.130887031555176 11.345112800598145 2.162404775619507
13.169734954833984 11.238484382629395 2.1641619205474854
13.216911315917969 11.13951301574707 2.164900541305542
13.251117706298828 11.030184745788574 2.166991710662842
13.288331031799316 10.924019813537598 2.1686573028564453
13.319329261779785 10.813417434692383 2.1709156036376953
13.350248336791992 10.70346736907959 2.173088312149048
13.38578987121582 10.597875595092773 2.1746644973754883
13.42367935180664 10.494706153869629 2.1758978366851807
13.463963508605957 10.393904685974121 2.1767873764038086
13.501139640808105 10.291192054748535 2.1779301166534424
13.535176277160645 10.186615943908691 2.1793272495269775
13.570037841796875 10.083198547363281 2.180551528930664
13.615388870239258 9.98798656463623 2.180572986602783
13.627806663513184 9.869219779968262 2.1840243339538574
13.678994178771973 9.779070854187012 2.183267116546631
13.707612037658691 9.673152923583984 2.1848273277282715
13.75343132019043 9.579780578613281 2.1844911575317383
13.792054176330566 9.481695175170898 2.184840202331543
13.82751750946045 9.381814956665039 2.1854448318481445
13.860621452331543 9.280750274658203 2.1862199306488037
13.901318550109863 9.1851224899292 2.186127185821533
13.938026428222656 9.087166786193848 2.1863772869110107
13.974056243896484 8.989107131958008 2.186624050140381
14.012772560119629 8.893081665039062 2.1865200996398926
14.05337142944336 8.798505783081055 2.1861517429351807
14.094183921813965 8.7042875289917 2.1856915950775146
14.142877578735352 8.615083694458008 2.1843552589416504
14.185030937194824 8.522015571594238 2.1836233139038086
14.2445707321167 8.439420700073242 2.1810507774353027
14.319972038269043 8.365962982177734 2.1768057346343994
14.416833877563477 8.187211036682129 2.173628091812134
14.510927200317383 8.12345027923584 2.1673288345336914
14.653615951538086 8.085797309875488 2.1560850143432617
15.04926586151123 8.184258460998535 2.119356393814087
15.833813667297363 8.48570442199707 2.043642282485962
27.85777473449707 14.71223258972168 0.8413994312286377
27.66703987121582 14.395323753356934 0.8659026622772217
27.720788955688477 14.208086967468262 0.8657667636871338
27.816852569580078 14.04272747039795 0.8612831830978394
32.30533218383789 15.32709789276123 0.43589624762535095
32.66636276245117 15.253833770751953 0.40530648827552795
33.02135467529297 15.173799514770508 0.3752583861351013
33.126102447509766 14.976716995239258 0.3698141276836395
33.117740631103516 14.729129791259766 0.3753669857978821
33.09117126464844 14.475020408630371 0.38254570960998535
33.12678146362305 14.24934196472168 0.3834555447101593
33.13701629638672 14.01368236541748 0.3867030739784241
33.156646728515625 13.783020973205566 0.38887709379196167
33.16824722290039 13.550006866455078 0.3916863203048706
33.205963134765625 13.328499794006348 0.3917939364910126
33.078224182128906 13.04236888885498 0.4078945815563202
33.11076354980469 12.821248054504395 0.40820300579071045
33.48624801635742 12.731184959411621 0.3749886751174927
33.64820098876953 12.557241439819336 0.3624615967273712
33.69145202636719 12.338629722595215 0.36134645342826843
33.705169677734375 12.109854698181152 0.3629571795463562
33.7126579284668 11.879718780517578 0.3650270104408264
33.71670913696289 11.649293899536133 0.3672853708267212
33.73241424560547 11.423736572265625 0.36827099323272705
33.747562408447266 11.198737144470215 0.36916908621788025
33.75459671020508 10.97182559967041 0.370711088180542
33.76296615600586 10.746153831481934 0.371983140707016
33.776493072509766 10.522862434387207 0.37261757254600525
33.780941009521484 10.297484397888184 0.3739902079105377
33.77530288696289 10.06988525390625 0.37619608640670776
33.79778289794922 9.851380348205566 0.3755534589290619
33.79970169067383 9.627520561218262 0.37675583362579346
33.81837844848633 9.409076690673828 0.37620818614959717
33.81066131591797 9.183977127075195 0.3780679404735565
33.83226013183594 8.967490196228027 0.376969575881958
33.833194732666016 8.746095657348633 0.3777267634868622
33.851036071777344 8.529647827148438 0.3767240047454834
33.86845779418945 8.313546180725098 0.37562882900238037
33.886444091796875 8.09801197052002 0.3743475079536438
33.86233139038086 7.873095512390137 0.3769834339618683
33.875587463378906 7.657561779022217 0.3758944869041443
33.891353607177734 7.443012714385986 0.37443313002586365
33.90090560913086 7.227518081665039 0.3734392821788788
33.912010192871094 7.012789249420166 0.3721660375595093
33.9285888671875 6.799563407897949 0.37023720145225525
33.93894577026367 6.585447788238525 0.3687773048877716
33.93327331542969 6.368701934814453 0.3687307834625244
33.94973373413086 6.15653657913208 0.3664260804653168
33.96290588378906 5.944063186645508 0.3643094003200531
33.97671127319336 5.731988906860352 0.362003892660141
33.9793701171875 5.518369674682617 0.360643595457077
33.98855972290039 5.306159496307373 0.35852688550949097
33.99051284790039 5.0931572914123535 0.3569810390472412
34.00394058227539 4.882168292999268 0.35420045256614685
34.020992279052734 4.671880722045898 0.3509438633918762
34.021942138671875 4.459624290466309 0.34911325573921204
34.02057647705078 4.247405529022217 0.34738045930862427
34.03765869140625 4.037714958190918 0.34373849630355835
32.58353805541992 3.662649393081665 0.48228004574775696
32.7584114074707 3.4790267944335938 0.46320605278015137
32.38849639892578 3.2389814853668213 0.4967598021030426
32.81366729736328 3.0784037113189697 0.45317044854164124
32.81367492675781 2.875511884689331 0.45064398646354675
32.57929992675781 2.65372896194458 0.47075504064559937
32.90422439575195 2.477180242538452 0.436430960893631
32.68107223510742 2.2588913440704346 0.45524051785469055
32.88065719604492 2.0701630115509033 0.4328116178512573
15.739174842834473 0.8929834961891174 2.10022234916687
15.780939102172852 0.7982926964759827 2.094588041305542
15.786337852478027 0.7015265822410583 2.092437744140625
15.783186912536621 0.6044173240661621 2.091064214706421
15.797342300415039 0.5079500079154968 2.0879387855529785
15.815885543823242 0.41146066784858704 2.0843217372894287
15.826869010925293 0.3146224021911621 2.0813827514648438
15.800440788269043 0.21715280413627625 2.082056999206543
32.74800491333008 0.25140172243118286 0.4132370948791504
32.761451721191406 0.0505521222949028 0.4076918959617615
32.79655456542969 -0.15055908262729645 0.3998856842517853
12.500458717346191 -0.13534709811210632 2.399667501449585
12.499237060546875 -0.2120184749364853 2.3980355262756348
12.54927921295166 -0.2898673415184021 2.391279697418213
12.842533111572266 -0.37542369961738586 2.3603391647338867
12.840821266174316 -0.45422372221946716 2.3585619926452637
12.86050033569336 -0.5339223742485046 2.3546080589294434
32.8622932434082 -1.5630899667739868 0.35940486192703247
13.091133117675781 -0.7044371962547302 2.327441453933716
12.842052459716797 -0.7701073288917542 2.3501577377319336
12.828980445861816 -0.8483378887176514 2.3492720127105713
12.558387756347656 -0.9078977108001709 2.374176263809204
12.802401542663574 -1.004482626914978 2.347407102584839
12.225738525390625 -1.0348312854766846 2.403129816055298
13.572613716125488 -1.2325125932693481 2.2649850845336914
12.034539222717285 -1.1675591468811035 2.417840003967285
33.156639099121094 -3.418569803237915 0.27672338485717773
33.182090759277344 -3.627063274383545 0.26755455136299133
33.15877914428711 -3.830522298812866 0.2631978392601013
33.39199447631836 -4.065200328826904 0.23258426785469055
33.06993103027344 -4.23206901550293 0.25841769576072693
33.863319396972656 -4.544887542724609 0.1701502650976181
33.92302703857422 -4.764956474304199 0.15660761296749115
33.92913055419922 -4.978280544281006 0.14840343594551086
33.8935661315918 -5.185693740844727 0.14434419572353363
33.77617263793945 -5.380034446716309 0.14860153198242188
33.77251052856445 -5.592139720916748 0.14100728929042816
33.83418273925781 -5.815861225128174 0.12649598717689514
29.23739242553711 -5.2108869552612305 0.5958895087242126
33.76231384277344 -6.2310075759887695 0.11727620661258698
33.723976135253906 -6.438161373138428 0.11272195726633072
33.751712799072266 -6.6583638191223145 0.10112116485834122
29.440298080444336 -12.99705696105957 0.18094190955162048
20.515871047973633 -13.486886978149414 0.9203203916549683
20.423301696777344 -13.606402397155762 0.9187506437301636
19.406240463256836 -13.45165729522705 1.0133984088897705
19.47431182861328 -13.67666244506836 0.9902250170707703
19.68854331970215 -14.008434295654297 0.9467931389808655
19.942955017089844 -14.374723434448242 0.8973152041435242
19.524669647216797 -14.440991401672363 0.9251618385314941
19.43775177001953 -14.56225872039795 0.9221717715263367
19.382539749145508 -14.707633972167969 0.9146372079849243
19.276138305664062 -15.194628715515137 0.8826848864555359
19.27696990966797 -15.388198852539062 0.866449773311615
19.311695098876953 -15.611084938049316 0.845066249370575
19.300565719604492 -15.799099922180176 0.8300269246101379
27.589393615722656 -22.867586135864258 -0.3983345031738281
27.420669555664062 -23.013376235961914 -0.39807888865470886
27.213335037231445 -23.125783920288086 -0.39219674468040466
27.053865432739258 -23.277996063232422 -0.39345595240592957
26.896549224853516 -23.431739807128906 -0.3951430320739746
26.788297653198242 -23.62846565246582 -0.4043352007865906
20.545551300048828 -18.57645034790039 0.4968220293521881
20.29813575744629 -18.5806884765625 0.5143898129463196
20.049264907836914 -18.580564498901367 0.5323461294174194
19.86131477355957 -18.634523391723633 0.5409867167472839
19.677064895629883 -18.690298080444336 0.5490967035293579
19.476409912109375 -18.728681564331055 0.5598400831222534
15.512123107910156 14.462071418762207 1.7171194553375244
12.972298622131348 11.800569534301758 2.0457844734191895
12.99979305267334 11.6808443069458 2.0495998859405518
13.036739349365234 11.570483207702637 2.0521507263183594
13.075818061828613 11.462732315063477 2.054338216781616
13.111808776855469 11.352982521057129 2.056795597076416
13.151487350463867 11.24710464477539 2.0587074756622314
13.194167137145996 11.144381523132324 2.0601630210876465
13.223081588745117 11.030712127685547 2.0631604194641113
13.268011093139648 10.931037902832031 2.0641567707061768
13.297537803649902 10.819284439086914 2.0668792724609375
13.3355131149292 10.715067863464355 2.0685079097747803
13.372710227966309 10.61078929901123 2.070134162902832
13.407564163208008 10.505230903625488 2.0719411373138428
13.444777488708496 10.402079582214355 2.073380708694458
13.478066444396973 10.296448707580566 2.0751841068267822
13.51931381225586 10.197396278381348 2.0759780406951904
13.554261207580566 10.094062805175781 2.0774106979370117
13.585244178771973 9.988324165344238 2.0792088508605957
13.62430477142334 9.889017105102539 2.0799944400787354
13.665088653564453 9.791346549987793 2.080500841140747
13.701122283935547 9.690673828125 2.0814645290374756
13.737253189086914 9.590495109558105 2.0823333263397217
13.770212173461914 9.488542556762695 2.0834765434265137
13.81067180633545 9.392146110534668 2.083693504333496
13.847162246704102 9.293388366699219 2.0842766761779785
13.877979278564453 9.191238403320312 2.0854129791259766
13.912233352661133 9.091782569885254 2.0860836505889893
13.949137687683105 8.994409561157227 2.08638072013855
13.987053871154785 8.897994041442871 2.0864884853363037
14.024311065673828 8.801450729370117 2.086592674255371
14.062604904174805 8.705833435058594 2.0865070819854736
14.099403381347656 8.60955810546875 2.0865108966827393
14.142374992370605 8.517265319824219 2.085764169692993
14.181320190429688 8.422735214233398 2.085386276245117
14.221357345581055 8.32905387878418 2.0848171710968018
14.26077938079834 8.235196113586426 2.084243059158325
14.302179336547852 8.142646789550781 2.083383560180664
14.350796699523926 8.054282188415527 2.0816736221313477
14.57222843170166 8.061525344848633 2.061243772506714
14.927140235900879 8.138786315917969 2.0264534950256348
15.80884075164795 8.49422550201416 1.9351203441619873
27.535133361816406 14.577705383300781 0.6809853911399841
27.580411911010742 14.385980606079102 0.6821331977844238
27.624374389648438 14.194250106811523 0.6832790374755859
27.67057991027832 14.004317283630371 0.6840447783470154
27.703022003173828 13.808133125305176 0.6861355900764465
27.79308319091797 13.641023635864258 0.6819616556167603
27.91977882385254 13.491517066955566 0.6737823486328125
28.14816665649414 13.389713287353516 0.654732882976532
28.44846534729004 13.319376945495605 0.6280124187469482
32.526275634765625 14.98615837097168 0.20272190868854523
33.08769226074219 14.999675750732422 0.14902988076210022
33.12409210205078 14.77212142944336 0.15056413412094116
33.07780838012695 14.509098052978516 0.16061823070049286
33.115474700927734 14.284255027770996 0.16168440878391266
33.1168098449707 14.044727325439453 0.16639713943004608
33.14860534667969 13.819122314453125 0.1677558869123459
33.185333251953125 13.596297264099121 0.1684417724609375
33.2076530456543 13.368334770202637 0.17047663033008575
33.07477569580078 13.07984733581543 0.18851982057094574
33.1057014465332 12.85799503326416 0.18932487070560455
33.459720611572266 12.760024070739746 0.15639463067054749
33.612422943115234 12.582818031311035 0.144287109375
33.641815185546875 12.359253883361816 0.1448427438735962
33.67066955566406 12.136139869689941 0.14530150592327118
33.65019989013672 11.896215438842773 0.15071521699428558
33.673194885253906 11.67264461517334 0.15147311985492706
33.68529510498047 11.446033477783203 0.15320642292499542
33.69682312011719 11.220026969909668 0.15484631061553955
33.69928741455078 10.991838455200195 0.15727080404758453
33.71159362792969 10.767672538757324 0.15852929651737213
33.719573974609375 10.542877197265625 0.16008517146110535
33.72511672973633 10.318095207214355 0.1617429405450821
33.73488998413086 10.095353126525879 0.16281786561012268
33.746070861816406 9.873714447021484 0.1636011004447937
33.760589599609375 9.653682708740234 0.16389653086662292
33.76313781738281 9.430899620056152 0.16527654230594635
33.76710510253906 9.20923137664795 0.1663661152124405
33.79078674316406 8.993496894836426 0.1652887761592865
33.78611755371094 8.770814895629883 0.1669785976409912
33.80121612548828 8.553897857666016 0.16649697721004486
33.822654724121094 8.339028358459473 0.165224090218544
33.82047653198242 8.118873596191406 0.16623219847679138
33.8294677734375 7.901998996734619 0.16595511138439178
33.839019775390625 7.685757160186768 0.16548067331314087
33.8491325378418 7.470122814178467 0.16480863094329834
33.86176681518555 7.255485534667969 0.16374021768569946
33.85355758666992 7.036921501159668 0.16466891765594482
33.875160217285156 6.825016498565674 0.16240531206130981
33.87004470825195 6.608155727386475 0.16274170577526093
33.88407897949219 6.395486831665039 0.16097895801067352
33.89971160888672 6.183427810668945 0.1589152067899704
33.90617752075195 5.970034599304199 0.15765361487865448
33.90248107910156 5.755293846130371 0.1572996973991394
33.927860260009766 5.545795440673828 0.1538269966840744
33.948020935058594 5.3355817794799805 0.15075363218784332
33.95112991333008 5.122951984405518 0.14929352700710297
33.95783996582031 4.911194324493408 0.14732924103736877
33.962242126464844 4.699408054351807 0.14546765387058258
33.9771614074707 4.48931360244751 0.14238961040973663
33.99077606201172 4.279210090637207 0.1393103450536728
33.98926544189453 4.067451477050781 0.13765190541744232
32.48890686035156 3.6859865188598633 0.29013723134994507
32.415523529052734 3.476459503173828 0.2957063913345337
32.352664947509766 3.2691690921783447 0.3000718355178833
32.36079406738281 3.0696349143981934 0.29699915647506714
32.3577766418457 2.8692431449890137 0.2949477434158325
32.35748291015625 2.669327974319458 0.2924889326095581
32.34703063964844 2.468841075897217 0.29095277190208435
32.386932373046875 2.2721993923187256 0.2840820848941803
32.428619384765625 2.0753490924835205 0.2768945097923279
15.7514066696167 0.9112846255302429 2.0020360946655273
15.777352333068848 0.8157320618629456 1.9978243112564087
15.78284740447998 0.718989372253418 1.9956687688827515
15.783769607543945 0.622052013874054 1.9939252138137817
15.800995826721191 0.5256910920143127 1.9904227256774902
15.817633628845215 0.4291408658027649 1.9869153499603271
15.830697059631348 0.33234262466430664 1.9837146997451782
15.827254295349121 0.23516282439231873 1.9821709394454956
32.50175857543945 0.28313905000686646 0.23761500418186188
32.6904182434082 0.08426247537136078 0.21370849013328552
32.593406677246094 -0.11590558290481567 0.2195511907339096
32.5657844543457 -0.315568208694458 0.21801024675369263
32.405677795410156 -0.5128201842308044 0.2302626073360443
32.422367095947266 -0.7120334506034851 0.22383439540863037
32.42490005493164 -0.9111100435256958 0.21876150369644165
32.413291931152344 -1.1098045110702515 0.21504850685596466
12.897812843322754 -0.5206138491630554 2.271679401397705
32.51655197143555 -1.5129261016845703 0.19385574758052826
13.053964614868164 -0.6874248385429382 2.2509422302246094
12.858726501464844 -0.7562645077705383 2.2694637775421143
12.850695610046387 -0.8349274396896362 2.268096923828125
12.849124908447266 -0.9140154123306274 2.265991449356079
12.8738374710083 -0.9951866865158081 2.2610297203063965
13.231978416442871 -1.1045829057693481 2.220376968383789
11.994711875915527 -1.0754005908966064 2.3503124713897705
12.848318099975586 -1.8714104890823364 2.234563112258911
12.815776824951172 -1.9470453262329102 2.235126256942749
29.26224136352539 -5.18386173248291 0.41104212403297424
19.580875396728516 -6.949278354644775 1.3080490827560425
19.477773666381836 -7.047606468200684 1.312570333480835
19.39844512939453 -7.153873920440674 1.3142129182815552
19.334362030029297 -7.265378475189209 1.3139721155166626
19.279850006103516 -7.380276203155518 1.3125115633010864
19.247804641723633 -7.5038042068481445 1.3082619905471802
19.224199295043945 -7.630886077880859 1.3028931617736816
19.209896087646484 -7.762056350708008 1.2962901592254639
19.139562606811523 -7.870663642883301 1.2964190244674683
33.71041488647461 -17.3837947845459 -0.7159705758094788
20.579565048217773 -13.1393404006958 0.7904148101806641
20.333101272583008 -13.15846061706543 0.8105592727661133
20.040678024291992 -13.144551277160645 0.8372494578361511
19.82861328125 -13.180343627929688 0.852867841720581
19.59463119506836 -13.199051856994629 0.8716670274734497
19.464540481567383 -13.2859468460083 0.8758687973022461
19.37496566772461 -13.399992942810059 0.8742756247520447
19.35223388671875 -13.560752868652344 0.8630264401435852
19.32096290588379 -13.71656322479248 0.8528201580047607
19.313501358032227 -13.890477180480957 0.8389917612075806
19.295795440673828 -14.058382987976074 0.8264375925064087
19.295129776000977 -14.240158081054688 0.8111861944198608
19.281816482543945 -14.414130210876465 0.7975597977638245
19.28846549987793 -14.604660034179688 0.7807613611221313
19.2824649810791 -14.787353515625 0.7655888795852661
19.267881393432617 -14.965039253234863 0.751460075378418
19.298669815063477 -15.179941177368164 0.7302741408348083
19.284038543701172 -15.36113166809082 0.7156496047973633
19.2918643951416 -15.562043190002441 0.6973664164543152
19.297945022583008 -15.763626098632812 0.6790671944618225
19.30609130859375 -15.969034194946289 0.6601621508598328
19.314722061157227 -16.177047729492188 0.6408857703208923
19.3480224609375 -16.408245086669922 0.6174593567848206
19.395023345947266 -16.654043197631836 0.5915262699127197
20.81199073791504 -18.548059463500977 0.30736905336380005
20.5462646484375 -18.538991928100586 0.32882609963417053
20.359148025512695 -18.59835433959961 0.3377559185028076
20.043790817260742 -18.53746795654297 0.36762890219688416
19.829254150390625 -18.56639862060547 0.3812812566757202
19.649715423583984 -18.62618637084961 0.38926321268081665
19.452281951904297 -18.66728973388672 0.40025410056114197
15.498947143554688 14.450175285339355 1.58078134059906
12.910329818725586 11.889690399169922 1.9318431615829468
12.968080520629883 11.796886444091797 1.9321821928024292
13.022220611572266 11.701160430908203 1.9329015016555786
14.372398376464844 12.756135940551758 1.7649562358856201
14.43891429901123 12.657901763916016 1.764631748199463
14.544645309448242 12.593862533569336 1.7591584920883179
13.116188049316406 11.217120170593262 1.9505800008773804
13.170853614807129 11.124900817871094 1.9507039785385132
13.218766212463379 11.027331352233887 1.9515994787216187
13.266746520996094 10.93022632598877 1.9523934125900269
13.300910949707031 10.82226848602295 1.9548399448394775
13.33425235748291 10.714301109313965 1.9572848081588745
13.37144947052002 10.610044479370117 1.9591429233551025
13.398469924926758 10.498368263244629 1.9621719121932983
13.439580917358398 10.398331642150879 1.9633418321609497
13.48076057434082 10.298787117004395 1.9644105434417725
