# .PCD v0.7 - Point Cloud Data file format
VERSION 0.7
FIELDS x y z
SIZE 4 4 4
TYPE F F F
COUNT 1 1 1
WIDTH 853
HEIGHT 1
VIEWPOINT 0 0 0 1 0 0 0
POINTS 853
DATA ascii
32.67551040649414 18.52894401550293 2.1545627117156982
32.72906494140625 18.29500389099121 2.153123378753662
32.8124885559082 18.07846450805664 2.1502585411071777
32.94717025756836 17.890199661254883 2.1450042724609375
32.99795913696289 17.656644821166992 2.1434671878814697
33.017967224121094 17.407760620117188 2.1432459354400635
33.04502487182617 17.16390037536621 2.142630100250244
33.05255126953125 16.91126251220703 2.142821788787842
33.0724983215332 16.66637420654297 2.1423795223236084
33.07905578613281 16.416101455688477 2.1424667835235596
33.09186935424805 16.170326232910156 2.142200231552124
33.09571838378906 15.921544075012207 2.1422648429870605
33.09685516357422 15.672898292541504 2.1423799991607666
33.11068344116211 15.431591033935547 2.1418533325195312
33.12552261352539 15.191953659057617 2.141209602355957
33.125919342041016 14.946962356567383 2.141146659851074
33.1410026550293 14.709834098815918 2.140352964401245
33.16358184814453 14.477081298828125 2.139153480529785
33.15884780883789 14.233570098876953 2.1391148567199707
33.18827819824219 14.005814552307129 2.137470245361328
33.18478775024414 13.765213966369629 2.1372408866882324
33.20087814331055 13.533858299255371 2.1360621452331543
33.213523864746094 13.302082061767578 2.1349716186523438
33.09813690185547 13.020909309387207 2.1395928859710693
33.1278076171875 12.79854965209961 2.137603998184204
41.93229293823242 15.905794143676758 1.7391796112060547
33.686431884765625 12.541791915893555 2.1108627319335938
33.720314025878906 12.319489479064941 2.1084725856781006
33.73768997192383 12.09184741973877 2.1067633628845215
33.738460540771484 11.859152793884277 2.105739116668701
33.74709701538086 11.63016128540039 2.104294538497925
33.74568176269531 11.398630142211914 2.1032419204711914
33.747432708740234 11.169124603271484 2.1019821166992188
33.767601013183594 10.946496963500977 2.099822759628296
33.79869079589844 10.727971076965332 2.0971014499664307
33.80070114135742 10.500877380371094 2.0956385135650635
33.810760498046875 10.277069091796875 2.093745708465576
33.80881118774414 10.050398826599121 2.092336654663086
33.825504302978516 9.829996109008789 2.0900156497955322
33.8292350769043 9.606489181518555 2.0882232189178467
33.844974517822266 9.387045860290527 2.0858194828033447
33.85254669189453 9.165940284729004 2.083726644515991
33.846126556396484 8.941778182983398 2.0822126865386963
33.864349365234375 8.724769592285156 2.079507350921631
33.88603210449219 8.509090423583984 2.076580047607422
33.89469909667969 8.29062271118164 2.074187755584717
33.91361999511719 8.075146675109863 2.071260929107666
33.89614486694336 7.851630687713623 2.0699503421783447
33.91910934448242 7.638071537017822 2.0667126178741455
33.926090240478516 7.421323299407959 2.064150810241699
33.940486907958984 7.206643104553223 2.0611844062805176
33.95058822631836 6.99146032333374 2.058354616165161
33.953453063964844 6.775250434875488 2.0557985305786133
33.966712951660156 6.56154203414917 2.0526983737945557
33.96782684326172 6.3459062576293945 2.0501015186309814
33.9783935546875 6.1324543952941895 2.047003984451294
33.995487213134766 5.920483112335205 2.0435373783111572
34.005348205566406 5.707539081573486 2.04034686088562
34.01388168334961 5.494695663452148 2.0371570587158203
34.01318359375 5.280735015869141 2.0343384742736816
34.016082763671875 5.067724704742432 2.0312907695770264
34.0305061340332 4.8567118644714355 2.0276377201080322
34.04460906982422 4.645847320556641 2.0239369869232178
34.06136703491211 4.435506820678711 2.0200469493865967
34.07186508178711 4.224520206451416 2.0163893699645996
34.07908248901367 4.013336181640625 2.0128250122070312
33.539981842041016 3.741393566131592 2.035228729248047
33.50249481201172 3.5293028354644775 2.033726215362549
33.58592987060547 3.329941511154175 2.0263867378234863
33.634368896484375 3.12654185295105 2.020646810531616
33.651710510253906 2.9200801849365234 2.0163302421569824
33.66181564331055 2.713040351867676 2.0122973918914795
33.6646728515625 2.505539655685425 2.008551597595215
33.67919921875 2.298990249633789 2.004179000854492
11.96088981628418 0.74146568775177 3.0533998012542725
33.647613525390625 1.8824598789215088 1.9981846809387207
12.165468215942383 0.6044721603393555 3.0407164096832275
12.287620544433594 0.5350266695022583 3.0333359241485596
12.19577693939209 0.4560811519622803 3.0363779067993164
12.779287338256836 0.39951997995376587 3.0062830448150635
33.71342849731445 0.8503860235214233 1.975050687789917
33.72279739379883 0.6436644196510315 1.9704123735427856
33.733890533447266 0.4368976652622223 1.9656225442886353
33.75170135498047 0.23007279634475708 1.9604322910308838
33.75625991821289 0.023035598918795586 1.9558321237564087
33.78152084350586 -0.18416853249073029 1.9501348733901978
12.811081886291504 -0.14971019327640533 2.993269920349121
12.729955673217773 -0.22688090801239014 2.9955992698669434
33.782745361328125 -0.8060194253921509 1.9363524913787842
33.797908782958984 -1.0138579607009888 1.9308829307556152
11.789188385009766 -0.4273856282234192 3.0377981662750244
12.235297203063965 -0.5186521410942078 3.013511896133423
12.967002868652344 -0.6292552351951599 2.9745638370513916
12.685587882995605 -0.6936697959899902 2.9869911670684814
12.843504905700684 -0.7813301682472229 2.9770283699035645
11.770171165466309 -0.788705587387085 3.03009033203125
11.795914649963379 -0.8631439805030823 3.0269615650177
33.875972747802734 -2.683973789215088 1.8867590427398682
12.639043807983398 -1.0807390213012695 2.979667901992798
12.264126777648926 -1.1245683431625366 2.997098445892334
33.89173889160156 -3.3138694763183594 1.8697166442871094
12.76279067993164 -1.3283028602600098 2.9670753479003906
33.91558074951172 -3.7368319034576416 1.8572890758514404
13.340539932250977 -1.5540133714675903 2.9324591159820557
13.372299194335938 -1.640918254852295 2.9285125732421875
33.956268310546875 -4.375207901000977 1.8378058671951294
12.339574813842773 -1.6682744026184082 2.9786550998687744
13.729162216186523 -1.9417473077774048 2.9025065898895264
33.98786163330078 -5.016791820526123 1.8180906772613525
33.9858283996582 -5.229735851287842 1.8120312690734863
33.982452392578125 -5.442844390869141 1.8059666156768799
33.99842834472656 -5.659551620483398 1.7987803220748901
33.991371154785156 -5.872921943664551 1.7927565574645996
34.01344680786133 -6.091874599456787 1.7850723266601562
34.008583068847656 -6.306589126586914 1.7787680625915527
34.03178024291992 -6.5271148681640625 1.7708483934402466
33.99772262573242 -6.737102031707764 1.7659815549850464
33.900726318359375 -6.934316158294678 1.764514684677124
33.883689880371094 -7.147697448730469 1.7585793733596802
33.885807037353516 -7.365584373474121 1.751503586769104
33.93621063232422 -7.59488582611084 1.7416493892669678
33.92863464355469 -7.812092304229736 1.7349315881729126
33.92063903808594 -8.029723167419434 1.7281538248062134
33.98304748535156 -8.265007972717285 1.7173210382461548
34.02640151977539 -8.497007369995117 1.707451343536377
34.03529357910156 -8.72142505645752 1.699430227279663
34.07457733154297 -8.954645156860352 1.6895794868469238
34.09202575683594 -9.18322467803955 1.6808687448501587
34.083892822265625 -9.405714988708496 1.6735295057296753
34.09063720703125 -9.633068084716797 1.665238380432129
34.108341217041016 -9.86446475982666 1.6562139987945557
34.092891693115234 -10.0870943069458 1.6490143537521362
34.10083770751953 -10.317422866821289 1.640356421470642
34.11867904663086 -10.551769256591797 1.6310144662857056
34.133975982666016 -10.786421775817871 1.6217139959335327
34.12866973876953 -11.01552677154541 1.6135234832763672
34.122779846191406 -11.245285987854004 1.6052674055099487
34.12954330444336 -11.480161666870117 1.5961542129516602
34.14509201049805 -11.719110488891602 1.5864057540893555
34.14768981933594 -11.95472240447998 1.577323079109192
34.10259246826172 -12.17436408996582 1.571014165878296
34.121761322021484 -12.41779899597168 1.5607166290283203
34.26559066772461 -12.708789825439453 1.5426918268203735
34.29318618774414 -12.958959579467773 1.5315994024276733
34.2938346862793 -13.200265884399414 1.5220365524291992
34.31418991088867 -13.450448989868164 1.5111385583877563
34.312355041503906 -13.6932373046875 1.5014897584915161
34.333805084228516 -13.946651458740234 1.490269660949707
34.34881591796875 -14.198938369750977 1.4793193340301514
34.339935302734375 -14.442646980285645 1.4697439670562744
34.34678649902344 -14.69424057006836 1.459052324295044
29.629140853881836 -12.891919136047363 1.7487279176712036
29.5483455657959 -13.073017120361328 1.7448225021362305
34.401126861572266 -15.472800254821777 1.4240217208862305
34.40696716308594 -15.730005264282227 1.4128527641296387
34.42543029785156 -15.994595527648926 1.400728702545166
34.432899475097656 -16.255741119384766 1.3891730308532715
34.42224884033203 -16.509809494018555 1.378661870956421
34.45914077758789 -16.788408279418945 1.3648881912231445
34.45810317993164 -17.05036735534668 1.3534562587738037
34.441768646240234 -17.30622673034668 1.342899203300476
34.371116638183594 -17.535762786865234 1.3358367681503296
34.34503936767578 -17.788955688476562 1.3256808519363403
34.378108978271484 -18.07453727722168 1.3113970756530762
34.3305778503418 -18.319374084472656 1.302408218383789
34.39895248413086 -18.627994537353516 1.2853879928588867
30.808837890625 -16.929445266723633 1.5191997289657593
30.79480743408203 -17.168651580810547 1.5087956190109253
34.549888610839844 -19.540828704833984 1.2368254661560059
34.51824188232422 -19.803544998168945 1.225949764251709
34.519168853759766 -20.086687088012695 1.2126439809799194
34.49212646484375 -20.355369567871094 1.2011380195617676
34.54188537597656 -20.6716251373291 1.184032917022705
34.57709884643555 -20.982006072998047 1.1677470207214355
34.538387298583984 -21.249664306640625 1.156552791595459
34.52986526489258 -21.537710189819336 1.1430286169052124
34.512351989746094 -21.822181701660156 1.1299761533737183
34.52121353149414 -22.12555694580078 1.1148234605789185
34.628089904785156 -22.495105743408203 1.0922777652740479
34.569976806640625 -22.760324478149414 1.0816192626953125
34.51406478881836 -23.028444290161133 1.0706480741500854
34.65708541870117 -23.432571411132812 1.0446622371673584
34.698448181152344 -23.772193908691406 1.0259802341461182
34.74266815185547 -24.117183685302734 1.0068291425704956
34.72517395019531 -24.422271728515625 0.9921157956123352
34.79220962524414 -24.790014266967773 0.97072833776474
34.78238296508789 -25.106346130371094 0.9549707174301147
34.80622863769531 -25.44999122619629 0.9363823533058167
34.79828643798828 -25.773488998413086 0.920016348361969
34.82279968261719 -26.124197006225586 0.9008715152740479
34.83636474609375 -26.47013282775879 0.8823239803314209
34.85251998901367 -26.82147789001465 0.8633074164390564
34.86251449584961 -27.171558380126953 0.8445142507553101
34.85463333129883 -27.511022567749023 0.8268900513648987
34.870391845703125 -27.872589111328125 0.8070960640907288
34.779842376708984 -28.15188217163086 0.7956891655921936
34.77516555786133 -28.503223419189453 0.7770528197288513
34.9149284362793 -28.977935791015625 0.7461994290351868
34.865257263183594 -29.300052642822266 0.7306736707687378
34.889705657958984 -29.68796730041504 0.7086995840072632
34.92581558227539 -30.090307235717773 0.6854156851768494
34.895118713378906 -30.439098358154297 0.6674621105194092
34.8681755065918 -30.794591903686523 0.6489129066467285
34.95869445800781 -31.258649826049805 0.6199540495872498
34.995243072509766 -31.680099487304688 0.5952447652816772
34.96465301513672 -32.04518508911133 0.5760278701782227
34.983558654785156 -32.4599494934082 0.5521513819694519
34.984134674072266 -32.862483978271484 0.5295295119285583
34.954315185546875 -33.24079895019531 0.509268045425415
32.392234802246094 30.905420303344727 1.7685415744781494
32.41373825073242 30.548534393310547 1.7741435766220093
32.33994674682617 30.10677719116211 1.785027027130127
32.457603454589844 29.84697151184082 1.784806728363037
32.50968551635742 29.529085159301758 1.7881877422332764
32.47654342651367 29.13762664794922 1.7962450981140137
32.407684326171875 28.719196319580078 1.806142807006836
32.54843521118164 28.48959732055664 1.8040765523910522
32.57799530029297 28.164608001708984 1.808135747909546
32.58049011230469 27.819568634033203 1.8135639429092407
32.605953216552734 27.497465133666992 1.8175647258758545
32.6118049621582 27.162031173706055 1.8225144147872925
32.617862701416016 26.830101013183594 1.8273106813430786
32.6474494934082 26.520540237426758 1.8306676149368286
32.65576934814453 26.196622848510742 1.8350640535354614
32.638641357421875 25.855615615844727 1.8407244682312012
32.69489288330078 25.575519561767578 1.84222412109375
32.69518280029297 25.254175186157227 1.8466657400131226
32.707061767578125 24.944700241088867 1.850344181060791
32.72515869140625 24.642641067504883 1.8535594940185547
32.73838806152344 24.339515686035156 1.856917381286621
32.59046936035156 23.920703887939453 1.8688788414001465
32.534122467041016 23.57379913330078 1.8757354021072388
32.54625701904297 23.279632568359375 1.8787671327590942
32.653953552246094 23.055356979370117 1.8765418529510498
32.64127731323242 22.7478084564209 1.8806880712509155
32.6663932800293 22.46902847290039 1.8826900720596313
32.495079040527344 22.058940887451172 1.8950923681259155
32.588897705078125 21.831953048706055 1.8931922912597656
32.63115310668945 21.57159423828125 1.8939497470855713
32.70156478881836 21.3311824798584 1.8931074142456055
32.635005950927734 21.003677368164062 1.899446964263916
32.544586181640625 20.66440773010254 1.9069371223449707
32.48087692260742 20.345600128173828 1.912893533706665
32.68729019165039 20.196914672851562 1.904450535774231
32.74040603637695 19.953397750854492 1.9040350914001465
32.57685089111328 19.58081817626953 1.9149558544158936
32.5509033203125 19.294540405273438 1.9185062646865845
32.68050765991211 19.1015625 1.9137707948684692
32.7890625 18.896251678466797 1.9100617170333862
32.830318450927734 18.652820587158203 1.909804105758667
32.80793762207031 18.37493896484375 1.9127931594848633
32.87522506713867 18.148727416992188 1.91098952293396
32.98395919799805 17.945770263671875 1.906930923461914
33.01749801635742 17.7025146484375 1.906723141670227
33.03162384033203 17.450191497802734 1.907442569732666
33.035926818847656 17.194210052490234 1.9085867404937744
33.05256271362305 16.946123123168945 1.9089988470077515
33.05670166015625 16.693078994750977 1.909975528717041
33.06435012817383 16.443288803100586 1.910683274269104
33.08901596069336 16.20326042175293 1.9104183912277222
33.10299301147461 15.959210395812988 1.9106266498565674
33.116127014160156 15.716025352478027 1.9107952117919922
33.110328674316406 15.465249061584473 1.9118645191192627
33.13719177246094 15.230987548828125 1.9111536741256714
33.165164947509766 14.998212814331055 1.9103033542633057
33.106651306152344 14.727911949157715 1.9138648509979248
33.11654281616211 14.48972225189209 1.913791537284851
33.11833953857422 14.2492036819458 1.914059042930603
33.15338897705078 14.023994445800781 1.9125210046768188
33.190616607666016 13.800424575805664 1.910791039466858
33.192134857177734 13.562946319580078 1.9108365774154663
33.23093032836914 13.341598510742188 1.9088705778121948
33.093570709228516 13.051393508911133 1.9159687757492065
33.140193939208984 12.835524559020996 1.913442611694336
33.537384033203125 12.753413200378418 1.892643928527832
33.69242858886719 12.576441764831543 1.8843334913253784
33.74058532714844 12.359228134155273 1.8814942836761475
33.747867584228516 12.12770938873291 1.880700945854187
33.74699020385742 11.894240379333496 1.8802560567855835
33.764339447021484 11.668089866638184 1.8787896633148193
33.75559616088867 11.433842658996582 1.8786042928695679
33.76326370239258 11.2061185836792 1.877492070198059
33.783653259277344 10.983362197875977 1.8756431341171265
33.79973220825195 10.759868621826172 1.8739447593688965
33.78096389770508 10.526188850402832 1.8739877939224243
33.806461334228516 10.307126998901367 1.8716516494750977
33.80470275878906 10.080440521240234 1.8706637620925903
33.825408935546875 9.861150741577148 1.8684312105178833
33.83893585205078 9.640344619750977 1.8665006160736084
33.85487365722656 9.420812606811523 1.8643715381622314
33.86650466918945 9.200660705566406 1.862395167350769
33.87767791748047 8.980977058410645 1.8603707551956177
33.866153717041016 8.756001472473145 1.8594638109207153
33.882205963134766 8.538825035095215 1.8570414781570435
33.86582946777344 8.314162254333496 1.856247901916504
33.901397705078125 8.102788925170898 1.852658748626709
33.906463623046875 7.884504795074463 1.8505992889404297
33.91110610961914 7.666683197021484 1.848490834236145
33.931907653808594 7.45295524597168 1.8454614877700806
33.94844055175781 7.238635063171387 1.8425852060317993
33.95872497558594 7.023380756378174 1.839967131614685
33.959815979003906 6.806701183319092 1.8377649784088135
33.968353271484375 6.591984272003174 1.8350989818572998
33.96670150756836 6.375758647918701 1.8329031467437744
33.98234176635742 6.163186550140381 1.829719066619873
33.98780059814453 5.949111461639404 1.827005386352539
34.001766204833984 5.736861705780029 1.8237695693969727
34.015384674072266 5.524823188781738 1.8204807043075562
34.01979064941406 5.3115997314453125 1.8176116943359375
34.01792526245117 5.097789764404297 1.8150091171264648
34.03547668457031 4.887180805206299 1.8112975358963013
34.044795989990234 4.675596714019775 1.8079545497894287
34.056766510009766 4.464599132537842 1.8043994903564453
34.07238006591797 4.25424861907959 1.8005766868591309
34.07876205444336 4.042932033538818 1.797178864479065
33.540042877197266 3.770569324493408 1.8231322765350342
33.51762771606445 3.5600168704986572 1.8212007284164429
33.57735061645508 3.3582262992858887 1.8147555589675903
33.63288116455078 3.155555486679077 1.808458924293518
33.65634536743164 2.9496264457702637 1.8038243055343628
33.66660690307617 2.7425537109375 1.7998348474502563
33.68156814575195 2.5359151363372803 1.7955175638198853
33.6673698425293 2.327266216278076 1.7927218675613403
33.685760498046875 2.121019124984741 1.7880748510360718
33.665000915527344 1.9124810695648193 1.78550124168396
33.67287063598633 1.7057909965515137 1.781288743019104
13.189824104309082 0.5873202681541443 2.9064362049102783
12.394890785217285 0.4757881462574005 2.948808193206787
19.303342819213867 0.6222028136253357 2.564929723739624
12.762945175170898 0.3331667482852936 2.9254255294799805
12.493134498596191 0.2494586706161499 2.938858985900879
33.744354248046875 0.46608027815818787 1.7531317472457886
12.47311782836914 0.09600791335105896 2.936828851699829
12.551265716552734 0.019614653661847115 2.930842876434326
12.642915725708008 -0.057798538357019424 2.924051284790039
12.728096008300781 -0.13627156615257263 2.9175727367401123
12.742903709411621 -0.21461321413516998 2.9150102138519287
33.81106948852539 -0.7775736451148987 1.7225393056869507
33.814395904541016 -0.9852187633514404 1.7176129817962646
33.81146240234375 -1.1927595138549805 1.7129673957824707
12.47209358215332 -0.5163496732711792 2.923233985900879
12.620185852050781 -0.6000562906265259 2.9129490852355957
13.163494110107422 -0.7068642377853394 2.879969358444214
12.85286808013916 -0.7692751288414001 2.895805597305298
11.834694862365723 -0.781192421913147 2.952422857284546
12.26872444152832 -0.8854798078536987 2.925534725189209
12.654121398925781 -0.9913761019706726 2.9012956619262695
12.371163368225098 -1.0455958843231201 2.915682554244995
12.401213645935059 -1.1247990131378174 2.9119203090667725
12.730842590332031 -1.2334952354431152 2.890639305114746
33.91848373413086 -3.497191905975342 1.6487113237380981
13.319925308227539 -1.4557602405548096 2.851773500442505
33.93202209472656 -3.9199066162109375 1.6363060474395752
12.47539234161377 -1.5185502767562866 2.897005796432495
33.960079193115234 -4.346019268035889 1.6227039098739624
33.96615982055664 -4.5587639808654785 1.6162422895431519
33.9541015625 -4.769387245178223 1.6107752323150635
33.99506378173828 -4.988007068634033 1.6020594835281372
33.9941520690918 -5.201119899749756 1.5957523584365845
33.99880599975586 -5.415509223937988 1.5890247821807861
34.00505828857422 -5.630642414093018 1.5821123123168945
33.997161865234375 -5.843858242034912 1.5759657621383667
29.278676986694336 -5.217872142791748 1.8557462692260742
34.03624725341797 -6.2815022468566895 1.5600725412368774
34.053680419921875 -6.50101900100708 1.5521082878112793
34.02758026123047 -6.712679862976074 1.5467145442962646
33.96593475341797 -6.917294025421143 1.5434279441833496
33.91184616088867 -7.123253345489502 1.5396069288253784
33.917972564697266 -7.342116355895996 1.5319857597351074
33.96944808959961 -7.571746826171875 1.5214471817016602
34.00478744506836 -7.7989397048950195 1.5117974281311035
34.04637908935547 -8.028684616088867 1.501644253730774
34.06024169921875 -8.252887725830078 1.4931180477142334
34.050350189208984 -8.472020149230957 1.485984444618225
34.08546447753906 -8.703195571899414 1.4759068489074707
34.105506896972656 -8.9315824508667 1.4666706323623657
34.126914978027344 -9.161319732666016 1.4572350978851318
34.1246452331543 -9.385568618774414 1.449200987815857
34.10938262939453 -9.606888771057129 1.4419002532958984
34.11665725708008 -9.835287094116211 1.4330471754074097
34.1204948425293 -10.063572883605957 1.4243056774139404
34.11516571044922 -10.289971351623535 1.416050910949707
34.14649200439453 -10.528446197509766 1.4052988290786743
34.12857437133789 -10.752696990966797 1.3976448774337769
34.1728401184082 -10.997611999511719 1.3857992887496948
34.14521026611328 -11.220417976379395 1.378564715385437
34.12086868286133 -11.444887161254883 1.3710130453109741
34.19419479370117 -11.703414916992188 1.3568551540374756
34.16575241088867 -11.928401947021484 1.3493446111679077
34.15839385986328 -12.161516189575195 1.340314507484436
34.1475830078125 -12.394308090209961 1.3314012289047241
34.263423919677734 -12.674861907958984 1.3137983083724976
34.32200241088867 -12.936537742614746 1.2998976707458496
34.320892333984375 -13.177228927612305 1.2899136543273926
34.33391571044922 -13.424572944641113 1.2788338661193848
34.34796905517578 -13.67367935180664 1.2675464153289795
34.35562515258789 -13.921588897705078 1.2565622329711914
34.34584426879883 -14.163640022277832 1.2466521263122559
34.36842727661133 -14.420382499694824 1.2343553304672241
34.36437225341797 -14.667357444763184 1.2237751483917236
29.610454559326172 -12.853633880615234 1.5476512908935547
29.55634117126465 -13.046302795410156 1.5418813228607178
34.42365264892578 -15.447964668273926 1.1861369609832764
34.434146881103516 -15.707281112670898 1.1739407777786255
34.430076599121094 -15.961430549621582 1.162636399269104
34.45125961303711 -16.2288818359375 1.1493661403656006
34.44974899291992 -16.487281799316406 1.137574315071106
34.46070861816406 -16.753257751464844 1.1247221231460571
34.49117660522461 -17.030590057373047 1.11027991771698
34.48384475708008 -17.291034698486328 1.0984371900558472
34.41681671142578 -17.52260398864746 1.0908511877059937
34.35710144042969 -17.758583068847656 1.0826070308685303
34.417720794677734 -18.058467864990234 1.0652642250061035
34.41340637207031 -18.32646369934082 1.0525788068771362
34.45450210571289 -18.620702743530273 1.0363026857376099
34.41627883911133 -18.87391471862793 1.0258327722549438
30.82584571838379 -17.151817321777344 1.285757303237915
34.582889556884766 -19.521303176879883 0.9858446717262268
34.5738410949707 -19.797019958496094 0.9725878238677979
34.5411376953125 -20.060834884643555 0.9609839916229248
34.56666946411133 -20.360441207885742 0.9446877241134644
34.574398040771484 -20.65190315246582 0.929572343826294
34.568748474121094 -20.9375057220459 0.915308952331543
34.556636810302734 -21.221202850341797 0.9013630747795105
34.51438903808594 -21.488140106201172 0.8896228075027466
34.59840393066406 -21.8362979888916 0.8676216006278992
34.57353973388672 -22.118545532226562 0.8540900945663452
34.621009826660156 -22.44961929321289 0.8345221877098083
34.62568664550781 -22.75580406188965 0.8181741237640381
34.57392883300781 -23.026941299438477 0.8062175512313843
34.73018264770508 -23.440065383911133 0.7769778966903687
34.75171661376953 -23.766422271728516 0.7585058212280273
34.74430465698242 -24.075735092163086 0.7421905398368835
34.765419006347656 -24.407636642456055 0.7232572436332703
34.8211555480957 -24.767297744750977 0.7011457681655884
34.8082160949707 -25.08131980895996 0.6845508217811584
34.819313049316406 -25.41551971435547 0.6656696796417236
34.835636138916016 -25.756729125976562 0.6460742950439453
34.82112121582031 -26.078163146972656 0.6288623213768005
34.85244369506836 -26.437162399291992 0.6074196696281433
34.864051818847656 -26.784761428833008 0.5873963832855225
34.87269592285156 -27.133495330810547 0.5673446655273438
34.876792907714844 -27.482105255126953 0.547403872013092
34.90364456176758 -27.852317810058594 0.5251451730728149
34.80621337890625 -28.126073837280273 0.5137025713920593
34.78162384033203 -28.460966110229492 0.49550414085388184
34.89939498901367 -28.916906356811523 0.4641016125679016
34.87913131713867 -29.263151168823242 0.4448661506175995
34.90457534790039 -29.651565551757812 0.4211316704750061
34.93033981323242 -30.044641494750977 0.3970121145248413
34.91345977783203 -30.40507698059082 0.3765060603618622
34.89870071411133 -30.77105140686035 0.35548490285873413
34.92986297607422 -31.18183135986328 0.32979440689086914
34.74267578125 -31.400177001953125 0.32450586557388306
34.969913482666016 -31.997861862182617 0.27935898303985596
34.93717956542969 -32.364280700683594 0.2586483657360077
35.07150650024414 -32.891170501708984 0.22135242819786072
34.950374603271484 -33.18328094482422 0.208515927195549
32.36417770385742 30.880464553833008 1.4885677099227905
32.38917922973633 30.52721405029297 1.4953759908676147
32.327003479003906 30.096555709838867 1.5077283382415771
32.46443557739258 29.8551025390625 1.5067741870880127
32.499568939208984 29.521757125854492 1.5123685598373413
32.454524993896484 29.119731903076172 1.5230023860931396
32.4102668762207 28.723352432250977 1.5333757400512695
32.54951477050781 28.492431640625 1.5316948890686035
32.5473747253418 28.14002799987793 1.5389946699142456
32.591514587402344 27.83088493347168 1.543147087097168
32.58498764038086 27.48169708251953 1.5503827333450317
32.60227584838867 27.15601348876953 1.555925965309143
32.6291389465332 26.8413028717041 1.5606991052627563
32.6456298828125 26.52099609375 1.5659749507904053
32.6492919921875 26.193370819091797 1.5719043016433716
32.661136627197266 25.875385284423828 1.5771598815917969
32.677391052246094 25.56378173828125 1.5819854736328125
32.69659423828125 25.25722885131836 1.5864779949188232
32.71247863769531 24.950796127319336 1.591031789779663
32.72184753417969 24.642122268676758 1.5958473682403564
32.72627258300781 24.332481384277344 1.6008261442184448
32.73859405517578 24.031402587890625 1.6051719188690186
32.52848815917969 23.571683883666992 1.6231259107589722
32.5706787109375 23.299076080322266 1.6253223419189453
32.66542053222656 23.06543731689453 1.6241607666015625
32.579078674316406 22.70644760131836 1.6340042352676392
32.7076301574707 22.499387741088867 1.6305315494537354
32.72166061401367 22.214750289916992 1.633959174156189
32.695274353027344 21.90521812438965 1.6397252082824707
32.70465087890625 21.6221866607666 1.643181562423706
32.713462829589844 21.340953826904297 1.6465470790863037
32.773807525634766 21.09502410888672 1.646667718887329
32.7859992980957 20.81970977783203 1.6495925188064575
32.78843688964844 20.540271759033203 1.652988076210022
32.76234817504883 20.245309829711914 1.6579855680465698
32.68697738647461 19.92285919189453 1.6658260822296143
32.64998245239258 19.62679672241211 1.6712301969528198
32.80474090576172 19.447031021118164 1.665006399154663
32.85160827636719 19.203611373901367 1.6651618480682373
32.8673095703125 18.943387985229492 1.6670790910720825
32.87063980102539 18.677780151367188 1.66962730884552
32.80312728881836 18.37428855895996 1.676293969154358
32.87563705444336 18.1510066986084 1.674498200416565
32.9755859375 17.94327735900879 1.6709742546081543
33.00646209716797 17.698665618896484 1.6714638471603394
33.02851486206055 17.450618743896484 1.672378420829773
33.03194046020508 17.19420623779297 1.6742963790893555
33.04057693481445 16.942054748535156 1.6758040189743042
33.05271911621094 16.693145751953125 1.6770044565200806
33.061256408691406 16.44383430480957 1.6783186197280884
33.08323669433594 16.2025146484375 1.6787405014038086
33.09900665283203 15.95937442779541 1.6794332265853882
33.10763168334961 15.714083671569824 1.680451512336731
33.116302490234375 15.470131874084473 1.6813715696334839
33.120506286621094 15.22541332244873 1.6824601888656616
33.16481399536133 15.000153541564941 1.6810940504074097
33.11090087890625 14.73189640045166 1.6854159832000732
33.12173080444336 14.494088172912598 1.685834527015686
33.14006042480469 14.260650634765625 1.6857205629348755
33.15401840209961 14.026362419128418 1.6857739686965942
33.16635513305664 13.792442321777344 1.685832142829895
33.18076705932617 13.560407638549805 1.68567955493927
33.223236083984375 13.340621948242188 1.6837924718856812
33.08406066894531 13.04974365234375 1.6924747228622437
33.126930236816406 12.832493782043457 1.6903877258300781
33.53142547607422 12.753290176391602 1.6670070886611938
33.68922424316406 12.577402114868164 1.658011555671692
33.73080062866211 12.357807159423828 1.655746340751648
33.74089050292969 12.127366065979004 1.6552410125732422
33.74659729003906 11.896268844604492 1.6549066305160522
33.75923156738281 11.668493270874023 1.6540803909301758
33.749542236328125 11.433961868286133 1.6544779539108276
33.76857376098633 11.210054397583008 1.6531078815460205
33.77853775024414 10.983871459960938 1.6521848440170288
33.78889465332031 10.758593559265137 1.651153802871704
33.79108810424805 10.531521797180176 1.6505199670791626
33.805145263671875 10.308903694152832 1.649106740951538
33.8053092956543 10.082799911499023 1.6484260559082031
33.82984924316406 9.864625930786133 1.6462324857711792
33.83570098876953 9.641605377197266 1.6450542211532593
33.848751068115234 9.421292304992676 1.6433707475662231
33.85748291015625 9.200396537780762 1.6418606042861938
33.86284637451172 8.979233741760254 1.6404664516448975
33.86581039428711 8.758101463317871 1.6391336917877197
33.887664794921875 8.542393684387207 1.6366078853607178
33.912994384765625 8.327936172485352 1.6337947845458984
33.899105072021484 8.104435920715332 1.6332149505615234
33.909027099609375 7.887298107147217 1.6311511993408203
33.9068603515625 7.667920112609863 1.629722237586975
33.92472457885742 7.453578472137451 1.6270290613174438
33.94710159301758 7.240553855895996 1.6239888668060303
33.96324920654297 7.026522159576416 1.62123703956604
33.96141052246094 6.809227466583252 1.6194719076156616
33.96112060546875 6.5927886962890625 1.6175364255905151
33.963382720947266 6.377345561981201 1.6153711080551147
33.97803497314453 6.16461706161499 1.6123906373977661
33.992340087890625 5.95211935043335 1.609351396560669
33.9974365234375 5.738347053527832 1.6067806482315063
34.00907516479492 5.526016712188721 1.6037416458129883
34.018409729003906 5.313602924346924 1.6007609367370605
34.020484924316406 5.100393772125244 1.5981354713439941
34.036048889160156 4.889486789703369 1.5946234464645386
34.047340393066406 4.678171157836914 1.5912877321243286
34.05732345581055 4.46690034866333 1.587951421737671
34.06500244140625 4.255557537078857 1.5846738815307617
34.0733528137207 4.044522285461426 1.5812773704528809
33.53680419921875 3.7723910808563232 1.61066734790802
33.51041793823242 3.5614354610443115 1.609258770942688
33.572105407714844 3.359891653060913 1.6024504899978638
33.632568359375 3.1577234268188477 1.5956271886825562
33.65104293823242 2.951362371444702 1.5912625789642334
33.666263580322266 2.7447290420532227 1.5870155096054077
33.67723083496094 2.5377936363220215 1.5829473733901978
33.67497634887695 2.32999849319458 1.579605221748352
33.67542266845703 2.1225764751434326 1.5760209560394287
33.66163635253906 1.9144980907440186 1.5732297897338867
33.674476623535156 1.708083152770996 1.5687296390533447
13.048422813415527 0.5813819766044617 2.831979990005493
13.020724296569824 0.5001433491706848 2.8321847915649414
13.015467643737793 0.42000702023506165 2.830981969833374
33.7351188659668 0.8822045922279358 1.5493426322937012
33.7446174621582 0.6753572821617126 1.5446388721466064
12.820097923278809 0.17765279114246368 2.838336944580078
12.761962890625 0.09855431318283081 2.8403255939483643
33.755516052246094 0.054320577532052994 1.531130075454712
12.670193672180176 -0.05759890004992485 2.8427274227142334
12.666510581970215 -0.13528482615947723 2.841261148452759
33.80288314819336 -0.5677068829536438 1.5145994424819946
12.781437873840332 -0.293362021446228 2.830556869506836
33.81178665161133 -0.9828975200653076 1.5045758485794067
33.82878494262695 -1.191122055053711 1.4986467361450195
33.83552169799805 -1.3992228507995605 1.493277907371521
12.588560104370117 -0.5982295870780945 2.8353793621063232
13.004105567932129 -0.6979401707649231 2.80706787109375
12.858016967773438 -0.7692357301712036 2.814378261566162
12.876852989196777 -0.8496682643890381 2.8111684322357178
33.860923767089844 -2.4422948360443115 1.4656703472137451
12.517034530639648 -0.9803134799003601 2.830145835876465
33.9103889465332 -2.864475727081299 1.4514868259429932
33.90879821777344 -3.073958396911621 1.4459500312805176
12.773701667785645 -1.2373058795928955 2.8072996139526367
33.89377975463867 -3.4923667907714844 1.4353832006454468
13.376373291015625 -1.4615315198898315 2.7636942863464355
13.988608360290527 -1.6153086423873901 2.7214090824127197
33.93783187866211 -4.129427909851074 1.4145276546478271
33.95414352416992 -4.342966556549072 1.407278060913086
33.96019744873047 -4.55566930770874 1.400604009628296
33.976783752441406 -4.770274639129639 1.3931410312652588
33.977203369140625 -4.983084678649902 1.3866478204727173
33.99897003173828 -5.199550628662109 1.3786441087722778
33.9976806640625 -5.413021564483643 1.3720715045928955
33.988155364990234 -5.625532150268555 1.3659530878067017
34.00385284423828 -5.84269380569458 1.3580527305603027
29.273366928100586 -5.215046405792236 1.6686276197433472
34.03303909301758 -6.278587341308594 1.3420910835266113
34.04945373535156 -6.497886657714844 1.3338299989700317
34.02627944946289 -6.7100958824157715 1.3281444311141968
33.961692810058594 -6.914106845855713 1.3251824378967285
33.92810821533203 -7.124345779418945 1.320033073425293
33.92637634277344 -7.341609001159668 1.3126167058944702
33.9407844543457 -7.5630269050598145 1.303990125656128
34.008209228515625 -7.797384738922119 1.2916020154953003
34.04586410522461 -8.026216506958008 1.281133770942688
34.06162643432617 -8.250871658325195 1.2720589637756348
34.047828674316406 -8.469039916992188 1.264925241470337
34.09933853149414 -8.704376220703125 1.2531300783157349
34.10000991821289 -8.927779197692871 1.2447606325149536
34.13101577758789 -9.160051345825195 1.2341471910476685
34.12004852294922 -9.381932258605957 1.2263667583465576
34.119163513183594 -9.607268333435059 1.2177640199661255
34.135013580322266 -9.838197708129883 1.207857370376587
34.12729263305664 -10.063196182250977 1.1995067596435547
34.11714172363281 -10.288180351257324 1.1912165880203247
34.16748046875 -10.532524108886719 1.1784672737121582
34.17137145996094 -10.763785362243652 1.1689190864562988
34.15756607055664 -10.990297317504883 1.160528540611267
34.14320755004883 -11.217357635498047 1.152061104774475
34.157615661621094 -11.454806327819824 1.1413798332214355
34.19115447998047 -11.699960708618164 1.129162073135376
34.183406829833984 -11.932149887084961 1.1198323965072632
34.15904998779297 -12.159331321716309 1.1116046905517578
34.1397590637207 -12.38904857635498 1.1028848886489868
34.27424621582031 -12.676427841186523 1.082598090171814
34.30565643310547 -12.927932739257812 1.0697978734970093
34.30733108520508 -13.169574737548828 1.059073567390442
34.334266662597656 -13.422257423400879 1.0463063716888428
34.358463287353516 -13.675396919250488 1.0335885286331177
34.33830642700195 -13.912108421325684 1.0240840911865234
34.349735260009766 -14.1627779006958 1.0120373964309692
34.37317657470703 -14.41989803314209 0.9989171624183655
34.362632751464844 -14.66413688659668 0.9882488250732422
34.365020751953125 -14.915143966674805 0.9764369130134583
29.545433044433594 -13.039477348327637 1.3389610052108765
34.42721176147461 -15.447065353393555 0.9478712677955627
34.41313934326172 -15.695196151733398 0.936862051486969
34.43621826171875 -15.961772918701172 0.9227779507637024
34.435665130615234 -16.219024658203125 0.9103855490684509
34.45033645629883 -16.485050201416016 0.8966196179389954
34.449581146240234 -16.74532699584961 0.883908212184906
34.477325439453125 -17.021224975585938 0.868743360042572
34.46463394165039 -17.278871536254883 0.8566442131996155
34.399410247802734 -17.511213302612305 0.8486334085464478
34.35566711425781 -17.755311965942383 0.8387500047683716
34.42591857910156 -18.060230255126953 0.819403886795044
34.41535949707031 -18.324960708618164 0.8064579963684082
34.42302322387695 -18.60114288330078 0.7918314337730408
30.81678581237793 -16.897706985473633 1.0768392086029053
30.81854820251465 -17.145566940307617 1.063823938369751
34.57668685913086 -19.515216827392578 0.7358283996582031
34.590965270996094 -19.80423927307129 0.7197948098182678
34.559871673583984 -20.069128036499023 0.7073907852172852
34.590415954589844 -20.37183380126953 0.6895633935928345
34.60569381713867 -20.66799545288086 0.6728082895278931
34.6109504699707 -20.960460662841797 0.6566896438598633
34.568023681640625 -21.2255916595459 0.6445187926292419
34.567161560058594 -21.518388748168945 0.6285126805305481
34.59520721435547 -21.8316650390625 0.6097584962844849
34.564414978027344 -22.110090255737305 0.5959234833717346
34.60597229003906 -22.437240600585938 0.5754955410957336
34.615638732910156 -22.746562957763672 0.5576279759407043
34.60038375854492 -23.041927337646484 0.5417383909225464
34.68861389160156 -23.40935516357422 0.5163232684135437
34.75468444824219 -23.765785217285156 0.4925740361213684
34.757843017578125 -24.082447052001953 0.47422441840171814
34.76820373535156 -24.40691375732422 0.45495519042015076
34.82545471191406 -24.767667770385742 0.43110284209251404
34.78814697265625 -25.06416893005371 0.41566845774650574
34.80891799926758 -25.405231475830078 0.3946000337600708
34.816375732421875 -25.73978614807129 0.3744778037071228
34.820228576660156 -26.07478904724121 0.3544054627418518
34.84669494628906 -26.430084228515625 0.33189815282821655
34.84479522705078 -26.76724624633789 0.31177225708961487
34.86839294433594 -27.127422332763672 0.2889035940170288
34.85988998413086 -27.466053009033203 0.2688010036945343
34.870361328125 -27.823015213012695 0.24655486643314362
34.76295852661133 -28.088390350341797 0.2355014532804489
34.7554817199707 -28.43684196472168 0.21442949771881104
34.83792495727539 -28.863224029541016 0.1841340810060501
34.90115737915039 -29.278871536254883 0.15531180799007416
34.894466400146484 -29.640213012695312 0.13307733833789825
34.89069366455078 -30.007770538330078 0.11020670086145401
30.310020446777344 -28.775144577026367 0.39942359924316406
32.36015319824219 30.878124237060547 1.222754716873169
32.388797760009766 30.52836799621582 1.230628490447998
32.32448959350586 30.095731735229492 1.2451568841934204
32.44645690917969 29.84010887145996 1.245712161064148
32.49260711669922 29.516983032226562 1.2516752481460571
32.44683074951172 29.114389419555664 1.26416015625
32.40333557128906 28.718772888183594 1.2762398719787598
32.55080032348633 28.495136260986328 1.274246335029602
32.538124084472656 28.133623123168945 1.2836899757385254
32.60349655151367 27.84272575378418 1.2873092889785767
32.56806945800781 27.469036102294922 1.2979921102523804
32.602176666259766 27.157548904418945 1.303492784500122
32.61287307739258 26.829551696777344 1.3104864358901978
32.63396072387695 26.513151168823242 1.3165603876113892
32.62202453613281 26.173133850097656 1.3247960805892944
32.65489196777344 25.872089385986328 1.3296838998794556
32.671146392822266 25.5605525970459 1.3355767726898193
32.67295837402344 25.240636825561523 1.342314600944519
32.7133674621582 24.95315170288086 1.3461816310882568
32.7211799621582 24.64329719543457 1.3521687984466553
32.72962951660156 24.336669921875 1.3579477071762085
32.73314666748047 24.029096603393555 1.3639087677001953
32.520694732666016 23.567718505859375 1.3846443891525269
32.5766716003418 23.305051803588867 1.386629581451416
32.664093017578125 23.066204071044922 1.3863170146942139
32.68510818481445 22.782052993774414 1.3904379606246948
32.71949768066406 22.509265899658203 1.3934993743896484
32.650177001953125 22.16793441772461 1.403506875038147
32.698177337646484 21.90888786315918 1.4053502082824707
32.732574462890625 21.642375946044922 1.4079900979995728
32.7339973449707 21.356082916259766 1.4127342700958252
32.779319763183594 21.100313186645508 1.4143667221069336
32.78565216064453 20.821239471435547 1.4185069799423218
32.797420501708984 20.547651290893555 1.4221466779708862
18.435060501098633 11.392265319824219 2.392998218536377
18.44477081298828 11.242593765258789 2.394688129425049
18.389169692993164 11.054654121398926 2.4006853103637695
18.377477645874023 10.894805908203125 2.403658390045166
32.822940826416016 19.188621520996094 1.4406284093856812
32.90083312988281 18.964488983154297 1.4390885829925537
32.87566375732422 18.68241310119629 1.4443042278289795
32.79863357543945 18.373544692993164 1.452839732170105
32.87112045288086 18.150297164916992 1.4513109922409058
32.97104263305664 17.94260025024414 1.4478586912155151
32.99663162231445 17.69519805908203 1.4492261409759521
33.01955032348633 17.447689056396484 1.450657606124878
33.03624725341797 17.198259353637695 1.4523875713348389
33.037811279296875 16.942447662353516 1.4550033807754517
33.03926467895508 16.68816375732422 1.457512617111206
33.0576171875 16.443838119506836 1.4587976932525635
33.07958984375 16.202550888061523 1.45973539352417
33.080081939697266 15.952071189880371 1.4619773626327515
33.11391067504883 15.718892097473145 1.4619230031967163
33.10362243652344 15.466036796569824 1.4646556377410889
33.1241340637207 15.228911399841309 1.4652632474899292
33.15935516357422 14.999523162841797 1.464804768562317
33.10911178588867 14.732934951782227 1.4698312282562256
33.104400634765625 14.48834228515625 1.471774935722351
33.13644790649414 14.26093578338623 1.4712162017822266
33.13753890991211 14.021232604980469 1.4725764989852905
33.173805236816406 13.79738712310791 1.4715439081192017
33.177154541015625 13.560781478881836 1.472557544708252
33.21127700805664 13.33767318725586 1.4714676141738892
33.081424713134766 13.050548553466797 1.4809513092041016
33.12242126464844 12.832595825195312 1.4792166948318481
33.51557540893555 12.749144554138184 1.4544914960861206
33.671417236328125 12.572653770446777 1.4451100826263428
33.71389389038086 12.353514671325684 1.4430054426193237
33.72488784790039 12.123519897460938 1.4428497552871704
33.73057174682617 11.892526626586914 1.4429439306259155
33.746952056884766 11.666157722473145 1.4422481060028076
33.73725509643555 11.431706428527832 1.4431506395339966
33.77141571044922 11.212910652160645 1.4411112070083618
33.76620101928711 10.98177433013916 1.4415353536605835
33.784149169921875 10.758999824523926 1.4403622150421143
33.78730010986328 10.532258033752441 1.4400575160980225
33.79753112792969 10.308503150939941 1.439200758934021
33.78620910644531 10.079023361206055 1.4396522045135498
33.814544677734375 9.862089157104492 1.437436580657959
33.81365203857422 9.637250900268555 1.4370282888412476
33.843013763427734 9.421626091003418 1.4345641136169434
33.85655212402344 9.202075958251953 1.4330377578735352
33.847450256347656 8.977084159851074 1.4328932762145996
33.861019134521484 8.758797645568848 1.4311847686767578
33.87899398803711 8.542145729064941 1.4291008710861206
33.89170837402344 8.3246488571167 1.4272692203521729
33.90108871459961 8.106852531433105 1.425566554069519
33.904212951660156 7.888121604919434 1.4241816997528076
33.90009307861328 7.668334484100342 1.4231828451156616
33.917945861816406 7.454035758972168 1.4206624031066895
33.94420623779297 7.241887092590332 1.4175047874450684
33.95936965942383 7.027673244476318 1.4149830341339111
33.9604606628418 6.8109917640686035 1.4132928848266602
33.95233917236328 6.593038558959961 1.4121184349060059
33.95262908935547 6.37728214263916 1.4103078842163086
33.97216796875 6.165511608123779 1.4071495532989502
33.99039077758789 5.953741073608398 1.4039890766143799
33.99646759033203 5.740148067474365 1.401538372039795
34.0041618347168 5.527183532714844 1.3988940715789795
34.011512756347656 5.314493179321289 1.3961857557296753
34.00864791870117 5.100586891174316 1.3940632343292236
34.02912902832031 4.890463352203369 1.3903168439865112
34.0394172668457 4.679056167602539 1.3871532678604126
34.04938507080078 4.467834949493408 1.3839250802993774
34.054080963134766 4.256170272827148 1.3809577226638794
34.06340408325195 4.045320987701416 1.3775970935821533
33.530025482177734 3.7735650539398193 1.4101370573043823
33.49570846557617 3.5618066787719727 1.4095467329025269
33.56827163696289 3.361450672149658 1.4017720222473145
33.62869644165039 3.1593096256256104 1.394705891609192
33.64418029785156 2.952711820602417 1.3905407190322876
33.65242004394531 2.745554208755493 1.3867714405059814
33.659385681152344 2.538404941558838 1.3830012083053589
33.66707229614258 2.3314096927642822 1.3790955543518066
33.66352081298828 2.1237854957580566 1.375855565071106
33.66666030883789 1.9167448282241821 1.3720824718475342
33.66155242919922 1.7093894481658936 1.3687772750854492
33.67012023925781 1.5028349161148071 1.3644654750823975
33.66645050048828 1.2958152294158936 1.3608918190002441
19.277883529663086 0.6230745911598206 2.3299853801727295
12.997736930847168 0.33989521861076355 2.753126859664917
12.386003494262695 0.24782496690750122 2.793065309524536
12.393171310424805 0.17192883789539337 2.791044235229492
33.75772476196289 0.26338014006614685 1.3342678546905518
33.75242614746094 0.05629749223589897 1.3302737474441528
12.74010944366455 -0.05767732113599777 2.7625250816345215
33.77791976928711 -0.35806211829185486 1.3195524215698242
33.7737922668457 -0.5652300119400024 1.3152111768722534
12.831315994262695 -0.2942587733268738 2.751018524169922
33.798622131347656 -0.9805209636688232 1.3039829730987549
33.80064392089844 -1.1881357431411743 1.2989460229873657
33.809364318847656 -1.396142840385437 1.293353796005249
33.72612380981445 -1.600005030632019 1.2940475940704346
12.831643104553223 -0.6884403824806213 2.7415261268615723
12.890798568725586 -0.7709411978721619 2.735405921936035
12.869787216186523 -0.8489489555358887 2.734830617904663
12.815470695495605 -0.9243636131286621 2.736557722091675
12.517057418823242 -0.9800904393196106 2.7553935050964355
33.87619400024414 -2.859570026397705 1.2511454820632935
12.813835144042969 -1.1616400480270386 2.7302606105804443
12.716996192932129 -1.231571912765503 2.7348952293395996
12.759695053100586 -1.3147634267807007 2.7296411991119385
13.96800422668457 -1.5258063077926636 2.641549825668335
12.32618522644043 -1.4231836795806885 2.755927324295044
12.473567008972168 -1.5177861452102661 2.7431395053863525
12.657840728759766 -1.6190556287765503 2.7276196479797363
12.64360237121582 -1.6961370706558228 2.7262396812438965
12.621979713439941 -1.7721354961395264 2.7253592014312744
12.602863311767578 -1.8483670949935913 2.7242684364318848
12.719353675842285 -1.9452276229858398 2.7133359909057617
34.00188446044922 -5.411637783050537 1.1666347980499268
33.99922180175781 -5.625308513641357 1.1598663330078125
33.99127960205078 -5.83847713470459 1.1533797979354858
