# .PCD v0.7 - Point Cloud Data file format
VERSION 0.7
FIELDS x y z
SIZE 4 4 4
TYPE F F F
COUNT 1 1 1
WIDTH 853
HEIGHT 1
VIEWPOINT 0 0 0 1 0 0 0
POINTS 853
DATA ascii
33.86117935180664 8.734746932983398 2.281452178955078
33.87615966796875 8.51736831665039 2.2786121368408203
33.896541595458984 8.301797866821289 2.275501251220703
33.901947021484375 8.083053588867188 2.2729361057281494
33.90108108520508 7.863423824310303 2.2705705165863037
33.91049575805664 7.646747589111328 2.267737627029419
33.93218994140625 7.433244705200195 2.2643558979034424
33.94276809692383 7.217684268951416 2.2613685131073
33.95002365112305 7.001869201660156 2.2584612369537354
33.96375274658203 6.787802219390869 2.2552380561828613
33.979068756103516 6.574399471282959 2.25189471244812
33.97438430786133 6.357570648193359 2.249312162399292
33.990943908691406 6.145135402679443 2.2458109855651855
34.00813674926758 5.933078289031982 2.2422280311584473
34.007259368896484 5.718224048614502 2.239331007003784
34.01686477661133 5.505518913269043 2.2359507083892822
34.02217483520508 5.292448997497559 2.2326927185058594
34.00737762451172 5.076716899871826 2.230210304260254
34.02880096435547 4.866741180419922 2.226180076599121
34.04298400878906 4.655880451202393 2.222393035888672
34.055870056152344 4.445027828216553 2.2186036109924316
34.065460205078125 4.233944416046143 2.2148962020874023
34.074737548828125 4.023027420043945 2.211146593093872
33.534603118896484 3.7508292198181152 2.230325222015381
33.52500534057617 3.5416922569274902 2.2273128032684326
33.58370590209961 3.3397367000579834 2.22137713432312
33.634220123291016 3.1365432739257812 2.215721607208252
33.65563201904297 2.930427074432373 2.211230516433716
33.66582107543945 2.7233591079711914 2.2071573734283447
33.677730560302734 2.5164988040924072 2.202955484390259
33.681392669677734 2.309115171432495 2.199047327041626
33.67280578613281 2.1010959148406982 2.1956071853637695
12.098773002624512 0.6796655654907227 3.115288019180298
33.67073440551758 1.6865886449813843 2.187920570373535
33.697227478027344 1.480762004852295 2.182809829711914
12.673115730285645 0.47825735807418823 3.0862183570861816
19.31220054626465 0.6108466982841492 2.797323703765869
33.723209381103516 0.8605628609657288 2.1694297790527344
33.74964904785156 0.6541104912757874 2.1640801429748535
33.75083923339844 0.44704669713974 2.15976881980896
33.76175308227539 0.24007031321525574 2.154975175857544
33.764400482177734 0.032968733459711075 2.150484323501587
12.861319541931152 -0.06710373610258102 3.066732168197632
12.720741271972656 -0.1444215327501297 3.0712320804595947
33.8006706237793 -0.5890775918960571 2.135406494140625
33.80522155761719 -0.796615719795227 2.130592107772827
11.532421112060547 -0.34337180852890015 3.119009256362915
12.48247241973877 -0.4482116103172302 3.074901819229126
11.786726951599121 -0.49571290612220764 3.1043503284454346
12.709392547607422 -0.6125438213348389 3.0611274242401123
13.366679191589355 -0.7263712286949158 3.02959942817688
12.842376708984375 -0.7769696116447449 3.051386833190918
12.828328132629395 -0.8551348447799683 3.0501132011413574
33.8643798828125 -2.464108467102051 2.088838577270508
13.096567153930664 -1.0345268249511719 3.0339481830596924
12.488703727722168 -1.0636978149414062 3.059833526611328
12.317729949951172 -1.1253061294555664 3.0657577514648438
12.386087417602539 -1.2082066535949707 3.0606491565704346
12.751971244812012 -1.3228822946548462 3.041694164276123
12.767374992370605 -1.4036972522735596 3.0389111042022705
13.412354469299316 -1.5578792095184326 3.0066895484924316
13.436180114746094 -1.6442452669143677 3.003347396850586
13.54267406463623 -1.7416579723358154 2.996082067489624
13.864282608032227 -1.8695204257965088 2.9785964488983154
11.831709861755371 -1.6695908308029175 3.0725324153900146
13.814448356628418 -2.035682439804077 2.976173162460327
33.997215270996094 -5.221260070800781 2.0102715492248535
34.003787994384766 -5.436010360717773 2.0039052963256836
34.0099983215332 -5.6512017250061035 1.9974844455718994
34.00401306152344 -5.864808559417725 1.9915783405303955
34.026180267333984 -6.083828449249268 1.9842382669448853
34.03220748901367 -6.300614356994629 1.9776020050048828
34.0417594909668 -6.518643379211426 1.9707188606262207
33.97739791870117 -6.722684383392334 1.9673807621002197
33.89616012573242 -6.922984600067139 1.9648232460021973
33.85382080078125 -7.130982398986816 1.9603002071380615
33.836551666259766 -7.3444414138793945 1.9544728994369507
33.85303497314453 -7.565800189971924 1.9468942880630493
33.81550598144531 -7.775552749633789 1.9419331550598145
33.86124038696289 -8.005121231079102 1.9327270984649658
33.841365814208984 -8.21998405456543 1.9267311096191406
34.04108810424805 -8.490006446838379 1.9095436334609985
34.04523468017578 -8.713266372680664 1.9021352529525757
34.09042739868164 -8.948052406311035 1.8925471305847168
34.09929275512695 -9.174381256103516 1.8847172260284424
34.07969665527344 -9.393726348876953 1.8782645463943481
34.073116302490234 -9.617244720458984 1.8710623979568481
34.10536575317383 -9.852678298950195 1.8617594242095947
34.097694396972656 -10.077548027038574 1.8544358015060425
34.10575485229492 -10.30789566040039 1.8462042808532715
34.10844421386719 -10.537542343139648 1.8381606340408325
34.15531539916992 -10.7820405960083 1.8276888132095337
34.14818572998047 -11.01065444946289 1.8199710845947266
34.140480041503906 -11.239899635314941 1.8121933937072754
34.147335052490234 -11.474873542785645 1.8035447597503662
34.150699615478516 -11.709707260131836 1.7949856519699097
34.17603302001953 -11.953256607055664 1.7851386070251465
34.137569427490234 -12.175415992736816 1.7786468267440796
34.113624572753906 -12.403355598449707 1.7712827920913696
34.306358337402344 -12.712306022644043 1.7519476413726807
34.32372283935547 -12.958832740783691 1.7420734167099
34.32350158691406 -13.199956893920898 1.7330588102340698
34.332767486572266 -13.445937156677246 1.7234102487564087
34.328243255615234 -13.687719345092773 1.7144215106964111
34.347023010253906 -13.940091133117676 1.7040174007415771
34.34922790527344 -14.18710994720459 1.6944282054901123
34.37362289428711 -14.444738388061523 1.6834678649902344
34.357574462890625 -14.686715126037598 1.6746851205825806
29.644376754760742 -12.887887954711914 1.93489408493042
29.567279815673828 -13.070694923400879 1.9307706356048584
34.43232345581055 -15.47443962097168 1.6405863761901855
34.4236946105957 -15.725188255310059 1.630903959274292
34.42142868041992 -15.980195999145508 1.6207326650619507
34.430870056152344 -16.242158889770508 1.6097503900527954
34.46360397338867 -16.51692008972168 1.5972613096237183
34.46462631225586 -16.778274536132812 1.586507797241211
34.48252868652344 -17.049551010131836 1.574615478515625
34.42878341674805 -17.286733627319336 1.5668796300888062
34.35563278198242 -17.514827728271484 1.5602164268493652
34.27654266357422 -17.740381240844727 1.5538257360458374
34.259620666503906 -17.999059677124023 1.543557047843933
34.25754928588867 -18.26712417602539 1.5322493314743042
34.363250732421875 -18.59524154663086 1.5141559839248657
34.152854919433594 -18.753292083740234 1.5154469013214111
34.50532531738281 -19.223379135131836 1.4816393852233887
34.4508056640625 -19.471027374267578 1.4729584455490112
34.51841354370117 -19.789743423461914 1.45646071434021
34.526424407958984 -20.076892852783203 1.443540096282959
34.520164489746094 -20.357784271240234 1.4313673973083496
34.554595947265625 -20.66497802734375 1.4164282083511353
34.587406158447266 -20.973873138427734 1.4014052152633667
34.52244567871094 -21.225378036499023 1.392537236213684
34.54128646850586 -21.53021812438965 1.3780794143676758
34.46060562133789 -21.774755477905273 1.3699716329574585
34.52703857421875 -22.114425659179688 1.3520334959030151
34.56295394897461 -22.437786102294922 1.3358933925628662
34.56449508666992 -22.74156379699707 1.321842074394226
34.53203201293945 -23.025156021118164 1.3098936080932617
34.654571533203125 -23.415407180786133 1.2872920036315918
34.725830078125 -23.77530860900879 1.2678896188735962
34.76688766479492 -24.118183135986328 1.2503024339675903
34.738868713378906 -24.415952682495117 1.237244725227356
34.80283737182617 -24.781457901000977 1.2176234722137451
34.804508209228516 -25.10602569580078 1.2020909786224365
34.82365798950195 -25.44626808166504 1.1851176023483276
34.8391227722168 -25.787097930908203 1.1681731939315796
34.84052658081055 -26.120683670043945 1.1519966125488281
34.859806060791016 -26.470951080322266 1.1343135833740234
34.889549255371094 -26.832782745361328 1.1156293153762817
34.89015197753906 -27.175729751586914 1.0988008975982666
34.8870735168457 -27.51906967163086 1.0820046663284302
34.913848876953125 -27.889558792114258 1.0627716779708862
34.78523635864258 -28.13835334777832 1.0547822713851929
34.789276123046875 -28.496688842773438 1.036771535873413
34.93928527832031 -28.979774475097656 1.0075308084487915
34.91188049316406 -29.320661544799805 0.9912970066070557
34.92876052856445 -29.7023983001709 0.9714506268501282
34.94300842285156 -30.086090087890625 0.9515132904052734
34.91622543334961 -30.438276290893555 0.9344523549079895
34.88492965698242 -30.78993797302246 0.9174872040748596
34.94293212890625 -31.224838256835938 0.8932642936706543
34.99763488769531 -31.66227149963379 0.8689373731613159
34.97760009765625 -32.03681564331055 0.850189745426178
34.98648452758789 -32.442169189453125 0.8288360238075256
35.05865478515625 -32.911685943603516 0.80204176902771
34.997562408447266 -33.260902404785156 0.7856771945953369
32.32419204711914 30.79114532470703 2.054201364517212
32.39291000366211 30.479965209960938 2.056030750274658
32.3397216796875 30.058198928833008 2.063654661178589
32.48944091796875 29.828168869018555 2.061302423477173
32.49913024902344 29.47188377380371 2.065610885620117
32.44389724731445 29.061267852783203 2.072908639907837
32.44622802734375 28.706741333007812 2.077296257019043
32.557559967041016 28.45127296447754 2.0763399600982666
32.576202392578125 28.11716079711914 2.0797061920166016
32.56687927246094 27.76249885559082 2.0842783451080322
32.603363037109375 27.450210571289062 2.0865519046783447
32.62649154663086 27.129573822021484 2.089343309402466
32.62607192993164 26.792566299438477 2.0931315422058105
32.62430191040039 26.457847595214844 2.096864938735962
32.65085983276367 26.149152755737305 2.0991499423980713
32.65605545043945 25.826250076293945 2.1023287773132324
32.69633102416992 25.533798217773438 2.1037542819976807
32.68043518066406 25.200326919555664 2.107699155807495
32.703826904296875 24.900102615356445 2.1097023487091064
32.712791442871094 24.591535568237305 2.112273693084717
32.699947357177734 24.26949691772461 2.1157522201538086
32.521568298339844 23.82923698425293 2.126793384552002
32.424049377441406 23.453584671020508 2.1339635848999023
32.4727897644043 23.1868839263916 2.134267568588257
32.5292854309082 22.927377700805664 2.134122133255005
32.542808532714844 22.6395206451416 2.1358656883239746
32.50872039794922 22.321247100830078 2.139702320098877
32.56460952758789 22.06703758239746 2.1393115520477295
32.64933776855469 21.833534240722656 2.137515068054199
32.44302749633789 21.408830642700195 2.148952007293701
32.46721267700195 21.140165328979492 2.1497421264648438
32.491851806640625 20.873632431030273 2.1504247188568115
32.56086349487305 20.637014389038086 2.148998975753784
32.54008483886719 20.345243453979492 2.1515822410583496
32.48549270629883 20.035091400146484 2.155616283416748
32.54357147216797 19.796493530273438 2.15444016456604
32.599952697753906 19.55793571472168 2.1532630920410156
32.597007751464844 19.28533935546875 2.1546976566314697
32.41416549682617 18.9097843170166 2.1642048358917236
32.68267822265625 18.79878807067871 2.153176784515381
32.65290832519531 18.51612663269043 2.155585289001465
32.71772766113281 18.288665771484375 2.1536362171173096
32.81511306762695 18.079912185668945 2.1501400470733643
32.94190216064453 17.887338638305664 2.145242214202881
32.99795913696289 17.656644821166992 2.1434671878814697
33.02150344848633 17.409624099731445 2.1430859565734863
33.04147720336914 17.162057876586914 2.1427900791168213
33.0383186340332 16.903980255126953 2.143463611602783
33.061790466308594 16.66097640991211 2.1428613662719727
33.078163146972656 16.41565704345703 2.142507314682007
33.084686279296875 16.16681480407715 2.1425232887268066
33.09751892089844 15.92241096496582 2.142183780670166
33.10408020019531 15.676319122314453 2.142054557800293
33.1197395324707 15.435811996459961 2.1414453983306885
33.13187789916992 15.194870948791504 2.140923500061035
33.131385803222656 14.94942855834961 2.1409010887145996
33.15196228027344 14.714699745178223 2.139860153198242
33.15442657470703 14.47308349609375 2.13956618309021
33.17262268066406 14.239482879638672 2.138495445251465
33.17354965209961 13.999597549438477 2.1381337642669678
33.19401931762695 13.769042015075684 2.136824369430542
33.196250915527344 13.531972885131836 2.136270761489868
33.21723556518555 13.303568840026855 2.1348042488098145
33.10371398925781 13.023103713989258 2.1393415927886963
33.123146057128906 12.796748161315918 2.13781476020813
33.610923767089844 12.748902320861816 2.115065574645996
33.663963317871094 12.533424377441406 2.1118781566619873
33.70436096191406 12.31365966796875 2.10919451713562
33.73204803466797 12.089823722839355 2.107017993927002
33.72903823852539 11.855839729309082 2.106166362762451
33.74709701538086 11.63016128540039 2.104294538497925
33.75135803222656 11.400548934936523 2.1029844284057617
33.77304458618164 11.177600860595703 2.1008200645446777
33.783756256103516 10.95173454284668 2.0990889072418213
33.78535842895508 10.723738670349121 2.097707509994507
33.80547332763672 10.502360343933105 2.0954208374023438
33.78590774536133 10.269513130187988 2.094876766204834
33.8068962097168 10.04982852935791 2.092423915863037
33.822628021240234 9.8291597366333 2.090147018432617
33.826351165771484 9.605670928955078 2.0883545875549316
33.844974517822266 9.387045860290527 2.0858194828033447
33.85640335083008 9.166986465454102 2.083549976348877
33.85288619995117 8.943564414978027 2.0819027423858643
33.867252349853516 8.725517272949219 2.079373836517334
33.86762237548828 8.50446605682373 2.077425241470337
33.892757415771484 8.29014778137207 2.074277400970459
33.91361999511719 8.075146675109863 2.071260929107666
33.89030456542969 7.850277900695801 2.070219039916992
33.91033935546875 7.636096477508545 2.067117929458618
33.93292236328125 7.422818183898926 2.0638351440429688
33.94537353515625 7.207680702209473 2.0609583854675293
33.948631286621094 6.991057395935059 2.0584449768066406
33.95639419555664 6.775836944580078 2.055661916732788
33.96867370605469 6.561921119689941 2.052607297897339
33.96881103515625 6.346089839935303 2.050056219100952
33.991172790527344 6.134761810302734 2.0464067459106445
34.00335693359375 5.9218549728393555 2.0431697368621826
34.001407623291016 5.7068772315979 2.040531873703003
34.006980895996094 5.493579864501953 2.0374810695648193
34.01318359375 5.280735015869141 2.0343384742736816
34.00126266479492 5.065515518188477 2.031989097595215
34.018638610839844 4.85501766204834 2.028197765350342
34.035701751708984 4.6446309089660645 2.024357795715332
34.048492431640625 4.433828830718994 2.0206568241119385
34.05897903442383 4.222921371459961 2.017000913619995
34.06916046142578 4.012167453765869 2.0132970809936523
33.519134521484375 3.7390668392181396 2.036221742630005
33.513423919677734 3.530454635620117 2.033205509185791
33.57002639770508 3.3283634185791016 2.0271475315093994
33.631385803222656 3.1262643337249756 2.0207903385162354
33.65569305419922 2.9204261302948 2.016139507293701
33.66679382324219 2.713441848754883 2.0120582580566406
33.67363739013672 2.5062074661254883 2.0081191062927246
33.67620849609375 2.298786163330078 2.0043230056762695
11.958895683288574 0.7413417100906372 3.0534965991973877
12.077834129333496 0.6743938326835632 3.0463688373565674
12.1884126663208 0.60561603307724 3.0395991802215576
12.26766300201416 0.5341544151306152 3.0343105792999268
12.208752632141113 0.45656856894493103 3.03574275970459
12.80224895477295 0.40024152398109436 3.0051565170288086
33.712432861328125 0.8503607511520386 1.975100040435791
33.734779357910156 0.6438938975334167 1.969821810722351
33.743873596191406 0.43702760338783264 1.9651285409927368
33.74870300292969 0.2300521731376648 1.9605814218521118
33.75625991821289 0.023035598918795586 1.9558321237564087
33.755550384521484 -0.18402858078479767 1.9514286518096924
12.799097061157227 -0.14957205951213837 2.993868827819824
12.741938591003418 -0.22709253430366516 2.9949989318847656
33.79572296142578 -0.806328296661377 1.93570077419281
33.796913146972656 -1.0138280391693115 1.9309332370758057
12.072643280029297 -0.43761205673217773 3.0234806537628174
12.207357406616211 -0.517472505569458 3.0149271488189697
12.955032348632812 -0.628676176071167 2.9751718044281006
12.697555541992188 -0.6943221688270569 2.9863815307617188
12.847492218017578 -0.7815721035003662 2.9768245220184326
12.899173736572266 -0.8641610741615295 2.97223162651062
11.808862686157227 -0.8640891909599304 3.0262959003448486
33.875972747802734 -2.683973789215088 1.8867590427398682
12.616156578063965 -1.07878577709198 2.980851411819458
12.275066375732422 -1.1255698204040527 2.9965310096740723
12.423898696899414 -1.2160931825637817 2.9868009090423584
12.752857208251953 -1.327270746231079 2.9675936698913574
13.112664222717285 -1.4460266828536987 2.9466352462768555
13.344507217407227 -1.554474949836731 2.932250738143921
13.355448722839355 -1.6388529539108276 2.929400682449341
33.95329666137695 -4.374825477600098 1.837963581085205
12.280197143554688 -1.6602566242218018 2.9818053245544434
13.750914573669434 -1.9448206424713135 2.901348829269409
33.98489761352539 -5.016354560852051 1.818249225616455
33.978919982910156 -5.228672981262207 1.812401294708252
33.98738479614258 -5.443633556365967 1.8057019710540771
34.000396728515625 -5.659879207611084 1.7986743450164795
33.991371154785156 -5.872921943664551 1.7927565574645996
29.28254508972168 -5.2448506355285645 2.04213809967041
34.017417907714844 -6.308227062225342 1.7782864570617676
34.03276062011719 -6.527302265167236 1.7707942724227905
34.006534576416016 -6.738848686218262 1.7654974460601807
33.90659713745117 -6.935516357421875 1.764191746711731
33.86122131347656 -7.142958164215088 1.7598230838775635
33.894588470458984 -7.36749267578125 1.7510161399841309
33.948875427246094 -7.597720146179199 1.7409435510635376
33.93739318847656 -7.814108371734619 1.7344415187835693
33.94104766845703 -8.034552574157715 1.727007269859314
33.99760055541992 -8.268547058105469 1.716500163078308
34.030277252197266 -8.497974395751953 1.7072315216064453
34.0381965637207 -8.722168922424316 1.6992651224136353
34.08326721191406 -8.956929206848145 1.689083456993103
34.09299087524414 -9.18348503112793 1.6808140277862549
34.07715606689453 -9.40385627746582 1.6739164590835571
34.098323822021484 -9.63524055480957 1.6647952795028687
34.113136291503906 -9.865851402282715 1.655936598777771
34.10629653930664 -10.091058731079102 1.6482341289520264
34.105613708496094 -10.318868637084961 1.6400766372680664
34.12535858154297 -10.5538330078125 1.630622386932373
34.12731170654297 -10.784316062927246 1.6221070289611816
34.160972595214844 -11.025952339172363 1.611611247062683
34.118988037109375 -11.244036674499512 1.6054927110671997
34.13143539428711 -11.480798721313477 1.596040964126587
34.173423767089844 -11.728832244873047 1.5847077369689941
34.15899658203125 -11.958680152893066 1.576642394065857
34.117637634277344 -12.179734230041504 1.5701044797897339
34.11800765991211 -12.416433334350586 1.5609445571899414
34.27775955200195 -12.713301658630371 1.5419498682022095
34.298789978027344 -12.961076736450195 1.5312561988830566
34.291038513183594 -13.199191093444824 1.5222090482711792
34.31511688232422 -13.450812339782715 1.5110805034637451
34.32533645629883 -13.698416709899902 1.5006831884384155
34.33842849731445 -13.948530197143555 1.4899808168411255
34.333133697509766 -14.192456245422363 1.4803026914596558
34.35926055908203 -14.450773239135742 1.4685258865356445
34.34495162963867 -14.69345474243164 1.4591691493988037
29.625478744506836 -12.890326499938965 1.7489607334136963
34.40621566772461 -15.221914291381836 1.4343559741973877
34.41933822631836 -15.480988502502441 1.422851800918579
34.40333557128906 -15.72834587097168 1.4130871295928955
34.418182373046875 -15.991230010986328 1.4011987447738647
34.40761947631836 -16.243810653686523 1.3908205032348633
34.46455764770508 -16.530099868774414 1.3758903741836548
34.460933685302734 -16.78927993774414 1.3647698163986206
34.49031448364258 -17.066303253173828 1.351325273513794
34.44801330566406 -17.309364318847656 1.3424837589263916
34.372894287109375 -17.536670684814453 1.3357179164886475
34.33085632324219 -17.7816104888916 1.326633334159851
34.41168212890625 -18.092187881469727 1.309128999710083
34.35963821411133 -18.33487892150879 1.3004355430603027
34.40861129760742 -18.633222579956055 1.2847294807434082
30.831584930419922 -16.94194221496582 1.5176388025283813
30.79480743408203 -17.168651580810547 1.5087956190109253
34.55596923828125 -19.544267654418945 1.236404299736023
34.52776336669922 -19.809009552001953 1.2252857685089111
34.54246520996094 -20.100238800048828 1.2110106945037842
34.51017761230469 -20.36602210998535 1.1998653411865234
34.57871627807617 -20.69366455078125 1.1814212799072266
34.57709884643555 -20.982006072998047 1.1677470207214355
34.54773712158203 -21.25541877746582 1.1558817625045776
34.5400276184082 -21.544050216674805 1.142295479774475
34.508975982666016 -21.820049285888672 1.1302210092544556
34.52121353149414 -22.12555694580078 1.1148234605789185
34.6180419921875 -22.488582611083984 1.0930150747299194
34.574981689453125 -22.76361656188965 1.081250786781311
34.541465759277344 -23.046724319458008 1.06861412525177
34.64716339111328 -23.42586326599121 1.0454037189483643
34.72232437133789 -23.788551330566406 1.0241854190826416
34.73283004760742 -24.110355377197266 1.007573127746582
34.73497009277344 -24.429161071777344 0.9913707375526428
34.79789733886719 -24.794069290161133 0.970292866230011
34.78480911254883 -25.10809898376465 0.9547834396362305
34.819122314453125 -25.45941734313965 0.9353834986686707
34.7974853515625 -25.77289581298828 0.9200785756111145
34.818809509277344 -26.12120246887207 0.9011844992637634
34.833187103271484 -26.46772003173828 0.8825741410255432
34.873085021972656 -26.837305068969727 0.8616728186607361
34.854644775390625 -27.165424346923828 0.84514319896698
34.86403274536133 -27.51844024658203 0.8261333107948303
34.89455795288086 -27.891904830932617 0.8051368594169617
34.7899284362793 -28.160043716430664 0.794866144657135
34.77516555786133 -28.503223419189453 0.7770528197288513
34.91108703613281 -28.974748611450195 0.7465168833732605
34.86831283569336 -29.302621841430664 0.7304194569587708
34.92543029785156 -29.71836280822754 0.7057058215141296
34.94850158691406 -30.109848022460938 0.6835011839866638
34.88534164428711 -30.430572509765625 0.6682934761047363
34.85171890258789 -30.780057907104492 0.6503213047981262
34.95794677734375 -31.257984161376953 0.6200188398361206
34.99302291870117 -31.678089141845703 0.59543776512146
34.95876693725586 -32.03978729248047 0.5765426158905029
34.97551345825195 -32.452484130859375 0.5528598427772522
35.05105209350586 -32.92533874511719 0.5235921740531921
30.28272247314453 -28.798559188842773 0.9267792105674744
32.331512451171875 30.847484588623047 1.772037386894226
32.36211395263672 30.499881744384766 1.7771049737930298
32.31654739379883 30.084991455078125 1.7863643169403076
32.46201705932617 29.851030349731445 1.7845550775527954
32.5052490234375 29.525054931640625 1.788439154624939
32.44679641723633 29.110939025878906 1.7979274988174438
32.41142272949219 28.722511291503906 1.805931806564331
32.546932220458984 28.48828125 1.8041611909866333
32.56439208984375 28.152847290039062 1.8088977336883545
32.575931549072266 27.815677642822266 1.813818335533142
32.59831619262695 27.49102210998535 1.8179893493652344
32.59722137451172 27.14988136291504 1.82332444190979
32.61091995239258 26.82438850402832 1.827695369720459
32.6342658996582 26.50983238220215 1.8313947916030884
32.65420913696289 26.19537353515625 1.8351500034332275
32.65821838378906 25.871124267578125 1.8396493196487427
32.66027069091797 25.548433303833008 1.8441208600997925
32.684898376464844 25.24623680114746 1.847227692604065
32.715797424316406 24.951364517211914 1.849867820739746
32.71318817138672 24.63362693786621 1.8542101383209229
32.73838806152344 24.339515686035156 1.856917381286621
32.592079162597656 23.921886444091797 1.8687912225723267
32.53493118286133 23.574386596679688 1.875691533088684
32.554386138916016 23.285444259643555 1.878328561782837
32.644161224365234 23.04844093322754 1.8770694732666016
32.615047454833984 22.729530334472656 1.882096529006958
32.658164978027344 22.463367462158203 1.8831313848495483
32.45375442504883 22.030885696411133 1.8973034620285034
32.59221649169922 21.834178924560547 1.8930151462554932
32.6278190612793 21.569387435913086 1.8941270112991333
32.70072555541992 21.33063507080078 1.8931511640548706
32.54848098754883 20.947988510131836 1.9040443897247314
32.536155700683594 20.6590518951416 1.9073848724365234
32.49357604980469 20.353557586669922 1.9122213125228882
32.6966438293457 20.20269012451172 1.9039561748504639
32.7617301940918 19.966394424438477 1.9029083251953125
32.58284378051758 19.58441925048828 1.9146392345428467
32.53801345825195 19.28689956665039 1.9191855192184448
32.659812927246094 19.089466094970703 1.9148602485656738
32.76742172241211 18.8837833404541 1.9111988544464111
32.84247589111328 18.65972900390625 1.9091659784317017
32.7913818359375 18.365663528442383 1.9136618375778198
32.88484191894531 18.154035568237305 1.9104855060577393
32.974308013916016 17.94051742553711 1.9074361324310303
32.99812698364258 17.69213104248047 1.9077361822128296
33.01484298706055 17.441326141357422 1.9083197116851807
33.029727935791016 17.190980911254883 1.9089106321334839
33.05522918701172 16.947486877441406 1.908859133720398
33.05937576293945 16.694429397583008 1.9098361730575562
33.0831298828125 16.4526309967041 1.9097048044204712
33.0755615234375 16.196670532226562 1.911118984222412
33.10749435424805 15.961379051208496 1.9103928804397583
33.0881462097168 15.702750205993652 1.9122507572174072
33.122093200683594 15.470744132995605 1.911252737045288
33.129024505615234 15.22723388671875 1.9115777015686035
33.158790588378906 14.995331764221191 1.9106343984603882
33.10847473144531 14.728723526000977 1.9137698411941528
33.114715576171875 14.488922119140625 1.9138864278793335
33.132102966308594 14.255125045776367 1.9133447408676147
33.1543083190918 14.024383544921875 1.9124729633331299
33.174015045166016 13.793521881103516 1.9116532802581787
33.185665130615234 13.560301780700684 1.9111731052398682
33.21980667114258 13.337132453918457 1.9094481468200684
33.10286331176758 13.055057525634766 1.9154870510101318
33.14205551147461 12.8362455368042 1.9133455753326416
33.59526443481445 12.775424003601074 1.8896386623382568
33.68213653564453 12.572599411010742 1.8848674297332764
33.717140197753906 12.350639343261719 1.8827115297317505
33.719669342041016 12.117575645446777 1.8821651935577393
33.741336822509766 11.892248153686523 1.8805500268936157
33.75112533569336 11.66352367401123 1.8794761896133423
33.74613571166992 11.430638313293457 1.8790963888168335
33.768001556396484 11.20769214630127 1.877245306968689
33.786502838134766 10.984288215637207 1.8754953145980835
33.77878952026367 10.753203392028809 1.8750349283218384
33.81147384643555 10.535696983337402 1.8723986148834229
33.799774169921875 10.305087089538574 1.8720004558563232
33.80374526977539 10.080155372619629 1.8707140684127808
33.830204010009766 9.862548828125 1.8681809902191162
33.840858459472656 9.640891075134277 1.8664002418518066
33.8404426574707 9.416796684265137 1.8651257753372192
33.856868743896484 9.198042869567871 1.862898826599121
33.868988037109375 8.978673934936523 1.8608256578445435
33.88066101074219 8.759751319885254 1.858703851699829
33.8841438293457 8.539314270019531 1.8569397926330566
33.88716506958008 8.319400787353516 1.8551287651062012
33.91596984863281 8.106270790100098 1.8518930673599243
33.91230010986328 7.885860919952393 1.8502920866012573
33.913055419921875 7.6671223640441895 1.8483892679214478
33.935813903808594 7.453812122344971 1.8452558517456055
33.95039367675781 7.239051818847656 1.8424826860427856
33.9597053527832 7.023582458496094 1.8399163484573364
33.966670989990234 6.808074951171875 1.8374024629592896
33.970314025878906 6.59236478805542 1.8349953889846802
33.967681884765625 6.375943183898926 1.8328510522842407
33.989219665527344 6.16443395614624 1.8293540477752686
34.00059127807617 5.95134973526001 1.82632577419281
34.00570297241211 5.737525939941406 1.823560118675232
34.0163688659668 5.5249834060668945 1.8204282522201538
34.030643463134766 5.313294410705566 1.8170329332351685
34.01891326904297 5.09793758392334 1.814956545829773
34.034488677978516 4.8870391845703125 1.8113504648208618
34.04182815551758 4.675189018249512 1.8081138134002686
34.051815032958984 4.463950157165527 1.8046650886535645
34.062469482421875 4.253011226654053 1.801110029220581
34.076778411865234 4.042696952819824 1.797285556793213
33.528133392333984 3.769230842590332 1.8237744569778442
33.51862335205078 3.56012225151062 1.821146845817566
33.6011962890625 3.3606107234954834 1.8134647607803345
33.63984298706055 3.1562085151672363 1.8080811500549316
33.6573371887207 2.949713706970215 1.803769826889038
33.66859817504883 2.742716073989868 1.7997266054153442
33.65766906738281 2.53411602973938 1.796822428703308
33.668365478515625 2.3273351192474365 1.7926676273345947
33.6568603515625 2.1191999912261963 1.789657711982727
33.667991638183594 1.9126509428024292 1.7853373289108276
33.674869537353516 1.7058919668197632 1.781178593635559
13.150920867919922 0.5855891704559326 2.9085803031921387
12.373937606811523 0.4749844968318939 2.949965715408325
19.314319610595703 0.6225563883781433 2.5643222332000732
12.773924827575684 0.3334529995918274 2.924816370010376
12.496129035949707 0.24951839447021484 2.938692569732666
33.748348236083984 0.4661354422569275 1.7529094219207764
12.474117279052734 0.0960155725479126 2.9367728233337402
12.57822322845459 0.01965593919157982 2.9293336868286133
12.644912719726562 -0.057807739824056625 2.9239392280578613
12.73009204864502 -0.13629302382469177 2.9174602031707764
12.742903709411621 -0.21461321413516998 2.9150102138519287
33.8100700378418 -0.7775506377220154 1.7225958108901978
33.81539535522461 -0.985247790813446 1.7175568342208862
33.82343673706055 -1.1931819915771484 1.7122875452041626
12.485061645507812 -0.5168870091438293 2.9224956035614014
12.6082181930542 -0.5994869470596313 2.9136321544647217
13.162496566772461 -0.7068106532096863 2.8800265789031982
12.851871490478516 -0.7692154049873352 2.8958628177642822
11.84764575958252 -0.782047688961029 2.9516777992248535
12.279677391052246 -0.8862706422805786 2.9249026775360107
12.629240036010742 -0.9894259572029114 2.902735471725464
12.384095191955566 -1.0466892719268799 2.9149322509765625
12.389283180236816 -1.1237164735794067 2.912614345550537
12.747734069824219 -1.2351324558258057 2.8896539211273193
33.909549713134766 -3.4962704181671143 1.6492340564727783
13.297100067138672 -1.4532649517059326 2.8531129360198975
33.94194030761719 -3.9210524559020996 1.635723352432251
12.477374076843262 -1.5187915563583374 2.8968889713287354
33.94819641113281 -4.344498634338379 1.6234073638916016
33.9770393371582 -4.560224533081055 1.615596055984497
33.97782897949219 -4.7727203369140625 1.6093617677688599
33.987159729003906 -4.986847877502441 1.6025317907333374
33.989219665527344 -5.200364589691162 1.596048355102539
34.00373840332031 -5.416294097900391 1.5887291431427002
34.01096725463867 -5.63162088394165 1.5817557573318481
34.008968353271484 -5.845888137817383 1.5752512216567993
29.28162384033203 -5.218397617340088 1.8555669784545898
34.02741241455078 -6.279871463775635 1.560610294342041
34.062503814697266 -6.50270414352417 1.5515683889389038
34.0354118347168 -6.7142252922058105 1.546233892440796
33.9639778137207 -6.916896343231201 1.5435477495193481
33.90696334838867 -7.122227191925049 1.539908766746521
33.92577362060547 -7.34380578994751 1.5315015316009521
33.96944808959961 -7.571746826171875 1.5214471817016602
33.99895095825195 -7.797601222991943 1.5121618509292603
34.03763961791992 -8.026622772216797 1.5021922588348389
34.04375076293945 -8.24889087677002 1.4941540956497192
34.05131530761719 -8.472261428833008 1.4859237670898438
34.0883674621582 -8.703937530517578 1.4757232666015625
34.116127014160156 -8.934364318847656 1.4659955501556396
34.126914978027344 -9.161319732666016 1.4572350978851318
34.13330841064453 -9.387950897216797 1.448647141456604
34.100730895996094 -9.604453086853027 1.442455768585205
34.12432861328125 -9.837498664855957 1.4325520992279053
34.12910842895508 -10.06611442565918 1.4237483739852905
34.1170768737793 -10.290547370910645 1.4159266948699951
34.14744567871094 -10.528740882873535 1.405236005783081
34.13333511352539 -10.754197120666504 1.3973326683044434
34.16999053955078 -10.996694564819336 1.385987401008606
34.14710998535156 -11.221041679382324 1.3784394264221191
34.11235046386719 -11.44202995300293 1.3715769052505493
34.17436981201172 -11.696627616882324 1.3581753969192505
34.181766510009766 -11.933995246887207 1.3482730388641357
34.15839385986328 -12.161516189575195 1.340314507484436
34.1532096862793 -12.39635181427002 1.3310219049453735
34.291507720947266 -12.685250282287598 1.3118970394134521
34.3192024230957 -12.935482025146484 1.3000879287719727
34.31623458862305 -13.175440788269043 1.2902315855026245
34.32368850708008 -13.420574188232422 1.2795355319976807
34.331275939941406 -13.667034149169922 1.2686961889266968
34.37689971923828 -13.930209159851074 1.255089521408081
34.374446868896484 -14.175434112548828 1.2446645498275757
34.36842727661133 -14.420382499694824 1.2343553304672241
34.369876861572266 -14.669707298278809 1.2233893871307373
34.37504577636719 -14.921977996826172 1.2120229005813599
29.548126220703125 -13.04267692565918 1.542462706565857
34.440948486328125 -15.455727577209473 1.1849068403244019
34.4205322265625 -15.701068878173828 1.1749138832092285
34.44365692138672 -15.967726707458496 1.1616624593734741
34.44945526123047 -16.228031158447266 1.1494959592819214
34.45874786376953 -16.491592407226562 1.1369215250015259
34.4580192565918 -16.751949310302734 1.1249181032180786
34.49207305908203 -17.03103256225586 1.1102150678634644
34.48295593261719 -17.29058837890625 1.098503589630127
34.40703582763672 -17.517621994018555 1.0915731191635132
34.365081787109375 -17.762706756591797 1.082014560699463
34.42478942871094 -18.062175750732422 1.0647367238998413
34.423099517822266 -18.331623077392578 1.0518518686294556
34.44221115112305 -18.61406135559082 1.0372295379638672
34.41627883911133 -18.87391471862793 1.0258327722549438
30.815383911132812 -17.14599609375 1.286553978919983
34.581153869628906 -19.520320892333984 0.9859779477119446
34.58163833618164 -19.801483154296875 0.9719878435134888
34.570472717285156 -20.077871322631836 0.9587135314941406
34.584720611572266 -20.371076583862305 0.9432834982872009
34.5958137512207 -20.66469383239746 0.9278982281684875
34.5789909362793 -20.943708419799805 0.9145039916038513
34.567691802978516 -21.227991104125977 0.9004892706871033
34.536407470703125 -21.50185203552246 0.8878720998764038
34.59587097167969 -21.834699630737305 0.8678239583969116
34.57017517089844 -22.11639404296875 0.8543601036071777
34.628543853759766 -22.454504013061523 0.8339126110076904
34.62401580810547 -22.754709243774414 0.818309485912323
34.573097229003906 -23.02638816833496 0.8062855005264282
34.74258804321289 -23.44843864440918 0.7759576439857483
34.759952545166016 -23.772052764892578 0.7578247785568237
34.764801025390625 -24.089942932128906 0.7404841184616089
34.75562286376953 -24.4007568359375 0.7240768074989319
34.81871795654297 -24.765562057495117 0.7013508081436157
34.813880920410156 -25.08540153503418 0.6840710639953613
34.83140182495117 -25.424341201782227 0.6646397709846497
34.82360076904297 -25.747831344604492 0.6471059918403625
34.861045837402344 -26.108064651489258 0.6254164576530457
34.86595916748047 -26.447412490844727 0.6062471270561218
34.87908172607422 -26.796310424804688 0.586082935333252
34.88135528564453 -27.140233993530273 0.5665832161903381
34.900299072265625 -27.500629425048828 0.5453238487243652
34.88571548461914 -27.8380069732666 0.5267427563667297
34.80854034423828 -28.12795639038086 0.513493537902832
34.79011917114258 -28.46791648864746 0.4947378933429718
34.896324157714844 -28.91436195373535 0.46438145637512207
34.88295364379883 -29.266357421875 0.4445170760154724
34.924346923828125 -29.66835594177246 0.4193122088909149
34.97798538208008 -30.085622787475586 0.39259716868400574
34.93828582763672 -30.42669677734375 0.3741905391216278
34.902442932128906 -30.774349212646484 0.35513415932655334
34.92763137817383 -31.179838180541992 0.3300049901008606
34.70789337158203 -31.36874008178711 0.32781878113746643
34.97212600708008 -31.9998836517334 0.27914702892303467
34.9737663269043 -32.39817428588867 0.25511425733566284
35.06859588623047 -32.8884391784668 0.2216355800628662
34.962677001953125 -33.19495391845703 0.20731127262115479
32.33743667602539 30.854949951171875 1.490339756011963
32.37391662597656 30.512828826904297 1.4963840246200562
32.3160400390625 30.086347579956055 1.508449673652649
32.45708465576172 29.84834098815918 1.5072559118270874
32.48404312133789 29.507654190063477 1.5133816003799438
32.454524993896484 29.119731903076172 1.5230023860931396
32.39606475830078 28.710765838623047 1.5342960357666016
32.544254302978516 28.487825393676758 1.532034993171692
32.557952880859375 28.149171829223633 1.5383142232894897
32.56796646118164 27.810779571533203 1.5446577072143555
32.58803939819336 27.484272003173828 1.550187349319458
32.58692932128906 27.143226623535156 1.5569044351577759
32.61448669433594 26.829246520996094 1.5616302490234375
32.62547302246094 26.504619598388672 1.5672520399093628
32.66019821166992 26.202119827270508 1.571215271949768
32.649391174316406 25.86608123779297 1.5778993368148804
32.64435577392578 25.537935256958008 1.5840600728988647
32.68236541748047 25.24623680114746 1.5873684883117676
32.6942138671875 24.936864852905273 1.592172384262085
32.712276458740234 24.634910583496094 1.5964436531066895
32.7238655090332 24.33069610595703 1.6009759902954102
32.72007751464844 24.017810821533203 1.6063196659088135
32.52848815917969 23.571683883666992 1.6231259107589722
32.586116790771484 23.310117721557617 1.6243705749511719
32.66134262084961 23.062557220458984 1.6244118213653564
32.59710693359375 22.719011306762695 1.6328985691070557
32.705162048339844 22.497690200805664 1.6306833028793335
32.705135345458984 22.20353126525879 1.6349685192108154
32.704402923583984 21.911333084106445 1.6391688585281372
32.691322326660156 21.613372802734375 1.6439920663833618
32.726844787597656 21.34968376159668 1.645734190940857
32.768768310546875 21.091779708862305 1.6469727754592896
32.76660919189453 20.807395935058594 1.6507658958435059
32.7613525390625 20.523305892944336 1.654624104499817
32.755550384521484 20.24110984802246 1.658395528793335
32.657135009765625 19.9046688079834 1.6676228046417236
32.620025634765625 19.608787536621094 1.6730307340621948
32.798728942871094 19.443466186523438 1.665366768836975
32.850746154785156 19.203105926513672 1.6652132272720337
32.882022857666016 18.951866149902344 1.6661993265151978
32.86543273925781 18.674819946289062 1.669938325881958
32.81532287597656 18.381120681762695 1.6755661964416504
32.86252212524414 18.143766403198242 1.6752798557281494
32.974708557128906 17.942800521850586 1.6710261106491089
33.01350021362305 17.702442169189453 1.6710460186004639
33.02056884765625 17.446420669555664 1.6728498935699463
33.02928161621094 17.19282341003418 1.674453854560852
33.0459098815918 16.944787979125977 1.6754887104034424
33.05539321899414 16.69449806213379 1.6768465042114258
33.071990966796875 16.44917106628418 1.6776840686798096
33.060821533203125 16.19153594970703 1.6800655126571655
33.08551788330078 15.95287036895752 1.6802297830581665
33.09590530395508 15.708517074584961 1.6811434030532837
33.111778259277344 15.468017578125 1.6816387176513672
33.127769470214844 15.22874927520752 1.6820322275161743
33.157535552978516 14.996862411499023 1.681522250175476
33.091739654541016 14.723371505737305 1.6865428686141968
33.122642517089844 14.494488716125488 1.6857802867889404
33.1217155456543 14.252755165100098 1.686799168586731
33.142066955566406 14.021305084228516 1.686476230621338
33.18202590942383 13.798959732055664 1.684912085533142
33.178916931152344 13.559652328491211 1.6857881546020508
33.218605041503906 13.338761329650879 1.684064507484436
33.094276428222656 13.0537748336792 1.6918754577636719
33.14461898803711 12.839346885681152 1.6893501281738281
33.58368682861328 12.773168563842773 1.6639418601989746
33.672386169433594 12.571117401123047 1.658998966217041
33.704551696777344 12.348190307617188 1.6572860479354858
33.7267951965332 12.122299194335938 1.6560678482055664
33.74659729003906 11.896268844604492 1.6549066305160522
33.75545883178711 11.66718864440918 1.6543021202087402
33.75238037109375 11.43492317199707 1.6543117761611938
33.76952362060547 11.210368156433105 1.6530523300170898
33.77473449707031 10.982636451721191 1.652407169342041
33.78508758544922 10.757380485534668 1.6513776779174805
33.805389404296875 10.535978317260742 1.6496806144714355
33.80323791503906 10.308320999145508 1.649219036102295
33.80147933959961 10.081657409667969 1.648651361465454
33.81834411621094 9.861271858215332 1.646907925605774
33.834739685058594 9.641331672668457 1.6451101303100586
33.84490203857422 9.420222282409668 1.6435972452163696
33.85555648803711 9.199872016906738 1.6419732570648193
33.86574172973633 8.980001449584961 1.6402958631515503
33.874507904052734 8.760351181030273 1.638621211051941
33.877017974853516 8.539708137512207 1.637235164642334
33.891666412353516 8.322698593139648 1.6350524425506592
33.90201950073242 8.105132102966309 1.633043646812439
33.90027618408203 7.885262489318848 1.6316677331924438
33.9068603515625 7.667920112609863 1.629722237586975
33.92667770385742 7.454006671905518 1.6269136667251587
33.95588684082031 7.242427825927734 1.6234692335128784
33.9583625793457 7.025510787963867 1.621526837348938
33.95945358276367 6.808835029602051 1.6195883750915527
33.967002868652344 6.593930244445801 1.617187261581421
33.963382720947266 6.377345561981201 1.6153711080551147
33.97999954223633 6.164973258972168 1.6122738122940063
33.99430465698242 5.952463626861572 1.6092338562011719
34.00727844238281 5.74000883102417 1.6061944961547852
34.01301574707031 5.5266571044921875 1.6035064458847046
34.01939392089844 5.313756942749023 1.6007025241851807
34.0214729309082 5.100541591644287 1.5980759859085083
34.03407287597656 4.889203071594238 1.5947424173355103
34.05031204223633 4.678578853607178 1.5911099910736084
34.061283111572266 4.467419624328613 1.5877134799957275
34.06599426269531 4.25568151473999 1.5846143960952759
34.07136917114258 4.044286727905273 1.581396460533142
33.52589416503906 3.77116322517395 1.6113256216049194
33.51438903808594 3.5618574619293213 1.6090192794799805
33.5810432434082 3.360786199569702 1.601908802986145
33.632568359375 3.1577234268188477 1.5956271886825562
33.65601348876953 2.9517982006073 1.5909614562988281
33.6652717590332 2.744647979736328 1.5870764255523682
33.67424392700195 2.5375685691833496 1.5831295251846313
33.67796325683594 2.330205202102661 1.5794228315353394
33.6744270324707 2.122513771057129 1.5760823488235474
33.660640716552734 1.9144413471221924 1.5732903480529785
33.672481536865234 1.707982063293457 1.568852424621582
13.045430183410645 0.5812487006187439 2.8321635723114014
13.021721839904785 0.5001817345619202 2.832123279571533
13.01147747039795 0.41987812519073486 2.831228017807007
33.73212814331055 0.8821262717247009 1.549527883529663
33.73563766479492 0.6751773357391357 1.5451946258544922
12.81810188293457 0.17762507498264313 2.838460683822632
12.760965347290039 0.09854656457901001 2.8403875827789307
33.76350021362305 0.054333534091711044 1.5306329727172852
12.683168411254883 -0.05765743926167488 2.8419175148010254
12.664514541625977 -0.1352635771036148 2.841386079788208
33.792903900146484 -0.567539393901825 1.5152249336242676
12.793411254882812 -0.2936364412307739 2.8298046588897705
33.81477737426758 -0.9829844236373901 1.5043878555297852
33.82279968261719 -1.1909115314483643 1.4990237951278687
33.830535888671875 -1.3990167379379272 1.4935929775238037
12.579588890075684 -0.59780353307724 2.8359482288360596
12.993143081665039 -0.6973521113395691 2.8077645301818848
12.86000919342041 -0.7693548202514648 2.814251184463501
12.876852989196777 -0.8496682643890381 2.8111684322357178
33.86391067504883 -2.4425103664398193 1.465478777885437
12.518030166625977 -0.9803913235664368 2.8300819396972656
33.8845329284668 -2.862292528152466 1.4531501531600952
33.881961822509766 -3.071526288986206 1.4476820230484009
12.763769149780273 -1.2363439798355103 2.8079421520233154
13.25019359588623 -1.365544319152832 2.7742066383361816
13.452757835388184 -1.4698750972747803 2.7587270736694336
13.812151908874512 -1.5949382781982422 2.732914924621582
33.93387222290039 -4.128945827484131 1.4147869348526
13.2083101272583 -1.6896973848342896 2.7675130367279053
33.97107696533203 -4.557127952575684 1.399888038635254
33.976783752441406 -4.770274639129639 1.3931410312652588
33.97917556762695 -4.98337459564209 1.3865176439285278
33.99009323120117 -5.198193073272705 1.379233479499817
33.99472427368164 -5.412550449371338 1.3722680807113647
34.026546478271484 -5.6318864822387695 1.3633912801742554
34.00680160522461 -5.843201160430908 1.3578555583953857
29.2645263671875 -5.21347188949585 1.669221043586731
34.03303909301758 -6.278587341308594 1.3420910835266113
34.05043411254883 -6.498074054718018 1.3337634801864624
34.02725601196289 -6.710289001464844 1.3280779123306274
33.96462631225586 -6.914703845977783 1.3249834775924683
33.92615509033203 -7.123935699462891 1.3201658725738525
33.938079833984375 -7.344141483306885 1.3118160963058472
33.9407844543457 -7.5630269050598145 1.303990125656128
34.010154724121094 -7.797830581665039 1.2914677858352661
34.03712463378906 -8.024155616760254 1.2817370891571045
34.06841278076172 -8.25251579284668 1.271587610244751
34.066226959228516 -8.473616600036621 1.2636455297470093
34.103206634521484 -8.705364227294922 1.2528597116470337
34.098079681396484 -8.927273750305176 1.244896650314331
34.12812423706055 -9.15927505493164 1.234350323677063
34.12678146362305 -9.383783340454102 1.2258920669555664
34.11052322387695 -9.60483455657959 1.2183760404586792
34.13692855834961 -9.838750839233398 1.207721471786499
34.13494873046875 -10.065452575683594 1.1989614963531494
34.121917724609375 -10.289620399475098 1.1908750534057617
34.160804748535156 -10.53046703338623 1.178946614265442
34.16756820678711 -10.76258659362793 1.1691930294036865
34.164215087890625 -10.992436408996582 1.1600466966629028
34.14415740966797 -11.217669486999512 1.1519920825958252
34.143428802490234 -11.450048446655273 1.1424144506454468
34.17605209350586 -11.694792747497559 1.1302680969238281
34.189056396484375 -11.934122085571289 1.1194169521331787
34.16187286376953 -12.160335540771484 1.1113965511322021
34.142574310302734 -12.390069007873535 1.1026755571365356
34.2929573059082 -12.683348655700684 1.0812058448791504
34.30192184448242 -12.926525115966797 1.0700764656066895
34.31664276123047 -13.173149108886719 1.0583750009536743
34.3351936340332 -13.422619819641113 1.0462361574172974
34.32973098754883 -13.663961410522461 1.0357626676559448
34.354026794433594 -13.918476104736328 1.022889256477356
34.34696960449219 -14.161636352539062 1.0122488737106323
