# .PCD v0.7 - Point Cloud Data file format
VERSION 0.7
FIELDS x y z
SIZE 4 4 4
TYPE F F F
COUNT 1 1 1
WIDTH 853
HEIGHT 1
VIEWPOINT 0 0 0 1 0 0 0
POINTS 853
DATA ascii
15.760087966918945 -1.870802402496338 0.2764839231967926
15.865344047546387 -1.9820905923843384 0.24934010207653046
15.835960388183594 -2.077188491821289 0.2507798671722412
16.00661849975586 -2.1995644569396973 0.20927824079990387
15.95849323272705 -2.292819023132324 0.2144392877817154
15.855655670166016 -2.3774478435516357 0.23124286532402039
15.773650169372559 -2.4642252922058105 0.24349826574325562
15.962479591369629 -2.5941717624664307 0.19732904434204102
16.031660079956055 -2.706505060195923 0.176705002784729
16.06825828552246 -2.814218521118164 0.16293135285377502
16.133968353271484 -2.92789888381958 0.14268605411052704
16.039318084716797 -3.0125279426574707 0.1570294350385666
15.99128532409668 -3.105243444442749 0.16117249429225922
15.988747596740723 -3.2067158222198486 0.15530504286289215
15.983649253845215 -3.30787992477417 0.14985257387161255
15.961649894714355 -3.4056365489959717 0.14795099198818207
12.650955200195312 12.267020225524902 0.1117568239569664
13.77664566040039 9.648285865783691 0.2288932502269745
13.799663543701172 9.53909683227539 0.23590964078903198
13.803414344787598 9.294137001037598 0.25968706607818604
13.839329719543457 9.195752143859863 0.2629305422306061
13.85079288482666 9.081690788269043 0.2719433307647705
13.888532638549805 8.98539924621582 0.27438774704933167
13.954522132873535 8.907443046569824 0.26985472440719604
14.07551097869873 8.625161170959473 0.2739526033401489
14.122693061828613 8.535639762878418 0.27338019013404846
14.167622566223145 8.444857597351074 0.2732006907463074
14.210280418395996 8.352849960327148 0.2734154462814331
14.25997257232666 8.265055656433105 0.2718251645565033
14.297213554382324 8.170157432556152 0.2730289101600647
16.173357009887695 0.7687314748764038 0.17077142000198364
15.732145309448242 0.5544620156288147 0.26273709535598755
12.876936912536621 -0.6527950167655945 0.8485020399093628
12.848912239074707 -0.730424165725708 0.8518915772438049
12.868218421936035 -0.8107427358627319 0.8449205756187439
15.854535102844238 -1.980209469795227 0.15547916293144226
15.7389497756958 -2.0639450550079346 0.17597106099128723
15.809758186340332 -2.171990394592285 0.15536174178123474
15.80535888671875 -2.270293712615967 0.15115027129650116
15.873778343200684 -2.379629373550415 0.1307220458984375
15.875804901123047 -2.479645252227783 0.12479005753993988
15.771036148071289 -2.661985158920288 0.13664159178733826
13.801783561706543 9.286121368408203 0.1670241802930832
13.858857154846191 9.201849937438965 0.16509011387825012
13.863018035888672 9.082883834838867 0.17622603476047516
13.889259338378906 8.979095458984375 0.181642547249794
13.94033432006836 8.891646385192871 0.1807171255350113
13.925415992736816 8.762714385986328 0.1959526240825653
14.063021659851074 8.259811401367188 0.21687915921211243
15.769441604614258 0.5506653189659119 0.16533133387565613
12.848014831542969 -0.7346931099891663 0.779032289981842
12.871152877807617 -0.8152564764022827 0.7710611820220947
15.661182403564453 -1.863693118095398 0.11298345774412155
15.66933536529541 -1.9622461795806885 0.10634525120258331
15.627522468566895 -2.0544910430908203 0.11083366721868515
12.844441413879395 -0.7196508646011353 0.7002201676368713
12.868598937988281 -0.8002229928970337 0.6918598413467407
12.84151840209961 -0.7258403301239014 0.6179826259613037
12.856840133666992 -0.805855929851532 0.6115012764930725
12.837175369262695 -0.7230162024497986 0.538567841053009
12.853446006774902 -0.803057849407196 0.5317316651344299
12.842948913574219 -0.7254475951194763 0.46581071615219116
12.845601081848145 -0.8046770095825195 0.46221402287483215
12.83386516571045 -0.7146275043487549 0.38986873626708984
12.84237003326416 -0.7941544055938721 0.38475868105888367
12.826726913452148 -0.7160211801528931 0.3057042360305786
12.83615493774414 -0.7955631017684937 0.3002585470676422
12.819113731384277 -0.713053822517395 0.22882211208343506
12.857468605041504 -0.7943282127380371 0.2155931293964386
12.807219505310059 -0.7167685031890869 0.16228902339935303
12.87149429321289 -0.7995891571044922 0.14177857339382172
12.663159370422363 12.743040084838867 1.2907830476760864
12.677539825439453 12.668964385986328 1.2950913906097412
12.772167205810547 12.763835906982422 0.37422916293144226
12.702131271362305 12.605430603027344 1.29756760597229
12.793662071228027 12.696642875671387 0.378886342048645
12.715829849243164 12.5314302444458 1.301876425743103
12.669217109680176 12.485956192016602 0.4189782738685608
12.74374771118164 12.467412948608398 1.3040016889572144
12.732245445251465 12.456687927246094 0.41377848386764526
12.76743221282959 12.40385627746582 1.3064759969711304
12.783684730529785 12.333395957946777 1.3101738691329956
12.806770324707031 12.269837379455566 1.3126473426818848
31.022310256958008 29.53173065185547 0.33503153920173645
12.823851585388184 12.205084800720215 1.3157776594161987
31.077835083007812 29.37877082824707 0.3376542031764984
12.84095287322998 12.136411666870117 1.3191694021224976
31.059955596923828 29.15753173828125 0.34765422344207764
12.868584632873535 12.07795238494873 1.3207223415374756
12.90052604675293 12.108834266662598 0.4289686977863312
32.349151611328125 30.154800415039062 2.3992977142333984
12.885077476501465 12.009298324584961 1.3241139650344849
12.926253318786621 12.048641204833984 0.4319164752960205
32.40797805786133 29.988540649414062 2.3986618518829346
31.119035720825195 28.79745101928711 0.35815033316612244
12.91242790222168 11.946849822998047 1.325926423072815
12.953797340393066 11.986154556274414 0.4348175525665283
32.48657989501953 29.851591110229492 2.397263526916504
31.20075035095215 28.67182159423828 0.3578174412250519
12.931946754455566 11.881584167480469 1.3287039995193481
12.968108177185059 11.9158935546875 0.4403321444988251
32.51108932495117 29.665607452392578 2.397674322128296
31.31511688232422 28.576217651367188 0.3541487753391266
12.95116901397705 11.816325187683105 1.3314813375473022
12.989364624023438 11.85231876373291 0.44413405656814575
32.534690856933594 29.479816436767578 2.3980886936187744
12.977448463439941 11.757741928100586 1.333029866218567
13.006684303283691 11.785431861877441 0.4487922191619873
32.50584411621094 29.25810432434082 2.4001901149749756
12.992222785949707 11.693085670471191 1.3361592292785645
13.032648086547852 11.730724334716797 0.4509248435497284
32.46977233886719 29.021251678466797 2.4025650024414062
13.012433052062988 11.629498481750488 1.3386282920837402
13.051237106323242 11.665492057800293 0.4551534950733185
32.462345123291016 28.81154441833496 2.4039416313171387
13.09064769744873 11.62057113647461 2.197545289993286
13.030505180358887 11.564269065856934 1.3414047956466675
13.069530487060547 11.600271224975586 0.459382563829422
32.53636169433594 28.67495346069336 2.4025449752807617
13.110443115234375 11.556689262390137 2.198667526245117
13.05944538116455 11.508893013000488 1.3423351049423218
13.098614692687988 11.54483413696289 0.46103766560554504
32.591007232666016 28.521739959716797 2.4017767906188965
13.135581970214844 11.497735977172852 2.1992321014404297
13.078824043273926 11.445286750793457 1.3448026180267334
13.112643241882324 11.476360321044922 0.4661237895488739
32.60536193847656 28.334064483642578 2.4023406505584717
13.149178504943848 11.428936004638672 2.200911045074463
13.0941743850708 11.37843132019043 1.3478857278823853
13.137508392333984 11.417619705200195 0.46863535046577454
32.628273010253906 28.154800415039062 2.402590274810791
13.171895980834961 11.368328094482422 2.20166015625
13.116729736328125 11.318090438842773 1.3497370481491089
13.158395767211914 11.355627059936523 0.47200411558151245
32.61806106567383 27.94808578491211 2.403926372528076
13.192451477050781 11.306074142456055 2.2025949954986572
13.137140274047852 11.256114959716797 1.351896047592163
13.186491966247559 11.300037384033203 0.47365492582321167
32.63536071777344 27.766071319580078 2.4043116569519043
13.210840225219727 11.242201805114746 2.2037153244018555
13.162948608398438 11.198958396911621 1.3531291484832764
13.19935417175293 11.231620788574219 0.4787406921386719
32.646060943603516 27.57944107055664 2.404892683029175
13.240368843078613 11.187992095947266 2.2037172317504883
13.188517570495605 11.141756057739258 1.3543610572814941
13.221307754516602 11.1712007522583 0.4816782474517822
32.650108337402344 27.388256072998047 2.405670404434204
13.26012897491455 11.125699996948242 2.2046499252319336
13.208145141601562 11.079731941223145 1.3565176725387573
13.243000030517578 11.110760688781738 0.48461565375328064
32.65898895263672 27.202177047729492 2.4062602519989014
13.279617309570312 11.063406944274902 2.2055823802948
13.225595474243164 11.016115188598633 1.3589824438095093
13.268218040466309 11.053458213806152 0.486691951751709
32.66311264038086 27.01318359375 2.406984567642212
13.29883098602295 11.001111030578613 2.206514358520508
13.246587753295898 10.95567512512207 1.360829472541809
13.287504196166992 10.991405487060547 0.49005743861198425
32.68258285522461 26.828311920166016 2.4072110652923584
13.321602821350098 10.938076972961426 2.207212209701538
13.273046493530273 10.896056175231934 1.3620113134384155
13.312219619750977 10.930154800415039 0.49251532554626465
32.68293380737305 26.6383113861084 2.408008575439453
13.338335990905762 10.874200820922852 2.2083306312561035
13.295440673828125 10.837139129638672 1.3635478019714355
13.334783554077148 10.871200561523438 0.4950188100337982
32.69790267944336 26.461210250854492 2.408294677734375
13.364473342895508 10.818181991577148 2.208512306213379
13.311800956726074 10.773519515991211 1.3660112619400024
13.349441528320312 10.806021690368652 0.49924394488334656
32.69965362548828 26.283777236938477 2.4089579582214355
13.380738258361816 10.758200645446777 2.2094898223876953
13.33375358581543 10.718457221984863 1.3672839403152466
13.3657808303833 10.74628734588623 0.5026549696922302
32.70514678955078 26.100915908813477 2.4095118045806885
13.410306930541992 10.705224990844727 2.209294557571411
13.353461265563965 10.657944679260254 1.369127869606018
13.391426086425781 10.690375328063965 0.5042954087257385
32.72151184082031 25.927648544311523 2.4096791744232178
13.427942276000977 10.64288330078125 2.210223436355591
13.37485408782959 10.59896469116211 1.3706613779067993
13.4091215133667 10.628293991088867 0.5076586604118347
32.725276947021484 25.74531364440918 2.4102413654327393
13.445306777954102 10.580547332763672 2.2111523151397705
13.390151023864746 10.53536319732666 1.3731238842010498
13.43428897857666 10.572311401367188 0.5092968940734863
32.73605728149414 25.569425582885742 2.4105465412139893
13.470261573791504 10.524359703063965 2.2113289833068848
13.414938926696777 10.479414939880371 1.3740367889404297
13.449528694152832 10.50870132446289 0.5130898952484131
32.74007797241211 25.38918113708496 2.41105318069458
13.483163833618164 10.458959579467773 2.2126331329345703
13.433621406555176 10.418865203857422 1.3758783340454102
13.476162910461426 10.454168319702148 0.514295220375061
32.74522399902344 25.21074104309082 2.4114990234375
13.509604454040527 10.404242515563965 2.2126197814941406
13.457941055297852 10.3628511428833 1.3767889738082886
13.498678207397461 10.39657211303711 0.5163617730140686
32.75348663330078 25.035614013671875 2.4118173122406006
13.525924682617188 10.341899871826172 2.2135472297668457
13.47218132019043 10.299261093139648 1.3792502880096436
13.509218215942383 10.329974174499512 0.5210171341896057
32.76328659057617 24.8535099029541 2.4120900630950928
13.549717903137207 10.28172492980957 2.2138607501983643
13.49384593963623 10.237841606140137 1.3807322978973389
13.534972190856934 10.27148723602295 0.5226030945777893
32.771873474121094 24.680389404296875 2.4123504161834717
13.569487571716309 10.22238540649414 2.2144100666046143
13.523384094238281 10.186223030090332 1.3807083368301392
13.541006088256836 10.20197868347168 0.52812260389328
32.77164840698242 24.501537322998047 2.412881374359131
13.589005470275879 10.163030624389648 2.214958667755127
13.534844398498535 10.1211519241333 1.3834794759750366
13.554607391357422 10.138453483581543 0.531915545463562
32.72821044921875 24.300390243530273 2.4147961139678955
13.608518600463867 10.107524871826172 2.2153658866882324
13.556220054626465 10.067359924316406 1.3844335079193115
13.570137977600098 10.080259323120117 0.5348924398422241
32.60149002075195 24.030344009399414 2.41947078704834
13.63156509399414 10.051101684570312 2.2155354022979736
13.579127311706543 10.01116943359375 1.3853386640548706
13.601040840148926 10.029932022094727 0.5347947478294373
32.46320724487305 23.754100799560547 2.4245033264160156
13.644330978393555 9.987282752990723 2.2166495323181152
13.599802017211914 9.953474044799805 1.3865537643432617
13.67547607421875 10.011507034301758 0.5251801609992981
32.42854309082031 23.555490493774414 2.4260799884796143
13.66487979888916 9.929352760314941 2.2170069217681885
13.618240356445312 9.894301414489746 1.388079285621643
32.520599365234375 23.449491500854492 2.4234423637390137
13.689238548278809 9.874320983886719 2.216984272003174
13.636425971984863 9.835118293762207 1.3896045684814453
32.51070785522461 23.270408630371094 2.42415714263916
13.707297325134277 9.814885139465332 2.217529296875
13.66445255279541 9.783148765563965 1.3895710706710815
13.684764862060547 9.800457000732422 0.5426059365272522
32.56513977050781 23.137996673583984 2.422722339630127
13.733235359191895 9.761219024658203 2.2173147201538086
13.680147171020508 9.722480773925781 1.3914066553115845
13.680522918701172 9.725550651550293 0.5498616099357605
32.55778503417969 22.9622802734375 2.4233109951019287
13.752507209777832 9.699344635009766 2.2178094387054443
13.709428787231445 9.668009757995605 1.3913215398788452
13.689676284790039 9.656922340393066 0.5544719099998474
32.606689453125 22.809917449951172 2.4220497608184814
13.779680252075195 9.643177032470703 2.217542886734009
13.724268913269043 9.603500366210938 1.3934189081192017
13.724735260009766 9.606708526611328 0.5534499883651733
32.614158630371094 22.646106719970703 2.4221036434173584
13.80495834350586 9.589347839355469 2.2173240184783936
13.74734878540039 9.548481941223145 1.3940043449401855
13.741772651672363 9.547530174255371 0.5559417605400085
32.57561111450195 22.451322555541992 2.4236562252044678
13.821818351745605 9.529800415039062 2.217865228652954
13.770215034484863 9.493419647216797 1.3945878744125366
13.76667594909668 9.493937492370605 0.5566987991333008
32.525787353515625 22.250032424926758 2.4255599975585938
13.836373329162598 9.468843460083008 2.2185964584350586
13.78876781463623 9.435511589050293 1.3957958221435547
13.970172882080078 9.562654495239258 0.5192834138870239
32.516605377197266 22.08591651916504 2.4260895252227783
13.861405372619629 9.418722152709961 2.2182328701019287
13.80340576171875 9.378605842590332 1.397364854812622
14.172640800476074 9.632536888122559 0.4818906784057617
32.54987716674805 21.942974090576172 2.425210475921631
13.87342357635498 9.356362342834473 2.219154119491577
13.833829879760742 9.329000473022461 1.3966948986053467
14.199816703796387 9.578902244567871 0.48218366503715515
32.582550048828125 21.80006980895996 2.424330472946167
13.903815269470215 9.30650806427002 2.2183573246002197
13.847588539123535 9.268260955810547 1.3985260725021362
14.059024810791016 9.412893295288086 0.5180783271789551
32.535911560058594 21.61311912536621 2.426039457321167
13.922039985656738 9.252090454101562 2.218562364578247
13.87188720703125 9.218192100524902 1.3985278606414795
13.91769790649414 9.251773834228516 0.5536107420921326
32.46290588378906 21.40178871154785 2.4286060333251953
13.9395751953125 9.193848609924316 2.2189090251922607
13.895526885986328 9.164274215698242 1.3987923860549927
13.939399719238281 9.196381568908691 0.5547910928726196
32.4139289855957 21.207651138305664 2.4303605556488037
13.961044311523438 9.138325691223145 2.218872308731079
13.916882514953613 9.108942985534668 1.3993690013885498
13.952644348144531 9.135558128356934 0.5577090382575989
32.42267608642578 21.052223205566406 2.4301915168762207
13.976024627685547 9.078695297241211 2.2194089889526367
13.925542831420898 9.045469284057617 1.4018253087997437
13.963570594787598 9.07341194152832 0.5610616207122803
32.45958709716797 20.907567977905273 2.4290783405303955
14.004900932312012 9.024727821350098 2.218745470046997
13.948002815246582 8.987677574157715 1.4023503065109253
14.00683307647705 9.0288667678833 0.5578412413597107
32.524436950683594 20.797149658203125 2.4270169734954834
14.017848014831543 8.967508316040039 2.2193310260772705
13.973386764526367 8.938720703125 1.402032732963562
14.00537395477295 8.962491989135742 0.5634173154830933
32.57985305786133 20.672815322875977 2.4252524375915527
14.053165435791016 8.921212196350098 2.2179462909698486
13.989677429199219 8.880609512329102 1.4032334089279175
14.015555381774902 8.90037727355957 0.5667701959609985
32.6087646484375 20.524011611938477 2.4243428707122803
14.068778991699219 8.859039306640625 2.2184300422668457
14.009360313415527 8.821370124816895 1.404068946838379
14.158247947692871 8.91850757598877 0.5426445007324219
32.63347244262695 20.380971908569336 2.423550605773926
14.095280647277832 8.807251930236816 2.2178096771240234
14.039896965026855 8.772435188293457 1.4030685424804688
14.209935188293457 8.882102966308594 0.5372782349586487
32.52375030517578 20.15508270263672 2.427170991897583
14.110998153686523 8.748822212219238 2.2181499004364014
14.057615280151367 8.715553283691406 1.4039522409439087
14.399622917175293 8.931070327758789 0.5031521916389465
32.49161911010742 19.978635787963867 2.428215265274048
14.137096405029297 8.696916580200195 2.21752667427063
14.085672378540039 8.665153503417969 1.4032621383666992
14.411604881286621 8.86916732788086 0.5060455799102783
32.46586227416992 19.814830780029297 2.429032325744629
14.148735046386719 8.639615058898926 2.218108654022217
14.10146713256836 8.610661506652832 1.4041938781738281
32.5283203125 19.697532653808594 2.42692232131958
14.180830001831055 8.591484069824219 2.2169039249420166
14.124902725219727 8.557552337646484 1.404130220413208
32.515377044677734 19.53499984741211 2.427278757095337
14.19566822052002 8.53296184539795 2.217241048812866
14.146017074584961 8.503108024597168 1.404380202293396
32.45231628417969 19.343368530273438 2.429269313812256
14.223118782043457 8.482098579406738 2.216418504714966
14.164791107177734 8.447348594665527 1.4049437046051025
14.178531646728516 8.459139823913574 0.5748420357704163
32.403377532958984 19.16131591796875 2.430777072906494
14.239659309387207 8.424802780151367 2.2165606021881104
14.187620162963867 8.394086837768555 1.4048759937286377
14.188676834106445 8.398338317871094 0.5777564644813538
32.41938400268555 19.010852813720703 2.4301187992095947
14.26387882232666 8.368791580200195 2.2160706520080566
14.207418441772461 8.335779190063477 1.4053871631622314
14.20425796508789 8.337583541870117 0.5797467231750488
32.43792724609375 18.869964599609375 2.429363965988159
14.29289436340332 8.31896686553955 2.2150492668151855
14.234114646911621 8.28490924835205 1.4046852588653564
14.224535942077637 8.283020973205566 0.5804771184921265
32.497005462646484 18.752904891967773 2.427255153656006
14.317419052124023 8.26655101776123 2.2144129276275635
14.254186630249023 8.230234146118164 1.4049288034439087
14.240344047546387 8.225956916809082 0.5820801258087158
32.61638259887695 18.67041778564453 2.4231369495391846
14.330936431884766 8.207870483398438 2.214745044708252
14.278355598449707 8.177983283996582 1.4045392274856567
14.2900972366333 8.188461303710938 0.5766879916191101
32.68671417236328 18.567123413085938 2.420628786087036
14.355807304382324 8.159089088439941 2.213963508605957
14.296611785888672 8.125710487365723 1.4048315286636353
14.310535430908203 8.137401580810547 0.577026903629303
32.71856689453125 18.43454360961914 2.419363021850586
14.394947052001953 8.11506462097168 2.2119626998901367
14.318238258361816 8.072125434875488 1.4047553539276123
14.304319381713867 8.068081855773926 0.5830003619194031
32.77606964111328 18.316598892211914 2.4172332286834717
14.423078536987305 8.064785957336426 2.210930347442627
14.34399700164795 8.020907402038574 1.4040449857711792
14.345054626464844 8.025335311889648 0.5793488621711731
32.79281997680664 18.183603286743164 2.416442394256592
14.392038345336914 7.985346794128418 1.3999017477035522
14.371370315551758 7.977746486663818 0.5783712863922119
32.88227081298828 18.083505630493164 2.413221597671509
32.9670295715332 17.98061180114746 2.4101362228393555
14.951375007629395 8.159415245056152 2.168109178543091
33.03260803222656 17.85969352722168 2.40765118598938
14.940317153930664 8.083036422729492 1.3292135000228882
33.0197639465332 17.704166412353516 2.4077539443969727
33.0658073425293 17.580617904663086 2.4058926105499268
33.07603073120117 17.43832015991211 2.405197858810425
27.79372787475586 14.66073226928711 1.0346388816833496
33.07902145385742 17.292692184448242 2.404726028442383
27.78269386291504 14.531319618225098 1.0381205081939697
33.103580474853516 17.158750534057617 2.4035227298736572
27.80207061767578 14.41822338104248 1.0388654470443726
33.109825134277344 17.01571273803711 2.4029078483581543
27.803266525268555 14.296051025390625 1.0411787033081055
33.10879898071289 16.86943817138672 2.4025180339813232
27.835033416748047 14.18989372253418 1.040747880935669
33.12568664550781 16.725486755371094 2.401494264602661
33.12789535522461 16.581825256347656 2.4009618759155273
33.13175582885742 16.439464569091797 2.4003589153289795
33.143985748291016 16.301687240600586 2.399461269378662
33.13936996459961 16.16324234008789 2.3991312980651855
33.15498733520508 16.027923583984375 2.3980889320373535
33.14527893066406 15.880814552307129 2.3978707790374756
32.62404251098633 15.639863967895508 0.6357687711715698
33.16202926635742 15.746832847595215 2.396756887435913
32.60166931152344 15.489570617675781 0.6401302218437195
33.16242599487305 15.605472564697266 2.3961713314056396
32.736480712890625 15.413930892944336 0.6306644678115845
33.17356872558594 15.469593048095703 2.3952107429504395
32.98182678222656 15.389166831970215 0.6114901900291443
33.18229675292969 15.325932502746582 2.3942837715148926
33.116943359375 15.304808616638184 0.6020628213882446
33.192317962646484 15.190286636352539 2.3933277130126953
33.15180206298828 15.180856704711914 0.6012584567070007
33.197242736816406 15.052695274353027 2.3925254344940186
33.183937072753906 15.055816650390625 0.6006496548652649
33.206172943115234 14.917301177978516 2.3915727138519287
33.190589904785156 14.919500350952148 0.6022224426269531
33.209999084472656 14.779995918273926 2.3907742500305176
33.19442367553711 14.782303810119629 0.6039965748786926
33.21528625488281 14.65065860748291 2.389946222305298
33.18376541137695 14.646024703979492 0.60688716173172
33.21804428100586 14.513652801513672 2.389153480529785
33.17736053466797 14.505188941955566 0.6094627976417542
33.2225341796875 14.377796173095703 2.3882856369018555
33.18868637084961 14.372496604919434 0.6104493737220764
33.2195930480957 14.239131927490234 2.3876519203186035
33.169708251953125 14.227129936218262 0.6140280365943909
33.229888916015625 14.106521606445312 2.3865582942962646
33.170772552490234 14.090843200683594 0.6158179044723511
33.23505783081055 13.972076416015625 2.385622024536133
33.16668701171875 13.952784538269043 0.6180099248886108
33.25133514404297 13.835805892944336 2.3842573165893555
33.2104606628418 13.828299522399902 0.6160891056060791
33.248497009277344 13.69874382019043 2.3835561275482178
33.2237434387207 13.698083877563477 0.6166850924491882
33.25204849243164 13.564704895019531 2.3826255798339844
33.24574279785156 13.571708679199219 0.6164814233779907
33.25041580200195 13.43567180633545 2.3818953037261963
33.26955032348633 13.453020095825195 0.6159968376159668
33.2552490234375 13.30285358428955 2.3808910846710205
33.272117614746094 13.319250106811523 0.6173962354660034
33.199153900146484 13.146247863769531 2.381922960281372
33.209285736083984 13.159926414489746 0.6244139075279236
33.177276611328125 13.003873825073242 2.3817899227142334
33.131839752197266 12.995744705200195 0.6326493620872498
33.17344284057617 12.869040489196777 2.3810343742370605
33.16283416748047 12.874643325805664 0.6314533352851868
33.21572494506836 12.752299308776855 2.3787081241607666
33.19105911254883 12.752588272094727 0.6304565072059631
33.75918197631836 12.550405502319336 2.357487440109253
33.76097869873047 12.56109619140625 0.5853998064994812
33.71825408935547 12.401473045349121 2.3578951358795166
33.77165222167969 12.431164741516113 0.5857748985290527
33.8011589050293 12.298253059387207 2.354095458984375
33.7841682434082 12.302163124084473 0.5859491229057312
33.789939880371094 12.16750717163086 2.353517770767212
33.81752395629883 12.187566757202148 0.5842251777648926
33.79915237426758 12.037781715393066 2.352181911468506
33.79155349731445 12.04522705078125 0.5876365303993225
33.79608154296875 11.903989791870117 2.351247787475586
33.804969787597656 11.917302131652832 0.5876114368438721
33.80664825439453 11.775294303894043 2.3498356342315674
33.80377197265625 11.784505844116211 0.5888031125068665
33.81673049926758 11.646672248840332 2.348423957824707
33.80677795410156 11.653488159179688 0.5895914435386658
33.8239631652832 11.517317771911621 2.3470942974090576
33.79276657104492 11.51696491241455 0.5918033123016357
33.83307647705078 11.3888521194458 2.345684766769409
33.82072830200195 11.394999504089355 0.5903615951538086
33.829837799072266 11.25651741027832 2.3446805477142334
33.815147399902344 11.261957168579102 0.5917646884918213
33.849395751953125 11.12546443939209 2.3428263664245605
33.82991409301758 11.129422187805176 0.5914205312728882
33.83326721191406 10.989521026611328 2.3422327041625977
33.83751678466797 11.00129222869873 0.5916075110435486
33.85942459106445 10.867568969726562 2.340177536010742
33.8422737121582 10.87248420715332 0.5919988751411438
33.85231018066406 10.741658210754395 2.3393054008483887
33.8470458984375 10.750433921813965 0.5923112630844116
33.853736877441406 10.612249374389648 2.338066577911377
33.853233337402344 10.622566223144531 0.5925012826919556
33.85466766357422 10.482961654663086 2.3368310928344727
33.85893630981445 10.494782447814941 0.5926921963691711
33.8664665222168 10.350810050964355 2.3351457118988037
33.86595153808594 10.361181259155273 0.5927615761756897
33.85444641113281 10.218124389648438 2.334324359893799
33.868289947509766 10.232856750488281 0.5931601524353027
33.87543869018555 10.095641136169434 2.3323512077331543
33.86537170410156 10.103219032287598 0.5939699411392212
33.874412536621094 9.966787338256836 2.3311221599578857
33.86674118041992 9.97513198852539 0.5943723917007446
33.89278793334961 9.850250244140625 2.329272747039795
33.875492095947266 9.855850219726562 0.594079315662384
33.88123321533203 9.718827247619629 2.328378200531006
33.87832260131836 9.728645324707031 0.5942793488502502
33.88599395751953 9.592368125915527 2.326904535293579
33.88787078857422 9.603578567504883 0.593863844871521
33.89751052856445 9.468009948730469 2.3251824378967285
33.889766693115234 9.47654914855957 0.5940659642219543
33.89411926269531 9.339706420898438 2.3239612579345703
33.89838409423828 9.35161018371582 0.5936522483825684
33.89934539794922 9.224763870239258 0.5938568711280823
33.9118537902832 9.101252555847168 0.5930318236351013
33.91160202026367 8.957377433776855 2.319180488586426
33.91584014892578 8.96929931640625 0.5929094552993774
33.91596221923828 8.832056999206543 2.3176302909851074
33.93224334716797 8.847126007080078 0.5916718244552612
33.919864654541016 8.706816673278809 2.3160808086395264
33.92890548706055 8.719986915588379 0.5920878648757935
33.942684173583984 8.586556434631348 2.3138556480407715
33.93959045410156 8.596648216247559 0.5912650227546692
33.922386169433594 8.461889266967773 2.3131940364837646
33.92176818847656 8.472624778747559 0.5928440093994141
33.9443359375 8.34167194366455 2.3109688758850098
33.943641662597656 8.352417945861816 0.5909864902496338
33.934288024902344 8.213763236999512 2.309847831726074
33.94089126586914 8.226295471191406 0.591201663017273
33.957794189453125 8.094134330749512 2.307537078857422
33.9425163269043 8.101449966430664 0.5910037755966187
33.94438171386719 7.96588134765625 2.3065056800842285
33.96308135986328 7.9812517166137695 0.5891437530517578
33.9635124206543 7.83920431137085 2.3042402267456055
33.94816970825195 7.846662521362305 0.5902793407440186
33.971073150634766 7.7162065505981445 2.302440643310547
33.967838287353516 7.726497650146484 0.5884198546409607
33.956241607666016 7.588350772857666 2.3014163970947266
33.96763229370117 7.601937770843506 0.5882254242897034
33.9775390625 7.468735218048096 2.299102306365967
33.981563568115234 7.480686187744141 0.5867812633514404
33.97515869140625 7.350242614746094 2.2976882457733154
33.97431182861328 7.361140727996826 0.5871307849884033
33.98828887939453 7.229036808013916 2.2956316471099854
33.994693756103516 7.241507053375244 0.5850600004196167
33.99120330810547 7.105783939361572 2.293922185897827
33.99028396606445 7.116714954376221 0.5850786566734314
34.00102233886719 6.984107494354248 2.2919516563415527
34.00004959106445 6.995053768157959 0.5838431119918823
34.007938385009766 6.861953258514404 2.290069580078125
33.987396240234375 6.868968963623047 0.5844926238059998
34.00579071044922 6.731961250305176 2.2884109020233154
33.99500274658203 6.741004943847656 0.5833438038825989
34.01426315307617 6.610391616821289 2.2864413261413574
34.0009765625 6.619009017944336 0.5823193788528442
34.016273498535156 6.493844985961914 2.2847719192504883
34.010284423828125 6.5039215087890625 0.5810004472732544
34.018985748291016 6.371420860290527 2.2829782962799072
33.99338150024414 6.377857208251953 0.5818678140640259
34.03108215332031 6.250862121582031 2.2808337211608887
34.01521301269531 6.259200572967529 0.5793732404708862
34.02554702758789 6.127197265625 2.279306411743164
34.03662109375 6.140468120574951 0.5768763422966003
34.0490837097168 6.00885534286499 2.276719808578491
34.02818298339844 6.016458511352539 0.5769069790840149
34.03876876831055 5.878528118133545 2.275244951248169
34.052215576171875 5.8921661376953125 0.5740717649459839
34.044189453125 5.757208824157715 2.2732768058776855
34.05516052246094 5.770395278930664 0.5730485320091248
34.04081344604492 5.6406402587890625 2.2717010974884033
34.04930877685547 5.6533918380737305 0.5727843642234802
34.0355339050293 5.517817497253418 2.2700905799865723
34.0514030456543 5.531749725341797 0.5717628598213196
34.0520133972168 5.398619651794434 2.2676777839660645
34.048133850097656 5.409379959106445 0.5711649060249329
34.05080032348633 5.27669620513916 2.265890121459961
34.05426788330078 5.288626670837402 0.5697210431098938
34.06397247314453 5.15709114074707 2.2635657787323
34.030426025390625 5.1634135246276855 0.5708205103874207
34.076717376708984 5.03745698928833 2.261240005493164
34.048011779785156 5.04463529586792 0.5683180093765259
34.0742073059082 4.915656566619873 2.259453058242798
34.0528564453125 4.924014091491699 0.566875159740448
34.086936950683594 4.790074825286865 2.2570009231567383
34.070438385009766 4.7992143630981445 0.5642443299293518
34.08107376098633 4.668043613433838 2.255305290222168
34.08675003051758 4.680298328399658 0.5617371201515198
34.09626388549805 4.555032730102539 2.252922296524048
34.08458709716797 4.564962387084961 0.5608440637588501
34.11185836791992 4.4360198974609375 2.2504117488861084
34.10008239746094 4.445998191833496 0.5583345293998718
34.0898551940918 4.312252998352051 2.249262809753418
34.092926025390625 4.324161052703857 0.5577430725097656
34.11450958251953 4.194483280181885 2.2463877201080322
34.107582092285156 4.205169677734375 0.5552318096160889
34.086669921875 4.070375442504883 2.2454259395599365
34.1020393371582 4.083759784698486 0.554427981376648
34.07627868652344 3.960139513015747 0.5553358197212219
33.56891632080078 3.6466753482818604 2.2584171295166016
33.54655456542969 3.525855302810669 2.2572295665740967
33.375160217285156 3.5192043781280518 0.6117671728134155
33.561038970947266 3.4090192317962646 2.2546639442443848
33.35728073120117 3.399693727493286 0.6118805408477783
33.62236785888672 3.296755075454712 2.250340223312378
33.37120056152344 3.2835185527801514 0.6092048287391663
33.67032241821289 3.188803195953369 2.246596097946167
33.27259063720703 3.1625125408172607 0.6163218021392822
33.706024169921875 3.073552131652832 2.2431838512420654
33.32289123535156 3.050020694732666 0.6104249358177185
33.70151138305664 2.9546024799346924 2.2412540912628174
33.08003234863281 2.9114649295806885 0.6299234628677368
33.70902633666992 2.8367679119110107 2.238858222961426
32.61572265625 2.7559900283813477 0.668633222579956
33.703678131103516 2.7179131507873535 2.236928939819336
32.89305114746094 2.6638600826263428 0.6429356932640076
33.71580123901367 2.5945911407470703 2.2342214584350586
33.32451248168945 2.5759315490722656 0.6036934852600098
33.71208572387695 2.476003885269165 2.2321996688842773
32.85368728637695 2.4242866039276123 0.6429224610328674
33.71792984008789 2.358170986175537 2.229802370071411
32.958621978759766 2.3164353370666504 0.6320632696151733
33.715885162353516 2.239830255508423 2.2276861667633057
33.090545654296875 2.2097036838531494 0.6188087463378906
33.733001708984375 2.1286721229553223 2.224942207336426
33.067649841308594 2.098106861114502 0.6190832853317261
33.690250396728516 2.0079727172851562 2.224334955215454
32.99747848510742 1.9780911207199097 0.6233574151992798
33.7069206237793 1.89095139503479 2.2214653491973877
15.81635570526123 0.8938146829605103 2.1202962398529053
33.70573043823242 1.772920846939087 2.2192559242248535
15.806835174560547 0.8379616737365723 2.1202118396759033
33.70412826538086 1.6549211740493774 2.2170474529266357
15.824477195739746 0.7835370898246765 2.117738962173462
15.837079048156738 0.7260075211524963 2.1156394481658936
15.839406967163086 0.6707409620285034 2.114466905593872
12.488066673278809 0.4812871217727661 3.021566152572632
15.844029426574707 0.6155627965927124 2.11307692527771
19.301132202148438 0.7529203295707703 0.8516538143157959
12.462088584899902 0.43892166018486023 3.021739959716797
15.840899467468262 0.5628609657287598 2.112398386001587
19.33550262451172 0.6900832056999207 0.8458775877952576
12.448521614074707 0.39495784044265747 3.0213921070098877
15.85510540008545 0.507979154586792 2.1101343631744385
12.539677619934082 0.35403814911842346 3.01701283454895
15.854181289672852 0.45258018374443054 2.109178304672241
19.304780960083008 0.5541459321975708 0.8477767705917358
12.61322021484375 0.312057226896286 3.0132932662963867
15.863022804260254 0.3974417448043823 2.1073477268218994
19.338581085205078 0.48759275674819946 0.8419206738471985
12.61169147491455 0.2679869830608368 3.0124549865722656
15.861712455749512 0.3420332074165344 2.106391191482544
12.575041770935059 0.22331571578979492 3.0129690170288086
15.870169639587402 0.2868169844150543 2.1045584678649902
33.7802848815918 0.47856807708740234 2.1905205249786377
15.88839340209961 0.23168952763080597 2.1018481254577637
33.79669189453125 0.3549453914165497 2.1873085498809814
15.886530876159668 0.17344780266284943 2.100830316543579
33.79262161254883 0.23696939647197723 2.1849958896636963
32.932960510253906 0.24246977269649506 0.5970780849456787
12.556782722473145 0.04550696909427643 3.0099706649780273
12.61177921295166 0.0016865379875525832 3.0068933963775635
12.65664005279541 -0.04027381166815758 3.0042455196380615
32.86581802368164 -0.09634044766426086 0.595811665058136
12.741311073303223 -0.08502094447612762 2.9999778270721436
32.88746643066406 -0.21116812527179718 0.5913890600204468
12.778361320495605 -0.12986977398395538 2.997560977935791
33.08302688598633 -0.3278871178627014 0.5715343952178955
12.762799263000488 -0.17425388097763062 2.997201442718506
32.88723373413086 -0.44071143865585327 0.5862850546836853
12.637184143066406 -0.21662954986095428 3.00117564201355
32.90270233154297 -0.5557619333267212 0.5822964906692505
12.57636547088623 -0.2594810426235199 3.002603769302368
33.72941207885742 -0.6875192523002625 0.506264328956604
33.847530364990234 -0.8199679851531982 2.1599724292755127
33.736534118652344 -0.8054498434066772 0.502873957157135
33.84917068481445 -0.944124162197113 2.1571333408355713
33.576290130615234 -0.9247233271598816 0.5141869783401489
33.843074798583984 -1.062162160873413 2.1547162532806396
33.06736755371094 -1.0261691808700562 0.5566656589508057
33.84404754638672 -1.1804310083389282 2.152000904083252
33.3321418762207 -1.1508454084396362 0.5302598476409912
33.355064392089844 -1.2681909799575806 0.5253390073776245
12.943923950195312 -0.5338819622993469 2.344597578048706
12.555985450744629 -0.566127598285675 2.996459722518921
12.94686508178711 -0.579268753528595 2.3431899547576904
12.68363094329834 -0.6162645816802979 2.9903194904327393
33.36195755004883 -1.6125500202178955 0.5160181522369385
12.99567699432373 -0.6769440174102783 2.9767377376556396
13.14125919342041 -0.6799312829971313 2.323451280593872
13.02311897277832 -0.7239586710929871 2.97456431388855
13.133739471435547 -0.7255068421363831 2.32291841506958
12.82583236694336 -0.7601143717765808 2.9813992977142334
12.984237670898438 -0.7649592757225037 2.335050106048584
12.939019203186035 -0.7598817944526672 1.6957143545150757
12.92870044708252 -0.7544199228286743 1.0455164909362793
12.911864280700684 -0.7551054954528809 0.3854826092720032
12.80560302734375 -0.8037689924240112 2.9811501502990723
12.881987571716309 -0.8040416240692139 2.3430118560791016
12.91884994506836 -0.8039444088935852 1.697165846824646
12.911090850830078 -0.7986106872558594 1.0473495721817017
12.877378463745117 -0.7981869578361511 0.3921375572681427
11.977664947509766 -0.7936453223228455 3.013644218444824
12.888948440551758 -0.849643886089325 2.341158866882324
12.923235893249512 -0.8495040535926819 1.695167899131775
12.91048812866211 -0.8438123464584351 1.0459216833114624
12.905804634094238 -0.8451767563819885 0.38355928659439087
11.959829330444336 -0.8343925476074219 3.0133590698242188
12.908167839050293 -0.8961690664291382 2.338186264038086
12.113905906677246 -0.8855361342430115 3.0061233043670654
12.924904823303223 -0.9404025673866272 2.335482120513916
12.212813377380371 -0.9356441497802734 3.0010547637939453
12.894142150878906 -0.9834099411964417 2.336982250213623
12.46340274810791 -0.9986481666564941 2.9897618293762207
12.880607604980469 -1.027603030204773 2.3369174003601074
12.50709056854248 -1.046098232269287 2.9868953227996826
12.451061248779297 -1.0851738452911377 2.988107681274414
12.417301177978516 -1.125905156135559 2.9884068965911865
12.769302368164062 -1.2500512599945068 2.9716129302978516
33.63609313964844 -3.2842414379119873 0.4451242983341217
12.79960823059082 -1.298137903213501 2.9692187309265137
33.577125549316406 -3.396827459335327 0.4468933343887329
12.817548751831055 -1.3429094552993774 2.96738338470459
33.6942253112793 -3.5215814113616943 0.43278899788856506
13.232416152954102 -1.4331482648849487 2.9489734172821045
33.78050994873047 -3.6498372554779053 0.42124858498573303
13.363816261291504 -1.4946060180664062 2.9422948360443115
33.90094757080078 -3.782606363296509 0.4065321087837219
15.936894416809082 -1.768141269683838 0.44214674830436707
13.36095142364502 -1.5415184497833252 2.941192865371704
33.874942779541016 -3.899453639984131 0.4051291048526764
15.949909210205078 -1.825969934463501 0.43720611929893494
13.25622844696045 -1.576320767402649 2.944347620010376
33.75210189819336 -4.004719257354736 0.41254952549934387
15.882238388061523 -1.8744040727615356 0.4477376937866211
12.63821792602539 -1.5474885702133179 2.9690475463867188
33.794525146484375 -4.129419326782227 0.4048210382461548
15.89242935180664 -1.931881070137024 0.443266898393631
12.573216438293457 -1.5840786695480347 2.9706034660339355
33.661102294921875 -4.232401371002197 0.4131675064563751
16.080284118652344 -2.0117273330688477 0.4045354127883911
33.973751068115234 -4.410311698913574 2.067464828491211
33.617958068847656 -4.352186679840088 0.4130190908908844
15.899643898010254 -2.0483241081237793 0.4366059899330139
33.99765396118164 -4.534127235412598 2.0632505416870117
33.775081634521484 -4.492454528808594 0.3946206569671631
15.870254516601562 -2.100881338119507 0.43964406847953796
33.97408676147461 -4.6517229080200195 2.061021327972412
33.842830657958984 -4.621741771697998 0.384372740983963
15.911252975463867 -2.1628594398498535 0.4290600121021271
33.98557662963867 -4.768145561218262 2.0574522018432617
33.9183235168457 -4.746675968170166 0.37355849146842957
15.82352066040039 -2.204394817352295 0.4434395134449005
33.995811462402344 -4.890627861022949 2.0537521839141846
33.97524642944336 -4.875616073608398 0.36419573426246643
16.053699493408203 -2.293651819229126 0.3961760401725769
34.013023376464844 -5.014334201812744 2.0497336387634277
15.921464920043945 -2.331488847732544 0.4189636707305908
34.007545471191406 -5.134861469268799 2.046659231185913
15.869287490844727 -2.3804619312286377 0.4262419044971466
34.023868560791016 -5.258849143981934 2.042633056640625
33.97328567504883 -5.238972187042236 0.3517807722091675
15.824246406555176 -2.4302189350128174 0.43211495876312256
34.02491760253906 -5.380669593811035 2.0392377376556396
33.99882125854492 -5.364474296569824 0.3451285660266876
15.800882339477539 -2.4831249713897705 0.4337552487850189
34.02801513671875 -5.502963542938232 2.0357348918914795
34.00422668457031 -5.487044334411621 0.3402986526489258
15.808853149414062 -2.5409677028656006 0.42927372455596924
34.02721405029297 -5.630871772766113 2.0322067737579346
33.99346923828125 -5.613218784332275 0.3367083668708801
15.816147804260254 -2.6016557216644287 0.4247310757637024
34.04172134399414 -5.755412578582764 2.0281670093536377
33.99306869506836 -5.735116481781006 0.3323301076889038
15.78736686706543 -2.653562545776367 0.4273177981376648
34.038536071777344 -5.877146244049072 2.0248684883117676
34.004493713378906 -5.859193801879883 0.32680651545524597
15.760838508605957 -2.7057175636291504 0.4294358193874359
34.04475784301758 -6.0006632804870605 2.02114200592041
15.758317947387695 -2.7619619369506836 0.4268386960029602
34.04914855957031 -6.117912769317627 2.017646551132202
34.0667839050293 -6.24390172958374 2.0133776664733887
34.091312408447266 -6.371465682983398 2.008782148361206
34.019874572753906 -6.346031188964844 0.3073248565196991
15.986608505249023 -2.972043752670288 0.3728090524673462
34.078575134277344 -6.492264270782471 2.005793333053589
33.99238586425781 -6.463770866394043 0.30523166060447693
16.106143951416016 -3.0525026321411133 0.34609127044677734
34.077659606933594 -6.615431308746338 2.0022671222686768
33.99382019042969 -6.587081432342529 0.3003792464733124
16.008378982543945 -3.0919065475463867 0.3619012236595154
34.05550765991211 -6.740737438201904 1.999472737312317
34.04490280151367 -6.726548671722412 0.2905632257461548
16.0858097076416 -3.168093204498291 0.3431406319141388
34.036563873291016 -6.860525131225586 1.9966983795166016
34.03317642211914 -6.847761154174805 0.2868545949459076
16.08885383605957 -3.2270939350128174 0.33909398317337036
33.987823486328125 -6.974235534667969 1.9952253103256226
33.97712707519531 -6.9599785804748535 0.287295937538147
16.16864585876465 -3.30188250541687 0.3199009895324707
33.95337677001953 -7.090755939483643 1.9931056499481201
33.93775939941406 -7.075446128845215 0.28612780570983887
16.139955520629883 -3.354774236679077 0.3220004439353943
33.91365051269531 -7.206082344055176 1.9912058115005493
33.91261672973633 -7.193825721740723 0.28357815742492676
16.11349868774414 -3.408015251159668 0.323629766702652
33.90898895263672 -7.322690486907959 1.9879138469696045
33.87131118774414 -7.302530765533447 0.28277501463890076
16.20987319946289 -3.4846324920654297 0.30115705728530884
33.905059814453125 -7.445798873901367 1.9843839406967163
33.86239242553711 -7.424409866333008 0.2786092460155487
16.144615173339844 -3.5296261310577393 0.31036633253097534
33.92750549316406 -7.574958324432373 1.9796514511108398
33.894344329833984 -7.5555267333984375 0.2705071270465851
16.08882713317871 -3.57633900642395 0.31768789887428284
33.93240737915039 -7.700494289398193 1.9756773710250854
33.89179611206055 -7.679252624511719 0.26564154028892517
16.095155715942383 -3.636779546737671 0.3126833438873291
33.853031158447266 -7.800601959228516 1.975663185119629
34.011470794677734 -7.82505464553833 0.24930819869041443
16.14258575439453 -3.703836679458618 0.2996698021888733
33.875160217285156 -7.936557769775391 1.9706838130950928
33.99441909790039 -7.952452659606934 0.24546071887016296
16.111915588378906 -3.7590415477752686 0.3017176687717438
33.89573287963867 -8.066288948059082 1.9659370183944702
34.03644561767578 -8.087716102600098 0.23616819083690643
16.065021514892578 -3.8073034286499023 0.3071540892124176
33.87696075439453 -8.186870574951172 1.9629448652267456
34.022281646728516 -8.209938049316406 0.23221226036548615
33.94508743286133 -8.328850746154785 1.95598304271698
34.046356201171875 -8.341638565063477 0.2245331108570099
33.99082565307617 -8.465973854064941 1.950002908706665
34.0675163269043 -8.47300910949707 0.2170809805393219
34.07959747314453 -8.614534378051758 1.9420210123062134
34.0905876159668 -8.605238914489746 0.20939040184020996
34.100006103515625 -8.746442794799805 1.9371267557144165
34.10590744018555 -8.735877990722656 0.2023928314447403
34.09815216064453 -8.872933387756348 1.9332250356674194
34.13759994506836 -8.871114730834961 0.19375590980052948
34.139305114746094 -9.010994911193848 1.9273196458816528
34.1302490234375 -8.996525764465332 0.18884806334972382
34.134056091308594 -9.13718032836914 1.9235210418701172
34.134464263916016 -9.12520980834961 0.18277019262313843
34.13396453857422 -9.271356582641602 1.9192559719085693
34.12214660644531 -9.256077766418457 0.17796283960342407
34.1325798034668 -9.399036407470703 1.9152288436889648
34.09178161621094 -9.375747680664062 0.17515556514263153
34.135528564453125 -9.528162956237793 1.9109752178192139
34.075382232666016 -9.499329566955566 0.17094412446022034
34.12285614013672 -9.646712303161621 1.9076319932937622
34.04825210571289 -9.613587379455566 0.16803224384784698
34.13447570800781 -9.778800964355469 1.902923345565796
34.06927490234375 -9.748087882995605 0.16006726026535034
34.130531311035156 -9.900257110595703 1.8991265296936035
34.072383880615234 -9.87136173248291 0.15410345792770386
34.13222885131836 -10.036524772644043 1.894618034362793
34.07631301879883 -10.008056640625 0.14740830659866333
34.12558364868164 -10.164128303527832 1.8906863927841187
34.081478118896484 -10.138969421386719 0.14083649218082428
34.12086486816406 -10.292530059814453 1.8866395950317383
33.95984649658203 -10.231978416442871 0.1467340886592865
19.794151306152344 -5.959646701812744 0.517749547958374
34.13954544067383 -10.428318977355957 1.8814589977264404
33.980804443359375 -10.36784839630127 0.13851705193519592
19.623899459838867 -5.983198642730713 0.5387601852416992
34.14815139770508 -10.561413764953613 1.8767247200012207
34.05830764770508 -10.521626472473145 0.12463662773370743
19.472640991210938 -6.011476993560791 0.5569356679916382
34.16339111328125 -10.696934700012207 1.8716453313827515
34.049617767333984 -10.649321556091309 0.11923237144947052
19.302541732788086 -6.032867908477783 0.5779924988746643
34.170955657958984 -10.830425262451172 1.8669023513793945
34.03334426879883 -10.774831771850586 0.11453387141227722
19.189146041870117 -6.0710625648498535 0.5904868245124817
34.18560028076172 -10.973116874694824 1.8615690469741821
19.06521987915039 -6.108848571777344 0.6043553948402405
34.19209289550781 -11.10700798034668 1.8568148612976074
18.949424743652344 -6.1447954177856445 0.6172394752502441
34.18146514892578 -11.235615730285645 1.8528577089309692
18.887680053710938 -6.197756767272949 0.6218968629837036
