# .PCD v0.7 - Point Cloud Data file format
VERSION 0.7
FIELDS x y z
SIZE 4 4 4
TYPE F F F
COUNT 1 1 1
WIDTH 853
HEIGHT 1
VIEWPOINT 0 0 0 1 0 0 0
POINTS 853
DATA ascii
13.085768699645996 11.204513549804688 0.49806758761405945
13.120052337646484 11.095462799072266 0.5045129656791687
13.156513214111328 10.988935470581055 0.5102397203445435
13.184576034545898 10.876115798950195 0.5177594423294067
13.229291915893555 10.777656555175781 0.5211496353149414
13.27559757232666 10.68090534210205 0.523996889591217
13.315053939819336 10.579094886779785 0.5282776951789856
13.356860160827637 10.479629516601562 0.5318368077278137
13.389395713806152 10.373417854309082 0.5373713970184326
13.435193061828613 10.277961730957031 0.5396642088890076
13.473261833190918 10.176994323730469 0.5435735583305359
13.515331268310547 10.079472541809082 0.546398937702179
13.547999382019043 9.975400924682617 0.5512041449546814
13.590243339538574 9.878825187683105 0.5536624789237976
13.630217552185059 9.78095817565918 0.5564777255058289
13.590051651000977 9.626675605773926 0.5771713256835938
13.700845718383789 9.579792022705078 0.5637245774269104
13.644835472106934 9.416807174682617 0.5875065326690674
13.95798110961914 9.50738525390625 0.5288060307502747
14.019722938537598 9.42435073852539 0.5261523127555847
13.791695594787598 9.148971557617188 0.5874286890029907
13.830713272094727 9.053444862365723 0.5893235206604004
13.888076782226562 8.970056533813477 0.5870441794395447
13.940792083740234 8.883660316467285 0.5856634974479675
14.194426536560059 8.923635482788086 0.5403413772583008
14.050456047058105 8.713563919067383 0.5816085934638977
14.036149024963379 8.586174011230469 0.5943821668624878
14.075536727905273 8.492311477661133 0.5953442454338074
14.115147590637207 8.398789405822754 0.5961200594902039
13.984538078308105 8.205556869506836 0.6333060264587402
14.208686828613281 8.220602989196777 0.5941972732543945
14.221735000610352 8.112356185913086 0.6002442836761475
14.267413139343262 8.023058891296387 0.5991803407669067
14.327150344848633 7.941607475280762 0.5950076580047607
14.68580150604248 8.023327827453613 0.5274587273597717
15.107421875 8.134038925170898 0.4468514919281006
15.219152450561523 8.074418067932129 0.43177860975265503
15.282796859741211 7.988675594329834 0.4267445504665375
15.739081382751465 0.5413947701454163 0.5586598515510559
12.8572998046875 -0.7419724464416504 1.093202829360962
12.866865158081055 -0.8217459321022034 1.08861243724823
15.917908668518066 -1.704800009727478 0.4578453600406647
15.996406555175781 -1.812537670135498 0.4378301799297333
16.00015640258789 -1.912467360496521 0.4326101541519165
15.956571578979492 -2.006645679473877 0.4367510676383972
15.725744247436523 -2.075746774673462 0.4783834218978882
15.696763038635254 -2.170003890991211 0.47944146394729614
16.02344512939453 -2.3154146671295166 0.40876495838165283
15.832033157348633 -2.3870530128479004 0.44225674867630005
15.765334129333496 -2.476046085357666 0.45054665207862854
15.738790512084961 -2.5709476470947266 0.4506256878376007
16.0692081451416 -3.0316011905670166 0.36084961891174316
16.161523818969727 -3.151850461959839 0.33593687415122986
16.128965377807617 -3.248391628265381 0.3363600969314575
16.1035099029541 -3.3462493419647217 0.3352147340774536
16.222225189208984 -3.474909782409668 0.3043448030948639
16.08624267578125 -3.5492098331451416 0.3256447911262512
16.088600158691406 -3.653438091278076 0.31839364767074585
16.055910110473633 -3.7498087882995605 0.3182392120361328
16.26824188232422 -5.641679763793945 0.13238342106342316
16.19505500793457 -5.840120315551758 0.1284555196762085
16.20353889465332 -5.955888748168945 0.1165107786655426
16.13137435913086 -6.042092323303223 0.12194617837667465
16.114608764648438 -6.148938179016113 0.11519567668437958
12.701379776000977 12.785295486450195 0.25844553112983704
12.723379135131836 12.651725769042969 0.271628201007843
12.638341903686523 12.414369583129883 0.31265273690223694
12.605202674865723 12.231234550476074 0.3395038843154907
12.724985122680664 12.197230339050293 0.32614222168922424
13.070340156555176 12.375734329223633 0.2544170618057251
12.853438377380371 12.022124290466309 0.32798460125923157
12.884652137756348 11.904396057128906 0.3371177315711975
12.932331085205078 11.80263614654541 0.3418138325214386
12.969758987426758 11.692180633544922 0.34891048073768616
13.00705623626709 11.582365036010742 0.35582053661346436
13.057517051696777 11.484859466552734 0.35921114683151245
13.080565452575684 11.363967895507812 0.3692660927772522
13.127983093261719 11.264981269836426 0.3730210065841675
13.146193504333496 11.141697883605957 0.383818656206131
13.198805809020996 11.04825496673584 0.3858989179134369
13.236377716064453 10.942689895629883 0.3915002644062042
13.240423202514648 10.810357093811035 0.4050856828689575
13.268593788146973 10.698737144470215 0.41254520416259766
13.302044868469238 10.592073440551758 0.4185177981853485
13.343185424804688 10.492079734802246 0.42244309186935425
13.38127326965332 10.390172004699707 0.4269234836101532
13.426413536071777 10.29416561126709 0.42953920364379883
13.452862739562988 10.184356689453125 0.43643563985824585
13.49421215057373 10.086372375488281 0.43960413336753845
13.525382995605469 9.981263160705566 0.4450070858001709
13.572446823120117 9.88829517364502 0.44649046659469604
13.612502098083496 9.790534973144531 0.44946202635765076
13.654272079467773 9.694360733032227 0.45187002420425415
13.697790145874023 9.5997314453125 0.4537133574485779
13.779441833496094 9.531754493713379 0.446576863527298
14.120391845703125 9.640372276306152 0.379557728767395
13.721000671386719 9.245122909545898 0.4829898476600647
13.834311485290527 9.198875427246094 0.46815967559814453
13.891716003417969 9.114940643310547 0.4660502076148987
13.909856796264648 9.005555152893066 0.47274455428123474
13.923871040344238 8.894174575805664 0.48019078373908997
13.97527027130127 8.807045936584473 0.47900500893592834
14.372306823730469 8.934815406799316 0.39987117052078247
14.000238418579102 8.585177421569824 0.493712842464447
14.045512199401855 8.495091438293457 0.4934557378292084
14.097800254821777 8.40929889678955 0.49149981141090393
14.140251159667969 8.317705154418945 0.4916069209575653
14.188056945800781 8.229351997375488 0.4903903007507324
14.204618453979492 8.123174667358398 0.4959513545036316
14.276877403259277 8.048931121826172 0.48906901478767395
14.303260803222656 7.948821544647217 0.4921730160713196
14.813862800598145 8.114280700683594 0.3889982998371124
14.929482460021973 8.059195518493652 0.37258368730545044
15.11259937286377 8.038963317871094 0.3414042890071869
15.74341106414795 0.559232234954834 0.4552792012691498
12.887680053710938 -0.6494731307029724 1.0060309171676636
12.850831985473633 -0.7266721129417419 1.0109387636184692
12.863397598266602 -0.8065741658210754 1.005657434463501
16.029117584228516 -1.5991545915603638 0.33538416028022766
16.025400161743164 -1.6981502771377563 0.3318748474121094
15.935402870178223 -1.787551760673523 0.3460499346256256
15.810872077941895 -1.8718842267990112 0.3672853708267212
15.995991706848145 -1.9934074878692627 0.32435834407806396
15.794614791870117 -2.066810131072998 0.3613201081752777
15.957831382751465 -2.187854051589966 0.3225730359554291
15.820550918579102 -2.268023729324341 0.3460792005062103
15.77394962310791 -2.3602211475372314 0.3506557047367096
15.75197696685791 -2.4558582305908203 0.34999269247055054
15.584412574768066 -2.5277931690216064 0.37963247299194336
15.609720230102539 -2.630319356918335 0.3688887357711792
16.051101684570312 -2.8061203956604004 0.2707623243331909
15.741175651550293 -2.851605176925659 0.32996752858161926
15.979949951171875 -2.9962799549102783 0.27382296323776245
15.99832820892334 -3.1014935970306396 0.2638125717639923
16.07362174987793 -3.2185850143432617 0.24162837862968445
16.056015014648438 -3.3176944255828857 0.23889847099781036
16.060779571533203 -3.4216086864471436 0.23129694163799286
16.064870834350586 -3.5257081985473633 0.2236904799938202
16.056825637817383 -3.6274001598358154 0.2185187190771103
16.03097152709961 -3.7251389026641846 0.21700647473335266
12.701448440551758 12.776483535766602 0.14556574821472168
12.666322708129883 12.58625316619873 0.17483188211917877
12.681197166442871 12.447826385498047 0.1900278627872467
12.668780326843262 12.284403800964355 0.21227535605430603
13.006165504455566 11.86182689666748 0.21258476376533508
13.040323257446289 11.747681617736816 0.2209094911813736
13.062573432922363 11.623773574829102 0.23209963738918304
13.08232593536377 11.498737335205078 0.24367442727088928
13.123274803161621 11.393199920654297 0.2495143711566925
13.138836860656738 11.266507148742676 0.26166611909866333
13.1825532913208 11.164789199829102 0.2663553059101105
13.190888404846191 11.033988952636719 0.27985188364982605
13.232927322387695 10.93226146697998 0.28453871607780457
13.270413398742676 10.8273286819458 0.29018083214759827
13.30864143371582 10.723577499389648 0.29543739557266235
13.346866607666016 10.620373725891113 0.3004996180534363
13.383556365966797 10.516496658325195 0.3057514727115631
13.417926788330078 10.411362648010254 0.31138545274734497
13.449954986572266 10.305007934570312 0.31740203499794006
13.47492504119873 10.193913459777832 0.32495608925819397
13.514765739440918 10.094643592834473 0.328662633895874
13.544419288635254 9.98827838897705 0.33467596769332886
13.583593368530273 9.889435768127441 0.33818483352661133
13.622066497802734 9.790484428405762 0.34169092774391174
13.659037590026855 9.690865516662598 0.3453861176967621
13.70655345916748 9.599038124084473 0.34637826681137085
13.741350173950195 9.49862289428711 0.35026001930236816
13.801477432250977 9.292658805847168 0.3597550392150879
13.83328628540039 9.191556930541992 0.36382386088371277
13.884066581726074 9.103322982788086 0.36324968934059143
13.899689674377441 8.992425918579102 0.3707955777645111
13.953344345092773 8.906488418579102 0.3692440986633301
13.961639404296875 8.791998863220215 0.37814560532569885
14.134889602661133 8.780759811401367 0.3484821915626526
14.054232597351074 8.611900329589844 0.377731591463089
14.076993942260742 8.50778865814209 0.3827543556690216
14.116703987121582 8.41426944732666 0.38370025157928467
14.159180641174316 8.3225679397583 0.3838649094104767
14.210397720336914 8.23607063293457 0.3818866014480591
14.244053840637207 8.139521598815918 0.3837900459766388
14.299281120300293 8.05538558959961 0.38063159584999084
14.352295875549316 7.969923496246338 0.3778540790081024
14.430611610412598 7.898239612579346 0.36922529339790344
15.736625671386719 0.5541191101074219 0.35643237829208374
12.869269371032715 -0.6526760458946228 0.9276608824729919
12.857836723327637 -0.7311990261077881 0.927417516708374
12.856667518615723 -0.8102851510047913 0.9249105453491211
16.148488998413086 -1.61607825756073 0.2072514146566391
16.040538787841797 -1.7047451734542847 0.22581548988819122
15.79503345489502 -1.7767362594604492 0.2735881805419922
15.758146286010742 -1.8705717325210571 0.276898056268692
15.874080657958984 -1.9831817150115967 0.2474752962589264
15.811710357666016 -2.0740082263946533 0.25596389174461365
15.994990348815918 -2.1979668140411377 0.21176780760288239
15.970112800598145 -2.294487953186035 0.211947962641716
15.824701309204102 -2.372807025909424 0.2378900647163391
15.745622634887695 -2.4598476886749268 0.24952618777751923
15.937376022338867 -2.5900931358337402 0.20273661613464355
16.05287742614746 -2.7100865840911865 0.17212620377540588
16.04706382751465 -2.810507297515869 0.16751255095005035
16.156105041503906 -2.931914806365967 0.13789328932762146
16.033550262451172 -3.0114450454711914 0.15828047692775726
15.989365577697754 -3.1048707962036133 0.1615896373987198
15.991623878479004 -3.2072927951812744 0.15467874705791473
15.99130916595459 -3.309465169906616 0.14818185567855835
15.975038528442383 -3.4084928035736084 0.14502519369125366
12.66784954071045 12.283404350280762 0.10705015808343887
13.786277770996094 9.655033111572266 0.2265106439590454
13.810142517089844 9.546341896057129 0.23332737386226654
13.773337364196777 9.273882865905762 0.26704415678977966
13.820556640625 9.183277130126953 0.26750612258911133
13.89340591430664 9.109635353088379 0.2615930736064911
13.903342247009277 8.994982719421387 0.2708028554916382
13.94295883178711 8.900060653686523 0.2726440131664276
14.063815116882324 8.617992401123047 0.27674657106399536
14.119338989257812 8.533611297607422 0.27417871356010437
14.17519760131836 8.449373245239258 0.2714027464389801
14.21366024017334 8.354835510253906 0.27261611819267273
14.25997257232666 8.265055656433105 0.2718251645565033
14.29891586303711 8.171130180358887 0.2726288139820099
16.184101104736328 0.7692429423332214 0.16846929490566254
15.734100341796875 0.5545310974121094 0.26231786608695984
12.84988784790039 -0.7304795384407043 0.8516801595687866
12.851635932922363 -0.8096997141838074 0.848517119884491
15.838052749633789 -1.9781522750854492 0.1590975821018219
15.737011909484863 -2.0636911392211914 0.17639712989330292
15.822341918945312 -2.173717975616455 0.15259139239788055
15.807293891906738 -2.270571231842041 0.15072374045848846
15.865082740783691 -2.378326416015625 0.13264235854148865
15.871942520141602 -2.4790422916412354 0.12564422190189362
15.770071983337402 -2.661822557449341 0.13685539364814758
13.761987686157227 9.259339332580566 0.17702731490135193
13.844179153442383 9.19210147857666 0.16876639425754547
13.868748664855957 9.086640357971191 0.1747954785823822
13.887616157531738 8.978032112121582 0.18205130100250244
13.957663536071777 8.902702331542969 0.17642128467559814
13.96020793914795 8.784612655639648 0.18735678493976593
14.059645652770996 8.257828712463379 0.21769987046718597
15.744065284729004 0.5497757792472839 0.1709168553352356
12.842166900634766 -0.7343596816062927 0.7803325653076172
12.85459041595459 -0.8142101764678955 0.7747481465339661
15.654398918151855 -1.862886667251587 0.11450952291488647
15.65384292602539 -1.9603079557418823 0.10983521491289139
15.637197494506836 -2.0557618141174316 0.10865117609500885
12.862936019897461 -0.7206875681877136 0.6959924697875977
12.85108470916748 -0.7991334199905396 0.6958672404289246
12.854154586791992 -0.7265540957450867 0.6150125861167908
12.849066734313965 -0.8053690195083618 0.6133300065994263
12.84785270690918 -0.7236164808273315 0.5359911322593689
12.847624778747559 -0.8026947975158691 0.5331377387046814
12.835193634033203 -0.725010871887207 0.46772530674934387
12.838817596435547 -0.8042531609535217 0.46389031410217285
12.835801124572754 -0.7147353887557983 0.38937896490097046
12.838499069213867 -0.7939149737358093 0.3857385218143463
12.830592155456543 -0.7162368297576904 0.3047003448009491
12.848714828491211 -0.7963410019874573 0.29699400067329407
12.819113731384277 -0.713053822517395 0.22882211208343506
12.873867988586426 -0.7953397035598755 0.21122945845127106
12.819747924804688 -0.7174675464630127 0.15888985991477966
12.878236770629883 -0.8000068664550781 0.1399475485086441
13.61074161529541 13.792387962341309 0.14742714166641235
12.664908409118652 12.744799613952637 1.2904778718948364
12.682806968688965 12.674225807189941 1.2941755056381226
12.782622337341309 12.774283409118652 0.3716687560081482
12.703893661499023 12.607179641723633 1.2972620725631714
12.790164947509766 12.693175315856934 0.3797398805618286
12.726434707641602 12.541878700256348 1.3000428676605225
12.769227981567383 12.584505081176758 0.39464321732521057
12.747295379638672 12.470881462097168 1.3033902645111084
12.732245445251465 12.456687927246094 0.41377848386764526
12.774551391601562 12.410771369934082 1.3052523136138916
12.790827751159668 12.340285301208496 1.3089494705200195
12.812146186828613 12.27498722076416 1.3117287158966064
31.00967025756836 29.519695281982422 0.33632156252861023
12.829244613647461 12.210216522216797 1.3148586750030518
31.06696128845215 29.36849021911621 0.3387598991394043
12.844558715820312 12.139819145202637 1.3185566663742065
31.045413970947266 29.14388084411621 0.3491303026676178
12.86496639251709 12.074556350708008 1.3213353157043457
12.907708168029785 12.115574836730957 0.4272577464580536
32.3729248046875 30.17695426940918 2.3984904289245605
12.886892318725586 12.010990142822266 1.3238072395324707
12.922650337219238 12.045283317565918 0.43277236819267273
32.41926193237305 30.009475708007812 2.398214101791382
12.913992881774902 11.952471733093262 1.3253581523895264
12.946293830871582 11.983393669128418 0.43614739179611206
32.49394607543945 29.858356475830078 2.3970134258270264
31.2246150970459 28.693750381469727 0.3554137945175171
12.935601234436035 11.884941101074219 1.3280903100967407
12.973549842834473 11.920892715454102 0.43904760479927063
32.559085845947266 29.70940399169922 2.396047353744507
31.307748794555664 28.569496154785156 0.35488906502723694
12.95116901397705 11.816325187683105 1.3314813375473022
12.99664306640625 11.858959197998047 0.4424207806587219
32.54765319824219 29.49156379699707 2.3976500034332275
13.007575988769531 11.788185119628906 2.196537733078003
12.971932411193848 11.7527437210083 1.3339513540267944
13.017637252807617 11.795354843139648 0.44622135162353516
32.54671096801758 29.294885635375977 2.3988077640533447
13.048340797424316 11.746670722961426 2.1954851150512695
12.990379333496094 11.691426277160645 1.3364667892456055
13.034480094909668 11.732373237609863 0.45049622654914856
32.50144577026367 29.049564361572266 2.4014947414398193
13.064986228942871 11.67947006225586 2.196978807449341
13.012433052062988 11.629498481750488 1.3386282920837402
13.05858325958252 11.672057151794434 0.45343878865242004
32.467952728271484 28.8165225982666 2.403752565383911
13.081323623657227 11.612297058105469 2.1984729766845703
13.034215927124023 11.567562103271484 1.340789556503296
13.076899528503418 11.606810569763184 0.4576673209667206
32.525108337402344 28.6650390625 2.402924060821533
13.110443115234375 11.556689262390137 2.198667526245117
13.050139427185059 11.500691413879395 1.343873143196106
13.098614692687988 11.54483413696289 0.46103766560554504
32.59288787841797 28.52338218688965 2.4017133712768555
13.129953384399414 11.49281120300293 2.19978928565979
13.075090408325195 11.44201946258545 1.3454184532165527
13.118203163146973 11.48122501373291 0.4648364782333374
32.59027099609375 28.320951461791992 2.402848482131958
13.152944564819336 11.432208061218262 2.2005391120910645
13.0941743850708 11.37843132019043 1.3478857278823853
13.133790969848633 11.414389610290527 0.46949347853660583
32.607452392578125 28.136842727661133 2.403289794921875
13.17000675201416 11.36669921875 2.2018463611602783
13.122365951538086 11.322952270507812 1.3488126993179321
13.163989067077637 11.360453605651855 0.47071629762649536
32.62375259399414 27.952964782714844 2.4037351608276367
13.198131561279297 11.31093978881836 2.2020363807678223
13.142792701721191 11.260956764221191 1.3509713411331177
13.175271034240723 11.290423393249512 0.47623154520988464
32.623939514160156 27.756357192993164 2.4046952724456787
13.212737083435059 11.243816375732422 2.203529119491577
13.168618202209473 11.203780174255371 1.3522039651870728
13.19935417175293 11.231620788574219 0.4787406921386719
32.64414978027344 27.57782745361328 2.404956817626953
13.230846405029297 11.179945945739746 2.2046494483947754
13.18472671508789 11.138555526733398 1.3549778461456299
13.230714797973633 11.179147720336914 0.47952961921691895
32.64627456665039 27.385042190551758 2.4057986736297607
13.254398345947266 11.120893478393555 2.205209493637085
13.210046768188477 11.08132553100586 1.3562090396881104
13.243000030517578 11.110760688781738 0.48461565375328064
32.67435073852539 27.21497344970703 2.4057464599609375
13.275785446166992 11.060215950012207 2.205955743789673
13.231314659118652 11.020878791809082 1.3580563068389893
13.264433860778809 11.05030632019043 0.48755165934562683
32.66781997680664 27.007484436035156 2.4068689346313477
13.30650806427002 11.003557205200195 2.205907106399536
13.248491287231445 10.953364372253418 1.3607828617095947
13.28371810913086 10.984380722045898 0.4913010001182556
32.6671257019043 26.81562614440918 2.4077272415161133
13.321602821350098 10.938076972961426 2.207212209701538
13.267293930053711 10.89133358001709 1.362938642501831
13.314126014709473 10.931718826293945 0.49208489060401917
32.67517852783203 26.631994247436523 2.4082677364349365
13.34220027923584 10.877350807189941 2.207956314086914
13.293519020080566 10.835573196411133 1.3638567924499512
13.3271484375 10.864975929260254 0.4967404901981354
32.68624496459961 26.451778411865234 2.4086833000183105
13.364473342895508 10.818181991577148 2.208512306213379
13.315656661987305 10.776640892028809 1.365392804145813
13.347527503967285 10.804471969604492 0.49967464804649353
32.70618438720703 26.27963638305664 2.408777952194214
13.382610321044922 10.755866050720215 2.209442615509033
13.339483261108398 10.71923828125 1.366618275642395
13.369564056396484 10.745497703552246 0.5021770000457764
32.701236724853516 26.097797393798828 2.409642219543457
13.408356666564941 10.703669548034668 2.209482192993164
13.347643852233887 10.653302192687988 1.370056390762329
13.38757610321045 10.687301635742188 0.5051571726799011
32.709754943847656 25.9183349609375 2.4100704193115234
13.424034118652344 10.639785766601562 2.210598945617676
13.369020462036133 10.594341278076172 1.3715908527374268
13.418771743774414 10.635942459106445 0.5055037140846252
32.715457916259766 25.737590789794922 2.4105682373046875
13.447267532348633 10.5820894241333 2.2109644412994385
13.390151023864746 10.53536319732666 1.3731238842010498
13.438158988952637 10.575355529785156 0.5084347724914551
32.72226333618164 25.55865478515625 2.4110052585601807
13.458473205566406 10.51515007019043 2.2124569416046143
13.414938926696777 10.479414939880371 1.3740367889404297
13.463112831115723 10.519312858581543 0.5100715160369873
32.732177734375 25.383054733276367 2.411315679550171
13.485135078430176 10.46048641204834 2.212445020675659
13.439502716064453 10.42342472076416 1.3749480247497559
13.480056762695312 10.45718765258789 0.5134322643280029
32.74522399902344 25.21074104309082 2.4114990234375
13.503678321838379 10.399679183959961 2.2131845951080322
13.454009056091309 10.359823226928711 1.3774093389511108
13.488924026489258 10.389060020446777 0.5185191631317139
32.7558708190918 25.028379440307617 2.4117674827575684
13.52772331237793 10.339539527893066 2.2134993076324463
13.47988224029541 10.301429748535156 1.3782715797424316
13.51296615600586 10.329111099243164 0.5205376148223877
32.76328659057617 24.8535099029541 2.4120900630950928
13.551706314086914 10.283232688903809 2.213672399520874
13.497797966003418 10.240839958190918 1.3801113367080688
13.527125358581543 10.265533447265625 0.5243301391601562
32.75989532470703 24.671371459960938 2.412748336791992
13.573469161987305 10.225384712219238 2.2140326499938965
13.515458106994629 10.180253028869629 1.3819509744644165
13.5508394241333 10.209385871887207 0.5259630084037781
32.7713737487793 24.510244369506836 2.4128642082214355
13.59322452545166 10.169879913330078 2.21444034576416
13.537059783935547 10.126483917236328 1.3829056024551392
13.566650390625 10.151144027709961 0.528939425945282
32.74626541137695 24.313796997070312 2.4141974449157715
13.612519264221191 10.110496520996094 2.2149882316589355
13.562195777893066 10.071796417236328 1.3835006952285767
13.587928771972656 10.093473434448242 0.5310027003288269
32.63569259643555 24.055553436279297 2.4183385372161865
13.6255464553833 10.04666519165039 2.2161026000976562
13.575133323669434 10.008225440979004 1.385960578918457
13.59509563446045 10.025548934936523 0.5360918045043945
32.457157135009766 23.749677658081055 2.424703598022461
13.64835262298584 9.990226745605469 2.216271162033081
13.599802017211914 9.953474044799805 1.3865537643432617
13.649645805358887 9.99260139465332 0.5308024287223816
32.44471740722656 23.567237854003906 2.425544500350952
13.668914794921875 9.932283401489258 2.216628074645996
13.620245933532715 9.895757675170898 1.387768030166626
13.662293434143066 9.928996086120605 0.53459233045578
32.48005676269531 23.420259475708008 2.42478346824646
13.69126033782959 9.87578010559082 2.216794729232788
13.644474983215332 9.840922355651855 1.38835871219635
32.50664520263672 23.267498016357422 2.4242911338806152
13.717432975769043 9.82214069366455 2.216580867767334
13.66445255279541 9.783148765563965 1.3895710706710815
32.57125473022461 23.1423397064209 2.422520399093628
13.735267639160156 9.762662887573242 2.2171247005462646
13.67812728881836 9.72104549407959 1.3917181491851807
32.56791687011719 22.960920333862305 2.422992706298828
13.75861930847168 9.703655242919922 2.2172393798828125
13.705374717712402 9.66515064239502 1.3919451236724854
13.67961597442627 9.649827003479004 0.5566380023956299
32.5800666809082 22.791296005249023 2.422929525375366
13.781721115112305 9.64460563659668 2.217353105545044
13.720203399658203 9.600654602050781 1.3940430879592896
13.718682289123535 9.602472305297852 0.5547501444816589
32.608001708984375 22.641830444335938 2.422307252883911
13.796768188476562 9.583660125732422 2.2180850505828857
13.745311737060547 9.547067642211914 1.3943161964416504
13.74783992767334 9.551743507385254 0.554641604423523
32.60236358642578 22.469757080078125 2.422773599624634
13.81566047668457 9.525555610656738 2.2184362411499023
13.766129493713379 9.49060344696045 1.395213007926941
13.764647483825684 9.492539405822754 0.5571323037147522
32.52165985107422 22.247209548950195 2.4256958961486816
13.838428497314453 9.470250129699707 2.2184059619903564
13.78876781463623 9.435511589050293 1.3957958221435547
13.909218788146973 9.520938873291016 0.532295823097229
32.52073669433594 22.08872413635254 2.4259538650512695
13.849035263061523 9.410318374633789 2.219376802444458
13.80955982208252 9.382786750793457 1.396426796913147
14.174677848815918 9.633920669555664 0.4814566373825073
32.54573059082031 21.940181732177734 2.425347089767456
13.877555847167969 9.359149932861328 2.2187724113464355
13.827661514282227 9.324840545654297 1.39763343334198
14.207982063293457 9.584409713745117 0.48044732213020325
32.588783264160156 21.80423927307129 2.4241251945495605
13.891385078430176 9.298189163208008 2.2195026874542236
13.8558349609375 9.273778915405273 1.3972742557525635
32.56088638305664 21.629709243774414 2.425215244293213
13.913735389709473 9.24657154083252 2.219326972961426
13.87188720703125 9.218192100524902 1.3985278606414795
13.888993263244629 9.232695579528809 0.5596914291381836
32.492122650146484 21.421049118041992 2.427642583847046
13.937494277954102 9.192475318908691 2.2191002368927
13.891385078430176 9.161542892456055 1.3994190692901611
13.933234214782715 9.192315101623535 0.5560946464538574
32.411834716796875 21.206283569335938 2.4304299354553223
13.958959579467773 9.136961936950684 2.2190635204315186
13.906505584716797 9.102152824401855 1.4009357690811157
13.946465492248535 9.131513595581055 0.5590128302574158
32.433162689208984 21.05902862548828 2.4298458099365234
13.980204582214355 9.08141040802002 2.2190258502960205
13.935944557189941 9.052225112915039 1.4002573490142822
13.95531177520752 9.068048477172852 0.5628005862236023
32.44698715209961 20.899450302124023 2.4294943809509277
14.000710487365723 9.022028923034668 2.2191288471221924
13.954256057739258 8.991705894470215 1.4014095067977905
13.992349624633789 9.019530296325684 0.5608856678009033
32.516014099121094 20.791767120361328 2.4272944927215576
14.019947052001953 8.968851089477539 2.2191390991210938
13.973386764526367 8.938720703125 1.402032732963562
14.011594772338867 8.966471672058105 0.5621121525764465
32.57985305786133 20.672815322875977 2.4252524375915527
14.042642593383789 8.914533615112305 2.2189064025878906
13.998053550720215 8.88592529296875 1.4019774198532104
14.015555381774902 8.90037727355957 0.5667701959609985
32.596073150634766 20.516029357910156 2.4247612953186035
14.056122779846191 8.85107135772705 2.21958327293396
14.013557434082031 8.82401180267334 1.4034407138824463
14.006179809570312 8.822738647460938 0.5744264721870422
32.64194869995117 20.386266708374023 2.423271894454956
14.084709167480469 8.800647735595703 2.218771457672119
14.037792205810547 8.771120071411133 1.4033827781677246
14.053359985351562 8.784255981445312 0.5699417591094971
32.54286575317383 20.166929244995117 2.4265410900115967
14.108878135681152 8.747509002685547 2.2183423042297363
14.063941955566406 8.719475746154785 1.4030086994171143
14.416358947753906 8.941449165344238 0.49966737627983093
32.490257263183594 19.985612869262695 2.4282612800598145
14.127090454101562 8.694158554077148 2.2183475494384766
14.082054138183594 8.666311264038086 1.4036270380020142
14.42264461517334 8.879423141479492 0.5034822821617126
32.49786376953125 19.83435821533203 2.427978038787842
14.152989387512207 8.6422119140625 2.2177231311798096
14.099349975585938 8.609371185302734 1.4045084714889526
32.519775390625 19.692358016967773 2.427203893661499
14.170171737670898 8.585028648376465 2.2178683280944824
14.122783660888672 8.556268692016602 1.4044448137283325
32.472530364990234 19.509258270263672 2.4286909103393555
14.18925952911377 8.529109954833984 2.217820167541504
14.146017074584961 8.503108024597168 1.404380202293396
32.424407958984375 19.32673454284668 2.430189609527588
14.212414741516113 8.475716590881348 2.2173845767974854
14.171182632446289 8.451159477233887 1.4039982557296753
14.178531646728516 8.459139823913574 0.5748420357704163
32.39692306518555 19.157501220703125 2.430990219116211
14.243949890136719 8.427340507507324 2.2161738872528076
14.187620162963867 8.394086837768555 1.4048759937286377
14.186559677124023 8.397086143493652 0.5781927704811096
32.417236328125 19.009592056274414 2.4301891326904297
14.272477149963379 8.373836517333984 2.215296745300293
14.215973854064941 8.34079647064209 1.4041248559951782
14.221243858337402 8.347551345825195 0.5762527585029602
32.435768127441406 18.868709564208984 2.4294357299804688
14.297201156616211 8.321474075317383 2.2146618366241455
14.22768497467041 8.281167030334473 1.4056323766708374
14.20964527130127 8.274352073669434 0.5835350751876831
32.50998306274414 18.76039695739746 2.426826000213623
14.313101768493652 8.264060020446777 2.2148008346557617
14.249892234802246 8.227754592895508 1.4055602550506592
14.24673843383789 8.229650497436523 0.5807689428329468
32.62939453125 18.677867889404297 2.4227073192596436
14.348241806030273 8.217780113220215 2.21319317817688
14.274051666259766 8.175519943237305 1.4051710367202759
14.2986421585083 8.193355560302734 0.5749394297599792
32.68671417236328 18.567123413085938 2.420628786087036
14.351470947265625 8.156625747680664 2.2143516540527344
14.298768997192383 8.126935958862305 1.404515266418457
14.342635154724121 8.15565013885498 0.5704668760299683
32.73380661010742 18.443130493164062 2.4188599586486816
14.377578735351562 8.10527515411377 2.2135169506073
14.31391716003418 8.06968879699707 1.4053879976272583
14.306463241577148 8.069292068481445 0.582563042640686
32.78261184692383 18.320253372192383 2.4170169830322266
14.416549682617188 8.061136245727539 2.2115135192871094
14.34399700164795 8.020907402038574 1.4040449857711792
14.3407564163208 8.022932052612305 0.5802242159843445
32.773155212402344 18.172697067260742 2.4170918464660645
14.374691009521484 7.9757232666015625 1.40243399143219
14.362761497497559 7.972968578338623 0.5801225900650024
32.88008117675781 18.08230209350586 2.4132943153381348
14.422618865966797 7.94061279296875 0.572522759437561
32.94947814941406 17.971038818359375 2.4107158184051514
14.920744895935059 8.142704010009766 2.1708381175994873
33.0150146484375 17.85018539428711 2.4082322120666504
14.922869682312012 8.07359790802002 1.3317497968673706
32.99113082885742 17.688817977905273 2.4087002277374268
33.05918884277344 17.577098846435547 2.406111478805542
33.06939697265625 17.43482208251953 2.4054174423217773
27.784908294677734 14.656083106994629 1.0354208946228027
33.076805114746094 17.291532516479492 2.404798984527588
27.791526794433594 14.53593921661377 1.0373377799987793
33.08804702758789 17.15070152282715 2.4040367603302
27.824195861816406 14.429696083068848 1.0369068384170532
33.10760498046875 17.014570236206055 2.402981758117676
27.827648162841797 14.308588027954102 1.0390223264694214
33.11103057861328 16.870574951171875 2.4024436473846436
27.839473724365234 14.192157745361328 1.0403552055358887
33.12568664550781 16.725486755371094 2.401494264602661
33.13236618041992 16.584060668945312 2.4008138179779053
33.142940521240234 16.44501304626465 2.3999879360198975
33.143985748291016 16.301687240600586 2.399461269378662
33.1528434753418 16.169809341430664 2.398684501647949
33.14373779296875 16.022483825683594 2.3984620571136475
33.16330337524414 15.88945198059082 2.3972718715667725
32.61505889892578 15.635557174682617 0.636557400226593
33.16202926635742 15.746832847595215 2.396756887435913
32.60166931152344 15.489570617675781 0.6401302218437195
33.17599868774414 15.611858367919922 2.395719051361084
32.675601959228516 15.385269165039062 0.6360010504722595
33.17583084106445 15.470646858215332 2.3951356410980225
32.9592399597168 15.378629684448242 0.6134686470031738
33.18416213989258 15.333817481994629 2.394252300262451
33.10297775268555 15.305360794067383 0.6031724214553833
33.192317962646484 15.190286636352539 2.3933277130126953
33.167667388916016 15.188118934631348 0.5998714566230774
33.2017936706543 15.054758071899414 2.3923728466033936
33.183937072753906 15.055816650390625 0.6006496548652649
33.203895568847656 14.916276931762695 2.391648769378662
33.20650863647461 14.926652908325195 0.6008331775665283
33.212284088134766 14.781013488769531 2.3906984329223633
33.20808792114258 14.788386344909668 0.6028044819831848
33.21757888793945 14.651668548583984 2.3898696899414062
33.17692565917969 14.643007278442383 0.6074831485748291
33.21804428100586 14.513652801513672 2.389153480529785
33.18878173828125 14.510180473327637 0.6084677577018738
33.224830627441406 14.378788948059082 2.388209104537964
33.172672271728516 14.36556339263916 0.6118437647819519
33.22418212890625 14.24109935760498 2.387498140335083
33.169708251953125 14.227129936218262 0.6140280365943909
33.23219299316406 14.107498168945312 2.386481761932373
33.175357818603516 14.092790603637695 0.615419328212738
33.23275375366211 13.971107482910156 2.3856985569000244
33.19425582885742 13.964381217956543 0.6156139373779297
33.235076904296875 13.835846900939941 2.384841203689575
33.198856353759766 13.83026123046875 0.6170080900192261
33.248497009277344 13.69874382019043 2.3835561275482178
33.23065185546875 13.700933456420898 0.6160848736763
33.26130294799805 13.56847858428955 2.382314920425415
33.252662658691406 13.574533462524414 0.6158808469772339
33.27824401855469 13.440160751342773 2.3809187412261963
33.26726531982422 13.44534683227539 0.6162772178649902
33.257564544677734 13.303780555725098 2.3808138370513916
33.27674865722656 13.3211030960083 0.6169947385787964
33.20612716674805 13.149007797241211 2.381688356399536
33.209285736083984 13.159926414489746 0.6244139075279236
33.174949645996094 13.002961158752441 2.3818678855895996
33.15503692626953 13.004842758178711 0.6306412220001221
33.18275833129883 12.872653007507324 2.3807201385498047
33.16050720214844 12.873739242553711 0.6316545009613037
33.232059478759766 12.75856876373291 2.3781566619873047
33.19105911254883 12.752588272094727 0.6304565072059631
33.342288970947266 12.6774263381958 0.6187911629676819
33.50505447387695 12.605748176574707 0.6060991883277893
33.742942810058594 12.551069259643555 2.3580846786499023
33.72844314575195 12.555686950683594 0.5881433486938477
33.76750946044922 12.419585227966309 2.3562278747558594
33.75996398925781 12.426861763000488 0.5867840647697449
33.77768325805664 12.289712905883789 2.3548905849456787
33.80055618286133 12.30812931060791 0.5845358371734619
33.79206085205078 12.161611557006836 2.3533949851989746
33.77040100097656 12.163934707641602 0.5883476734161377
33.79915237426758 12.037781715393066 2.352181911468506
33.793907165527344 12.046065330505371 0.5874339938163757
33.793724060058594 11.903158187866211 2.351328134536743
33.816715240478516 11.921443939208984 0.5865995287895203
33.79484939575195 11.771186828613281 2.3502373695373535
33.81553649902344 11.788607597351074 0.5877897143363953
33.78838348388672 11.636910438537598 2.3493893146514893
33.82090759277344 11.65835952758789 0.588374674320221
33.8239631652832 11.517317771911621 2.3470942974090576
33.82343292236328 11.527413368225098 0.5891636610031128
33.80465316772461 11.379286766052246 2.346653461456299
33.8325309753418 11.39897632598877 0.5893458127975464
33.83932113647461 11.259673118591309 2.3443567752838135
33.82933044433594 11.266680717468262 0.5905449986457825
33.802364349365234 11.116539001464844 2.3444900512695312
33.8350830078125 11.13766098022461 0.5909331440925598
33.81663131713867 10.98411750793457 2.342801809310913
33.83751678466797 11.00129222869873 0.5916075110435486
33.81660079956055 10.853825569152832 2.3416433334350586
33.84701919555664 10.874009132385254 0.5915910601615906
33.832740783691406 10.728954315185547 2.339916706085205
33.85129165649414 10.745282173156738 0.5919837951660156
33.870418548583984 10.61747932434082 2.3374950885772705
33.85560607910156 10.623311042785645 0.5922966003417969
33.845115661621094 10.480005264282227 2.3371593952178955
33.8565559387207 10.49404525756836 0.592896044254303
33.86407470703125 10.350079536437988 2.3352272510528564
33.86595153808594 10.361181259155273 0.5927615761756897
33.86162567138672 10.220292091369629 2.3340768814086914
33.865909576416016 10.232136726379395 0.5933644771575928
33.863468170166016 10.092072486877441 2.332763433456421
33.88685989379883 10.109628677368164 0.5921263694763184
33.86003494262695 9.962556838989258 2.331618070602417
33.86913299560547 9.975836753845215 0.5941673517227173
33.86159133911133 9.841185569763184 2.3303489685058594
33.887451171875 9.859331130981445 0.5930525064468384
33.88123321533203 9.718827247619629 2.328378200531006
33.88311767578125 9.730021476745605 0.5938683748245239
33.881187438964844 9.591008186340332 2.3270702362060547
33.90705108642578 9.609010696411133 0.5922191143035889
33.89751052856445 9.468009948730469 2.3251824378967285
33.901763916015625 9.479903221130371 0.5930366516113281
33.90616989135742 9.343024253845215 2.3235437870025635
33.89358901977539 9.350286483764648 0.5940638184547424
33.91114044189453 9.210865020751953 2.3219499588012695
33.9201774597168 9.224079132080078 0.5920842289924622
33.919681549072266 9.092571258544922 2.3203518390655518
33.909446716308594 9.100606918334961 0.5932387113571167
33.92453384399414 8.967124938964844 2.3187999725341797
33.9118766784668 8.974578857421875 0.5932397246360779
33.93135452270508 8.842386245727539 2.317164182662964
33.92107391357422 8.850531578063965 0.5926225185394287
33.92560958862305 8.714599609375 2.315951108932495
33.91292190551758 8.722183227539062 0.5934528708457947
33.93876647949219 8.591864585876465 2.3140645027160645
33.92361068725586 8.598896980285645 0.5926307439804077
33.941776275634766 8.466726303100586 2.3125159740448
33.92660140991211 8.473830223083496 0.5924302935600281
33.94918441772461 8.342863082885742 2.3107991218566895
33.93155288696289 8.349442481994629 0.5920228362083435
33.94786071777344 8.21077823638916 2.309298515319824
33.93989181518555 8.21978759765625 0.5912854671478271
33.94391632080078 8.095527648925781 0.5908799171447754
33.946102142333984 7.977262020111084 0.590599775314331
33.963802337646484 7.856515407562256 0.5889471173286438
33.955108642578125 7.718812465667725 2.303079605102539
33.968929290771484 7.732977390289307 0.5883359909057617
33.96223449707031 7.595910549163818 2.3012821674346924
33.976036071777344 7.610042572021484 0.5875159502029419
33.961605072021484 7.471444129943848 2.29974365234375
33.97053909301758 7.484471321105957 0.5877394080162048
33.960506439208984 7.347073554992676 2.298206090927124
33.98405075073242 7.363249778747559 0.586295485496521
33.98465347290039 7.222067356109619 2.295680046081543
33.983768463134766 7.232982635498047 0.5859797596931458
33.985103607177734 7.098321437835693 2.294057607650757
33.99638366699219 7.111804008483887 0.584535539150238
33.999778747558594 6.977672100067139 2.291914463043213
34.003692626953125 6.989622592926025 0.5835093259811401
34.004234313964844 6.855031967163086 2.2901182174682617
33.99102783203125 6.863531589508057 0.5841589570045471
34.01197814941406 6.739351272583008 2.288273811340332
34.01826477050781 6.751783847808838 0.5813713073730469
34.01441955566406 6.622738838195801 2.2866032123565674
34.00113296508789 6.631348609924316 0.5823591947555542
34.02363586425781 6.4952497482299805 2.2845096588134766
34.02741622924805 6.507195949554443 0.5795300006866455
34.02144241333008 6.371880531311035 2.282890796661377
34.03010940551758 6.384746074676514 0.5787152051925659
34.023712158203125 6.249508857727051 2.2810981273651123
34.032352447509766 6.262353897094727 0.5779005289077759
34.02308654785156 6.1267547607421875 2.2793943881988525
34.03171920776367 6.139583587646484 0.5772975087165833
34.04170227050781 6.007553577423096 2.276984214782715
34.03308868408203 6.017326354980469 0.576485276222229
34.03384017944336 5.877677917480469 2.2754223346710205
34.02767562866211 5.887920379638672 0.5761811137199402
34.039268493652344 5.75637674331665 2.2734549045562744
34.037967681884766 5.767482757568359 0.5745259523391724
34.046722412109375 5.635516166687012 2.2713980674743652
34.05028533935547 5.647451877593994 0.5726592540740967
34.05622482299805 5.515073299407959 2.2692527770996094
34.049896240234375 5.525410175323486 0.57184898853302
34.07422637939453 5.402139663696289 2.2668750286102295
34.060428619384766 5.411332607269287 0.5701067447662354
34.068084716796875 5.279374122619629 2.265263795852661
34.056724548339844 5.289009094238281 0.5695093274116516
34.07138442993164 5.158212184906006 2.2632970809936523
34.06243896484375 5.168269157409668 0.5680644512176514
34.071773529052734 5.036726474761963 2.2614197731018066
34.0701904296875 5.047919750213623 0.5664085149765015
34.09151840209961 4.918152809143066 2.2588231563568115
34.08244323730469 4.928290367126465 0.5643270611763
34.099308013916016 4.791812419891357 2.2565505504608154
34.07783889770508 4.800256729125977 0.5636067986488342
34.0984001159668 4.670415878295898 2.2546727657318115
34.09169006347656 4.680975914001465 0.5613114833831787
34.111915588378906 4.551063537597656 2.252253293991089
34.09278106689453 4.560006141662598 0.5600796341896057
34.105194091796875 4.429103374481201 2.250558614730835
34.11320114135742 4.441656589508057 0.5571438670158386
34.11959457397461 4.316012859344482 2.2481727600097656
34.095401763916016 4.324475288391113 0.5575297474861145
34.13434982299805 4.196920871734619 2.245659351348877
34.11252975463867 4.205779075622559 0.5548049807548523
34.13628387451172 4.076296806335449 2.243600845336914
34.10451889038086 4.084056377410889 0.5542141795158386
34.08369827270508 3.9610018730163574 0.5546948909759521
33.72828674316406 3.800509452819824 0.5840675234794617
33.56331253051758 3.6519925594329834 2.2587246894836426
33.342464447021484 3.6393041610717773 0.6160635948181152
33.561458587646484 3.527421474456787 2.2566778659820557
33.38258743286133 3.5199873447418213 0.61112380027771
33.556068420410156 3.4085147380828857 2.254848003387451
33.31019973754883 3.3948981761932373 0.6159564852714539
33.629825592041016 3.297485589981079 2.2500641345977783
33.33897399902344 3.2803497314453125 0.6119963526725769
33.69325637817383 3.1850426197052 2.245638608932495
33.26072692871094 3.155531644821167 0.6172740459442139
33.69607162475586 3.0726451873779297 2.2435553073883057
33.27080154418945 3.0452558994293213 0.6149426102638245
33.70151138305664 2.9546024799346924 2.2412540912628174
33.08003234863281 2.9114649295806885 0.6299234628677368
33.70902633666992 2.8367679119110107 2.238858222961426
32.69266891479492 2.762486696243286 0.661954402923584
33.723602294921875 2.7195186614990234 2.236182928085327
32.92284393310547 2.6662707328796387 0.6403483152389526
33.70787048339844 2.599897861480713 2.2346267700195312
33.311668395996094 2.580784559249878 0.604896068572998
33.709598541259766 2.475821018218994 2.2322933673858643
32.826358795166016 2.422271728515625 0.6452990770339966
33.71045684814453 2.3576483726501465 2.230083465576172
32.9362678527832 2.3148648738861084 0.6340091228485107
33.71089553833008 2.23949933052063 2.227874279022217
33.19491958618164 2.2166671752929688 0.6097205281257629
33.72801208496094 2.1283576488494873 2.2251298427581787
33.057708740234375 2.0974764823913574 0.619949996471405
33.697731018066406 2.008418083190918 2.2240514755249023
32.98255920410156 1.9771978855133057 0.6246583461761475
33.704429626464844 1.8908121585845947 2.221560001373291
15.813870429992676 0.8936745524406433 2.1205132007598877
33.69575500488281 1.772396445274353 2.219635248184204
15.806835174560547 0.8379616737365723 2.1202118396759033
33.706626892089844 1.655043363571167 2.2169530391693115
15.824477195739746 0.7835370898246765 2.117738962173462
33.717079162597656 1.5376356840133667 2.2142677307128906
15.836956977844238 0.7287706732749939 2.1156980991363525
15.836917877197266 0.6706358194351196 2.11468505859375
15.839052200317383 0.6153700351715088 2.1135125160217285
19.29618263244629 0.7527278065681458 0.8523328900337219
15.843483924865723 0.560184895992279 2.112121820449829
19.323240280151367 0.6862716674804688 0.8475052118301392
12.476054191589355 0.3936479389667511 3.020291566848755
15.857677459716797 0.5052918791770935 2.1098570823669434
12.544733047485352 0.3519895374774933 3.0167741775512695
15.861721992492676 0.4500250518321991 2.108464241027832
19.30486488342285 0.5507780909538269 0.8477051258087158
12.633200645446777 0.31254830956459045 3.012523651123047
15.872981071472168 0.3976900279521942 2.106473445892334
19.343530654907227 0.48771706223487854 0.8412399291992188
12.61668872833252 0.2680923342704773 3.0122623443603516
15.869180679321289 0.3421933054924011 2.1057350635528564
12.582533836364746 0.22344760596752167 3.012679100036621
15.877638816833496 0.2869510352611542 2.1039018630981445
33.77779006958008 0.4785328507423401 2.190617084503174
15.875944137573242 0.23150958120822906 2.1029436588287354
33.78913879394531 0.3607628643512726 2.1877243518829346
15.881524085998535 0.17616495490074158 2.101327896118164
33.81260681152344 0.23710833489894867 2.1842188835144043
12.584259986877441 0.04560212790966034 3.0089001655578613
32.87361526489258 0.12732316553592682 0.599908173084259
12.619274139404297 0.0016863535856828094 3.006600856781006
32.910987854003906 0.012624174356460571 0.5941706299781799
12.669118881225586 -0.04252607747912407 3.0037100315093994
32.89815902709961 -0.10217714309692383 0.5928287506103516
12.731318473815918 -0.08495267480611801 3.0003695487976074
32.952213287353516 -0.2115878462791443 0.5856634974479675
12.78835391998291 -0.1299729198217392 2.99716854095459
33.12287521362305 -0.32828447222709656 0.5680071115493774
12.765296936035156 -0.17428837716579437 2.997103214263916
32.857357025146484 -0.44030922651290894 0.5889325141906738
12.629691123962402 -0.21649989485740662 3.0014708042144775
32.85788345336914 -0.5550021529197693 0.5862714648246765
12.5513916015625 -0.2589617073535919 3.0035901069641113
33.719451904296875 -0.6873156428337097 0.5071491599082947
33.8375358581543 -0.8197252750396729 2.160367965698242
33.72657775878906 -0.8052115440368652 0.503757894039154
33.85933303833008 -0.9384955763816833 2.15686297416687
33.59388732910156 -0.9193429350852966 0.5127618908882141
33.86054992675781 -1.0627117156982422 2.1540212631225586
33.117149353027344 -1.0277169942855835 0.552234411239624
33.84904479980469 -1.1806055307388306 2.1518023014068604
33.324676513671875 -1.1505872011184692 0.5309244394302368
33.355064392089844 -1.2681909799575806 0.5253390073776245
12.926411628723145 -0.535416305065155 2.346104145050049
12.55588436126709 -0.5683183670043945 2.996412992477417
12.95422077178955 -0.5818639397621155 2.342475414276123
