# .PCD v0.7 - Point Cloud Data file format
VERSION 0.7
FIELDS x y z
SIZE 4 4 4
TYPE F F F
COUNT 1 1 1
WIDTH 854
HEIGHT 1
VIEWPOINT 0 0 0 1 0 0 0
POINTS 854
DATA ascii
33.88813018798828 -8.487083435058594 2.5633370876312256
33.66975021362305 -8.652270317077637 2.56410551071167
33.88750076293945 -8.93020248413086 2.550975799560547
34.06449890136719 -9.200705528259277 2.5390193462371826
34.06315612792969 -9.424949645996094 2.532700300216675
34.037254333496094 -9.642984390258789 2.5271215438842773
34.01763916015625 -9.86328411102295 2.521289825439453
33.987972259521484 -10.081147193908691 2.515737295150757
33.8985710144043 -10.281326293945312 2.5121116638183594
33.9578742980957 -10.527246475219727 2.503514289855957
34.075462341308594 -10.793289184570312 2.4928834438323975
34.05221176147461 -11.016263008117676 2.4868831634521484
34.045536041259766 -11.245311737060547 2.4802682399749756
34.005123138427734 -11.463839530944824 2.474740505218506
34.08901596069336 -11.725523948669434 2.4649059772491455
34.05968475341797 -11.949630737304688 2.4588735103607178
34.02699661254883 -12.17314624786377 2.4529030323028564
34.05857849121094 -12.420677185058594 2.444636344909668
34.20924758911133 -12.713961601257324 2.432107448577881
34.30805587768555 -12.990804672241211 2.4212758541107178
34.309627532958984 -13.232657432556152 2.413785219192505
34.31695556640625 -13.47793960571289 2.4060144424438477
34.329063415527344 -13.726408004760742 2.397996425628662
34.342185974121094 -13.97666072845459 2.3898608684539795
34.362754821777344 -14.231414794921875 2.3813729286193848
34.37872314453125 -14.485782623291016 2.372967004776001
34.34876251220703 -14.721983909606934 2.3661699295043945
34.37308883666992 -14.982720375061035 2.3572921752929688
34.4256477355957 -15.257669448852539 2.3472678661346436
34.41871643066406 -15.507966041564941 2.3393726348876953
34.40546417236328 -15.756667137145996 2.331636428833008
34.42759704589844 -16.02307891845703 2.3224754333496094
34.42787551879883 -16.280954360961914 2.3140552043914795
34.403751373291016 -16.52861785888672 2.3064866065979004
34.372501373291016 -16.773967742919922 2.299119234085083
34.33325958251953 -17.016448974609375 2.2919886112213135
34.292327880859375 -17.259082794189453 2.28485369682312
34.18830871582031 -17.470476150512695 2.280142068862915
34.06878662109375 -17.67388343811035 2.2760074138641357
34.206268310546875 -18.012434005737305 2.2615370750427246
34.32412338256836 -18.344385147094727 2.2476892471313477
34.36362075805664 -18.637483596801758 2.2368617057800293
34.248470306396484 -18.847925186157227 2.2322356700897217
30.646942138671875 -17.111984252929688 2.3711068630218506
30.194272994995117 -17.103151321411133 2.381359100341797
34.26182556152344 -19.685531616210938 2.203145980834961
34.35783004760742 -20.02211570739746 2.1893839836120605
34.49055862426758 -20.384000778198242 2.1739041805267334
34.3895378112793 -20.610082626342773 2.1681900024414062
34.450157165527344 -20.9348087310791 2.1554887294769287
34.47574996948242 -21.241132736206055 2.144148349761963
34.41580581665039 -21.496679306030273 2.136392593383789
34.33713150024414 -21.74159812927246 2.1293721199035645
34.53764724731445 -22.166627883911133 2.1099672317504883
34.545745849609375 -22.47233009338379 2.0988571643829346
34.45793533325195 -22.71736717224121 2.091902732849121
34.446529388427734 -23.01435089111328 2.0814337730407715
34.64377975463867 -23.45489501953125 2.0613741874694824
34.73307418823242 -23.827497482299805 2.045982599258423
34.71241760253906 -24.127933502197266 2.0354549884796143
30.021587371826172 -21.142169952392578 2.241273880004883
34.803855895996094 -24.830524444580078 2.00781512260437
34.8086051940918 -25.15768051147461 1.9956566095352173
34.804996490478516 -25.481698989868164 1.983742117881775
34.831626892089844 -25.831018447875977 1.9702328443527222
34.816917419433594 -26.152812957763672 1.9585371017456055
34.870338439941406 -26.52924156188965 1.9433919191360474
34.860286712646484 -26.86095428466797 1.9311432838439941
34.89552307128906 -27.231035232543945 1.916509747505188
34.86558532714844 -27.553613662719727 1.9049118757247925
34.855621337890625 -27.89495277404785 1.8921655416488647
34.68439865112305 -28.108863830566406 1.8873664140701294
34.738189697265625 -28.507444381713867 1.8711097240447998
34.829891204833984 -28.94222068786621 1.85269033908844
34.813560485839844 -29.29170036315918 1.839576244354248
34.8391227722168 -29.680295944213867 1.824109435081482
34.85365295410156 -30.06377601623535 1.8090033531188965
34.90992736816406 -30.487977981567383 1.7914841175079346
34.888938903808594 -30.849136352539062 1.77782142162323
34.90949630737305 -31.25116539001465 1.7617413997650146
34.891624450683594 -31.623065948486328 1.7475073337554932
34.986083984375 -32.10197448730469 1.7269511222839355
34.9141731262207 -32.43293762207031 1.7152258157730103
34.9632568359375 -32.88058853149414 1.6966376304626465
32.34925842285156 30.093782424926758 2.8651890754699707
32.52506637573242 29.887332916259766 2.861389398574829
32.878726959228516 29.842477798461914 2.8533177375793457
32.35904312133789 29.010848999023438 2.865898609161377
32.430015563964844 28.717681884765625 2.8644168376922607
32.738685607910156 28.63471221923828 2.857247829437256
36.59272003173828 28.60149574279785 2.7647461891174316
37.04599380493164 28.59151268005371 2.7535758018493652
37.320777893066406 28.440074920654297 2.746580123901367
32.715946197509766 24.615392684936523 2.85549259185791
32.33491134643555 24.019561767578125 2.864047050476074
32.19694519042969 23.612045288085938 2.8667845726013184
32.21799087524414 23.324975967407227 2.8656952381134033
32.331092834472656 23.105972290039062 2.862367630004883
32.32834243774414 22.805776596069336 2.8617563247680664
32.420772552490234 22.574474334716797 2.8588292598724365
32.3624382019043 22.240400314331055 2.8594584465026855
32.309505462646484 21.913509368896484 2.859919786453247
32.33023452758789 21.639272689819336 2.8585777282714844
32.40470886230469 21.40252113342285 2.8559048175811768
32.300758361816406 21.05049705505371 2.8574719429016113
32.41069030761719 20.84006118774414 2.853862762451172
32.501522064208984 20.61782455444336 2.8506665229797363
32.520503997802734 20.35123634338379 2.8491578102111816
32.523834228515625 20.07678985595703 2.8479859828948975
32.41827392578125 19.738082885742188 2.8494069576263428
32.22322463989258 19.34944725036621 2.852963447570801
32.23455047607422 19.0882511138916 2.8514926433563232
32.40619659423828 18.92241668701172 2.84609055519104
32.427127838134766 18.668899536132812 2.844303846359253
32.48007583618164 18.435087203979492 2.841698408126831
32.40748977661133 18.13201141357422 2.842115640640259
32.52851867675781 17.93866729736328 2.837768077850342
32.75555419921875 17.80276107788086 2.8307783603668213
32.998897552490234 17.6737117767334 2.823331832885742
33.0694580078125 17.451358795166016 2.8200740814208984
44.472328186035156 23.12107276916504 2.5376551151275635
44.27237319946289 22.67329216003418 2.5404398441314697
44.1400260925293 22.264863967895508 2.541524887084961
44.08940124511719 21.901165008544922 2.5405502319335938
43.88151550292969 21.463376998901367 2.5434389114379883
43.709564208984375 21.048053741455078 2.545408248901367
43.6398811340332 20.68575096130371 2.544799327850342
43.485862731933594 20.28706169128418 2.5462591648101807
43.351322174072266 19.901472091674805 2.547203779220581
43.22098922729492 19.521591186523438 2.5480117797851562
43.14336013793945 19.168819427490234 2.547464370727539
42.94853210449219 18.767702102661133 2.549837589263916
33.19498825073242 14.263884544372559 2.7938380241394043
33.215450286865234 14.031977653503418 2.7912957668304443
33.2463264465332 13.805340766906738 2.7884531021118164
33.24882888793945 13.567899703979492 2.786294937133789
33.21162796020508 13.315696716308594 2.785115957260132
33.10096740722656 13.036252975463867 2.785789728164673
33.142913818359375 12.818533897399902 2.782526731491089
41.91728210449219 15.917170524597168 2.554553270339966
41.88566589355469 15.611907005310059 2.552515983581543
41.755184173583984 15.272260665893555 2.5529985427856445
41.61835479736328 14.933454513549805 2.553621768951416
41.48837661743164 14.600223541259766 2.5540449619293213
41.406917572021484 14.286757469177246 2.5531787872314453
41.26636505126953 13.955626487731934 2.5538289546966553
41.15178298950195 13.636192321777344 2.5537779331207275
41.0272331237793 13.316222190856934 2.5539650917053223
40.9708251953125 13.020700454711914 2.5523324012756348
40.78633117675781 12.687177658081055 2.554055690765381
40.721717834472656 12.393668174743652 2.552586317062378
33.82834243774414 10.069465637207031 2.732809066772461
40.52872085571289 11.793716430664062 2.5512583255767822
33.86930465698242 9.630997657775879 2.726262331008911
33.89103317260742 9.412887573242188 2.722899913787842
33.884342193603516 9.187548637390137 2.7202649116516113
33.891632080078125 8.966736793518066 2.7172200679779053
33.88296890258789 8.74243450164795 2.7145721912384033
33.8922233581543 8.523451805114746 2.711404800415039
33.87676239013672 8.298975944519043 2.7088747024536133
33.89288330078125 8.082894325256348 2.7054505348205566
33.911529541015625 7.867831230163574 2.701918363571167
33.92588424682617 7.652182102203369 2.6984670162200928
33.938865661621094 7.4366536140441895 2.695016622543335
33.916263580322266 7.213974475860596 2.692516565322876
33.939208984375 7.001546859741211 2.688718795776367
33.95199203491211 6.787343502044678 2.685164451599121
33.94772720336914 6.570208549499512 2.682050943374634
33.955833435058594 6.355955600738525 2.678556203842163
33.96947479248047 6.143095016479492 2.674868583679199
33.97685623168945 5.929446220397949 2.671319007873535
33.98487091064453 5.716269493103027 2.667715311050415
34.003387451171875 5.505134105682373 2.6637754440307617
34.0117073059082 5.292602062225342 2.6600868701934814
34.027591705322266 5.081503868103027 2.656144380569458
34.02436065673828 4.867861747741699 2.652712106704712
34.03166961669922 4.6560750007629395 2.648940324783325
34.043609619140625 4.445157527923584 2.6449966430664062
34.046302795410156 4.233282089233398 2.641282081604004
34.056617736816406 4.022594928741455 2.63730788230896
33.57887268066406 3.7574784755706787 2.6476168632507324
33.540531158447266 3.545018196105957 2.645050287246704
33.59235763549805 3.342272996902466 2.6397900581359863
33.66087341308594 3.140695333480835 2.6339848041534424
33.67041778564453 2.9333713054656982 2.6298840045928955
33.68267059326172 2.726370096206665 2.6256630420684814
33.68169021606445 2.5184342861175537 2.621798276901245
12.581563949584961 0.8634262084960938 3.2538256645202637
33.702816009521484 2.104593276977539 2.613255023956299
33.70997619628906 1.897531509399414 2.6090259552001953
33.71186447143555 1.6902599334716797 2.6049153804779053
33.73245620727539 1.4839144945144653 2.6001946926116943
33.726810455322266 1.276434302330017 2.596234083175659
19.291004180908203 0.6117876172065735 3.0376217365264893
33.73367691040039 0.8624167442321777 2.5876364707946777
33.75318908691406 0.6557610034942627 2.582775831222534
33.75544738769531 0.4486851096153259 2.5784080028533936
12.883237838745117 0.09245746582746506 3.228867769241333
12.538684844970703 0.013078034855425358 3.2380499839782715
33.78257369995117 -0.17267711460590363 2.564410448074341
33.79873275756836 -0.38010668754577637 2.5594303607940674
33.80162811279297 -0.5875332355499268 2.554826259613037
12.281245231628418 -0.28858503699302673 3.2396340370178223
33.814579010009766 -1.0028562545776367 2.5452568531036377
12.419519424438477 -0.4443475306034088 3.2318100929260254
13.022662162780762 -0.5459539294242859 3.210520029067993
33.73308563232422 -1.6221948862075806 2.533851385116577
12.817278861999512 -0.6949576735496521 3.213580369949341
12.761844635009766 -0.7704954147338867 3.2135751247406006
33.87461471557617 -2.254481792449951 2.5147500038146973
12.894874572753906 -0.937442421913147 3.2054738998413086
33.9108772277832 -2.675159454345703 2.5036537647247314
12.044792175292969 -1.0243175029754639 3.230111837387085
12.363699913024902 -1.127885103225708 3.2175962924957275
12.185405731201172 -1.1870332956314087 3.2217493057250977
33.93684768676758 -3.5169503688812256 2.4824085235595703
12.76490592956543 -1.4018055200576782 3.198284387588501
12.764948844909668 -1.4811190366744995 3.196302652359009
33.95225524902344 -4.151402473449707 2.46608304977417
13.42770004272461 -1.7252562046051025 3.1694016456604004
12.761126518249512 -1.7192350625991821 3.1903812885284424
33.97060012817383 -4.789709568023682 2.449186086654663
13.345062255859375 -1.9649213552474976 3.1658053398132324
13.43444538116455 -2.062368392944336 3.160470485687256
34.015403747558594 -5.436252593994141 2.430870771408081
12.445805549621582 -2.0671792030334473 3.1911020278930664
12.377685546875 -2.1339757442474365 3.19143009185791
12.482361793518066 -2.230966567993164 3.1855669021606445
29.3695125579834 -5.435901641845703 2.575125217437744
34.026268005371094 -6.514023780822754 2.4014699459075928
33.95708084106445 -6.717000961303711 2.398015260696411
33.78681182861328 -6.89898157119751 2.398221254348755
33.63808059692383 -7.083864212036133 2.397639036178589
33.84189987182617 -7.343906879425049 2.3840415477752686
33.79995346069336 -7.55223274230957 2.379425048828125
33.92716598510742 -7.799506187438965 2.3684604167938232
33.92422866821289 -8.018279075622559 2.362262010574341
33.95969772338867 -8.246979713439941 2.354557752609253
33.93351745605469 -8.461426734924316 2.3491101264953613
33.987300872802734 -8.696672439575195 2.3405685424804688
34.07233810424805 -8.941521644592285 2.3307487964630127
34.09387969970703 -9.171128273010254 2.3232688903808594
34.0946159362793 -9.39602279663086 2.316519260406494
34.08810043334961 -9.619645118713379 2.309983253479004
34.091644287109375 -9.846869468688965 2.302990674972534
34.085052490234375 -10.07194995880127 2.296325445175171
34.07315444946289 -10.296163558959961 2.2898027896881104
34.06837463378906 -10.523266792297363 2.282932996749878
34.08115005493164 -10.7567138671875 2.2752954959869385
34.14369201660156 -11.007271766662598 2.2655868530273438
34.15603256225586 -11.243064880371094 2.2577998638153076
34.1478157043457 -11.473058700561523 2.250765323638916
34.1304931640625 -11.700782775878906 2.244030237197876
34.16825485229492 -11.948517799377441 2.2349724769592285
34.13178634643555 -12.171314239501953 2.228874921798706
34.10513687133789 -12.398207664489746 2.222308397293091
34.227840423583984 -12.681124687194824 2.209463596343994
34.35114669799805 -12.967071533203125 2.1964569091796875
34.32766342163086 -13.199419021606445 2.189483404159546
34.35379409790039 -13.452006340026855 2.1803407669067383
34.33726501464844 -13.689127922058105 2.172914505004883
34.35430908203125 -13.940831184387207 2.1639747619628906
34.343685150146484 -14.182579040527344 2.156129837036133
34.37928771972656 -14.444846153259277 2.1462020874023438
34.373451232910156 -14.691198348999023 2.137969732284546
29.659435272216797 -12.892175674438477 2.335608720779419
34.43425369262695 -15.219639778137207 2.118051767349243
34.44212341308594 -15.476448059082031 2.1089260578155518
34.43450164794922 -15.727696418762207 2.1003901958465576
34.44593048095703 -15.98910903930664 2.090909242630005
34.43737030029297 -16.24273109436035 2.082223415374756
34.42158126831055 -16.494253158569336 2.07377028465271
34.388729095458984 -16.73876190185547 2.0660011768341064
34.407005310058594 -17.009613037109375 2.055803060531616
34.34110641479492 -17.240074157714844 2.049372911453247
34.228271484375 -17.44722557067871 2.0450499057769775
34.1292610168457 -17.66145133972168 2.040037155151367
34.2668571472168 -18.000104904174805 2.0238609313964844
34.133541107177734 -18.198211669921875 2.020294427871704
34.29522705078125 -18.555593490600586 2.002668857574463
34.233970642089844 -18.794946670532227 1.9954971075057983
34.270565032958984 -19.089672088623047 1.9835355281829834
34.34918212890625 -19.41062355041504 1.9693975448608398
34.40434646606445 -19.721328735351562 1.956234335899353
34.29891586303711 -19.941539764404297 1.9507906436920166
34.40808868408203 -20.28857421875 1.9346940517425537
34.35736846923828 -20.54386329650879 1.926344394683838
34.16896438598633 -20.71693229675293 1.9247808456420898
34.49551010131836 -21.20553970336914 1.8972954750061035
34.44001770019531 -21.463769912719727 1.8888115882873535
34.342952728271484 -21.697036743164062 1.8823460340499878
34.548038482666016 -22.124425888061523 1.860302209854126
34.42317199707031 -22.34354591369629 1.8550199270248413
34.523101806640625 -22.710765838623047 1.8379899263381958
34.521724700927734 -23.0146541595459 1.8260468244552612
34.64291000366211 -23.403827667236328 1.8074952363967896
34.71856689453125 -23.766569137573242 1.7911194562911987
34.769718170166016 -24.11631202697754 1.775841236114502
30.030460357666016 -21.103225708007812 2.0179989337921143
34.82395553588867 -24.792512893676758 1.7472920417785645
34.81681442260742 -25.110851287841797 1.7346067428588867
34.83611297607422 -25.45124626159668 1.7203062772750854
34.85173034667969 -25.79222869873047 1.7060208320617676
34.873260498046875 -26.140945434570312 1.6912187337875366
34.867149353027344 -26.47216796875 1.6777682304382324
34.90737533569336 -26.842050552368164 1.6615225076675415
34.9144172668457 -27.190095901489258 1.646944522857666
34.91769790649414 -27.53861427307129 1.6323851346969604
34.898502349853516 -27.872602462768555 1.618924856185913
34.73903274536133 -28.09619903564453 1.613437294960022
34.70487594604492 -28.42269515991211 1.6005431413650513
34.908695220947266 -28.949424743652344 1.5734314918518066
34.88471984863281 -29.292776107788086 1.5594712495803833
34.91110610961914 -29.682214736938477 1.5422989130020142
34.901466369628906 -30.045047760009766 1.5270569324493408
34.9549446105957 -30.466636657714844 1.5077600479125977
34.89519500732422 -30.793506622314453 1.4951207637786865
34.974281311035156 -31.247238159179688 1.4737293720245361
34.97575378417969 -31.63675308227539 1.4568524360656738
35.00175094604492 -32.05309295654297 1.4381887912750244
34.97486114501953 -32.42543411254883 1.4225904941558838
35.02118682861328 -32.870426177978516 1.4020978212356567
32.33302307128906 30.080646514892578 2.5803396701812744
32.482215881347656 29.84994888305664 2.5774753093719482
32.51654052734375 29.515748977661133 2.5782675743103027
32.4482536315918 29.09282875061035 2.582301378250122
32.42390441894531 28.714282989501953 2.584821939468384
32.57147216796875 28.49049186706543 2.581709384918213
32.561676025390625 28.13134002685547 2.583601951599121
32.592811584472656 27.811023712158203 2.5840957164764404
32.603675842285156 27.4765682220459 2.5851664543151855
32.61166000366211 27.143028259277344 2.586251735687256
32.629150390625 26.820587158203125 2.5869579315185547
32.65322494506836 26.506519317626953 2.587379217147827
32.66922378540039 26.188791275024414 2.5879878997802734
32.68569564819336 25.874347686767578 2.5885088443756104
32.68378829956055 25.54837989807129 2.5895469188690186
32.69890594482422 25.23868179321289 2.589970350265503
32.69794464111328 24.919464111328125 2.590838670730591
32.69989013671875 24.605417251586914 2.5915462970733643
32.29397964477539 23.991230010986328 2.6051688194274902
32.1679573059082 23.592845916748047 2.6098055839538574
32.24879455566406 23.349346160888672 2.6077964305877686
32.31484603881836 23.096445083618164 2.606196641921997
32.293243408203125 22.783100128173828 2.6073195934295654
32.34695816040039 22.52516746520996 2.6059892177581787
32.3764762878418 22.25214385986328 2.6053664684295654
32.4096565246582 21.983535766601562 2.604567050933838
32.3502197265625 21.654748916625977 2.6066477298736572
32.248775482177734 21.301624298095703 2.610001802444458
32.29077911376953 21.046091079711914 2.608746290206909
32.45025634765625 20.86762237548828 2.6037063598632812
32.52097702026367 20.63228988647461 2.601426124572754
32.58494567871094 20.39369773864746 2.5993027687072754
32.301021575927734 19.94136619567871 2.6081621646881104
32.400421142578125 19.729328155517578 2.604804515838623
32.386165618896484 19.449405670166016 2.6049985885620117
32.405826568603516 19.191797256469727 2.604062557220459
32.34585952758789 18.88930892944336 2.605602264404297
32.46879577636719 18.695026397705078 2.601278305053711
32.47929382324219 18.436779022216797 2.600473642349243
32.654457092285156 18.272342681884766 2.594378709793091
32.72116470336914 18.047067642211914 2.5916781425476074
32.836395263671875 17.8488712310791 2.58737850189209
32.98743438720703 17.66976547241211 2.581882953643799
33.027008056640625 17.43115234375 2.5798845291137695
33.045387268066406 17.182575225830078 2.578510046005249
33.06284713745117 16.934886932373047 2.5771141052246094
33.06156539916992 16.679075241088867 2.5762672424316406
33.077186584472656 16.433256149291992 2.5748307704925537
33.09104537963867 16.187875747680664 2.5734009742736816
33.093231201171875 15.938172340393066 2.5722954273223877
33.118892669677734 15.701042175292969 2.5703890323638916
33.123870849609375 15.455321311950684 2.5690975189208984
33.13616943359375 15.214303970336914 2.5675230026245117
33.14129638671875 14.971246719360352 2.566131114959717
33.14377212524414 14.728294372558594 2.564777135848999
33.168338775634766 14.496283531188965 2.5626635551452637
33.16926193237305 14.255054473876953 2.5612661838531494
33.185977935791016 14.021751403808594 2.5593109130859375
33.18815231323242 13.783411979675293 2.5577797889709473
33.2117919921875 13.55501651763916 2.555506944656372
33.22089385986328 13.321642875671387 2.553658962249756
33.10841751098633 13.041410446166992 2.5557210445404053
33.134525299072266 12.817514419555664 2.553231954574585
33.64409255981445 12.77798080444336 2.5349152088165283
33.6851806640625 12.557743072509766 2.53181791305542
33.733280181884766 12.340571403503418 2.528440237045288
33.734832763671875 12.107075691223145 2.526540994644165
33.73855972290039 11.875353813171387 2.524523973464966
33.7586669921875 11.650236129760742 2.5219228267669678
33.765926361083984 11.42147445678711 2.5196990966796875
33.77923583984375 11.195579528808594 2.5172297954559326
33.796756744384766 10.971800804138184 2.514575719833374
33.78422546386719 10.73914623260498 2.512871503829956
33.79588317871094 10.515074729919434 2.5103211402893066
33.81084442138672 10.292720794677734 2.507615089416504
33.815731048583984 10.068010330200195 2.5051991939544678
33.840248107910156 9.849771499633789 2.502082586288452
33.852787017822266 9.628605842590332 2.4993207454681396
33.85040283203125 9.403908729553223 2.497013568878174
33.86872863769531 9.185619354248047 2.493966817855835
33.87018966674805 8.963370323181152 2.4914417266845703
33.87600326538086 8.742944717407227 2.488725423812866
33.89008331298828 8.525224685668945 2.485684633255005
33.901798248291016 8.307421684265137 2.4826788902282715
33.895591735839844 8.08585262298584 2.4802374839782715
33.90741729736328 7.8691911697387695 2.477137327194214
33.925655364990234 7.654448986053467 2.473773241043091
33.931800842285156 7.437423229217529 2.470775842666626
33.93362808227539 7.219986438751221 2.467883348464966
33.950706481933594 7.006239891052246 2.4644203186035156
33.95663833618164 6.790595531463623 2.4612956047058105
33.961204528808594 6.575141429901123 2.4581732749938965
33.96440505981445 6.359886169433594 2.4550533294677734
33.980010986328125 6.147329330444336 2.4514575004577637
33.99134063720703 5.934304237365723 2.4479634761810303
34.00231170654297 5.721536159515381 2.444434642791748
34.01393127441406 5.509175777435303 2.4408373832702637
34.02521514892578 5.297040939331055 2.4372053146362305
34.02627182006836 5.083644866943359 2.4338860511779785
34.032928466796875 4.871426582336426 2.4303243160247803
34.04518508911133 4.660265922546387 2.426517963409424
34.05216979980469 4.4486188888549805 2.422852039337158
34.05883026123047 4.237184524536133 2.4191501140594482
34.07311248779297 4.026890754699707 2.4151289463043213
33.56965255737305 3.758748769760132 2.4296209812164307
33.53726577758789 3.54697322845459 2.4272351264953613
33.595035552978516 3.344846248626709 2.4215595722198486
33.6466064453125 3.1416780948638916 2.4160499572753906
33.665096282958984 2.9352238178253174 2.4116835594177246
33.674346923828125 2.7280144691467285 2.4076039791107178
33.68231964111328 2.520801544189453 2.4035227298736572
33.68901824951172 2.3135921955108643 2.3994390964508057
33.68446731567383 2.105771064758301 2.395721435546875
12.617350578308105 0.7108397483825684 3.16815447807312
33.71343994140625 1.6926681995391846 2.3867392539978027
12.659952163696289 0.5575345754623413 3.1635758876800537
33.72636032104492 1.2787507772445679 2.378150701522827
19.301753997802734 0.6131133437156677 2.9125375747680664
33.72920608520508 0.8646392226219177 2.369741439819336
33.75170135498047 0.6580726504325867 2.364671468734741
33.76093673706055 0.4511011838912964 2.360046863555908
12.909377098083496 0.09303368628025055 3.144678831100464
12.88266658782959 0.013813430443406105 3.144019603729248
33.78102111816406 -0.17031891644001007 2.3461530208587646
33.79416275024414 -0.3777019679546356 2.3411707878112793
33.799041748046875 -0.5851326584815979 2.3364527225494385
33.79964828491211 -0.7925681471824646 2.331845998764038
12.446243286132812 -0.36852213740348816 3.1522438526153564
33.81001663208008 -1.2079861164093018 2.3221230506896973
12.562470436096191 -0.5262851119041443 3.1442503929138184
11.676634788513184 -0.5609789490699768 3.1770684719085693
13.350175857543945 -0.7234305739402771 3.109790802001953
12.840728759765625 -0.7748704552650452 3.127901077270508
12.816729545593262 -0.8523641228675842 3.1269679069519043
33.888160705566406 -2.461899518966675 2.2897894382476807
33.886192321777344 -2.670827865600586 2.2847940921783447
13.157114028930664 -1.1185264587402344 3.107616424560547
12.287209510803223 -1.1205642223358154 3.140481948852539
12.226341247558594 -1.1906870603561401 3.1410319805145264
12.137248992919922 -1.2572240829467773 3.1427206993103027
12.764913558959961 -1.401418924331665 3.115342855453491
33.951515197753906 -3.93766450881958 2.2505199909210205
13.473623275756836 -1.6467442512512207 3.082268476486206
13.47608470916748 -1.7310173511505127 3.0799694061279297
13.419594764709473 -1.8075156211853027 3.080075263977051
33.97358703613281 -4.787714004516602 2.2273287773132324
11.809720039367676 -1.7385118007659912 3.1424646377563477
11.769145965576172 -1.8063757419586182 3.142146587371826
34.012386322021484 -5.4333415031433105 2.20835018157959
34.022586822509766 -5.649240493774414 2.202005386352539
34.00680160522461 -5.861227512359619 2.1966912746429443
13.56914234161377 -2.4247710704803467 3.0575637817382812
13.522503852844238 -2.5021443367004395 3.0571141242980957
34.033939361572266 -6.513049125671387 2.1772117614746094
33.95493698120117 -6.714137554168701 2.174363851547241
33.8835563659668 -6.9163007736206055 2.171149969100952
33.82759475708008 -7.121341705322266 2.1672277450561523
33.847530364990234 -7.342689514160156 2.1599550247192383
33.790931701660156 -7.547781467437744 2.155951976776123
33.85578536987305 -7.7806501388549805 2.14656925201416
33.9112663269043 -8.012761116027832 2.137504816055298
33.99137878417969 -8.252208709716797 2.12725567817688
34.0203857421875 -8.48061752319336 2.1191775798797607
34.02753829956055 -8.704493522644043 2.1119909286499023
34.087337493896484 -8.942974090576172 2.1023643016815186
34.08856201171875 -9.167207717895508 2.095280885696411
34.09794616699219 -9.394448280334473 2.087751865386963
34.09332275390625 -9.618623733520508 2.080780029296875
34.078590393066406 -9.840600967407227 2.07419490814209
34.093074798583984 -10.071817398071289 2.066195011138916
34.08878707885742 -10.298380851745605 2.058976173400879
34.083946228027344 -10.525568008422852 2.0517046451568604
34.13190841674805 -10.770217895507812 2.0418922901153564
34.140113830566406 -11.003593444824219 2.0338377952575684
34.155269622802734 -11.240285873413086 2.025369167327881
34.15460205078125 -11.472806930541992 2.017557144165039
34.14763259887695 -11.704124450683594 2.0099594593048096
34.14854049682617 -11.939085006713867 2.0019009113311768
34.13655471801758 -12.17047119140625 1.994373083114624
34.09953689575195 -12.393630027770996 1.9879701137542725
34.29525375366211 -12.703537940979004 1.9702086448669434
34.31180191040039 -12.949647903442383 1.960991382598877
34.31728744506836 -13.192853927612305 1.952214241027832
34.34990692138672 -13.44790267944336 1.9420037269592285
34.36027526855469 -13.695711135864258 1.932781457901001
34.3642578125 -13.942276000976562 1.9237744808197021
34.36558151245117 -14.189022064208984 1.9147980213165283
34.37897872924805 -14.44211196899414 1.9051151275634766
34.364837646484375 -14.684910774230957 1.8967138528823853
29.629966735839844 -12.877237319946289 2.1280159950256348
29.552963256835938 -13.059958457946777 2.1239125728607178
34.42980194091797 -15.468284606933594 1.8654148578643799
34.42672348022461 -15.721511840820312 1.8560203313827515
34.430885314941406 -15.979488372802734 1.8461430072784424
34.44130325317383 -16.241941452026367 1.8358241319656372
34.45969772338867 -16.509870529174805 1.8249671459197998
34.449153900146484 -16.765522003173828 1.81551194190979
34.45198440551758 -17.02918815612793 1.8052353858947754
34.386810302734375 -17.26036262512207 1.798467993736267
34.25601577758789 -17.458721160888672 1.7951388359069824
34.175533294677734 -17.682750701904297 1.7890526056289673
34.3447380065918 -18.03835105895996 1.7693427801132202
34.422706604003906 -18.349702835083008 1.7543814182281494
34.30573654174805 -18.558605194091797 1.7499438524246216
34.33372497558594 -18.84703254699707 1.737446665763855
34.3786506652832 -19.147192001342773 1.7238575220108032
34.48118591308594 -19.482511520385742 1.7068872451782227
34.3997688293457 -19.71600341796875 1.7000486850738525
34.48085403442383 -20.04460334777832 1.6839395761489868
34.52821350097656 -20.356678009033203 1.6695510149002075
34.49073028564453 -20.620880126953125 1.6598387956619263
34.540130615234375 -20.939239501953125 1.645005464553833
34.47714614868164 -21.191511154174805 1.6364957094192505
34.477630615234375 -21.484466552734375 1.6241804361343384
34.538299560546875 -21.817697525024414 1.6081814765930176
34.522987365722656 -22.105621337890625 1.5964628458023071
34.44846725463867 -22.357208251953125 1.5881098508834839
34.53570556640625 -22.71628189086914 1.5699855089187622
34.514278411865234 -23.006912231445312 1.5581623315811157
34.6966552734375 -23.437335968017578 1.5338544845581055
34.73904037475586 -23.77777671813965 1.5177570581436157
34.76870346069336 -24.11278533935547 1.5022294521331787
30.022422790527344 -21.095272064208984 1.7811163663864136
34.83421325683594 -24.79697608947754 1.4701741933822632
34.80672073364258 -25.100727081298828 1.457592487335205
34.831642150878906 -25.445133209228516 1.441544771194458
34.84882736206055 -25.787220001220703 1.4257715940475464
34.85991287231445 -26.128076553344727 1.410174012184143
34.88323974609375 -26.481508255004883 1.3935784101486206
34.89006423950195 -26.82585906982422 1.3778222799301147
34.89948654174805 -27.175580978393555 1.3616807460784912
34.926307678222656 -27.542505264282227 1.3441753387451172
34.89374542236328 -27.865901947021484 1.330344557762146
34.74747085571289 -28.100139617919922 1.3238767385482788
34.792030334472656 -28.491174697875977 1.304545521736145
34.919952392578125 -28.955841064453125 1.2793214321136475
34.885154724121094 -29.290218353271484 1.2647831439971924
34.887115478515625 -29.65888786315918 1.2475214004516602
34.9691162109375 -30.100345611572266 1.2244977951049805
34.9611701965332 -30.469120025634766 1.2073780298233032
34.88486099243164 -30.781442642211914 1.1947858333587646
34.953487396240234 -31.225704193115234 1.1718029975891113
35.007591247558594 -31.66257667541504 1.1495071649551392
35.005340576171875 -32.053401947021484 1.1309058666229248
34.984954833984375 -32.43181228637695 1.113329529762268
35.02531051635742 -32.87131118774414 1.0910778045654297
30.297300338745117 -28.785947799682617 1.417238473892212
32.35777282714844 30.466829299926758 2.3136558532714844
32.329444885253906 30.068307876586914 2.318387985229492
32.46748352050781 29.827503204345703 2.3162503242492676
32.518672943115234 29.508886337280273 2.317542314529419
32.44882583618164 29.084686279296875 2.3236172199249268
32.42815017700195 28.70950698852539 2.3275909423828125
32.562110900878906 28.473859786987305 2.32524037361145
32.566558837890625 28.127229690551758 2.328000545501709
32.588523864746094 27.79913330078125 2.329956531524658
32.595462799072266 27.461530685424805 2.332414388656616
32.623313903808594 27.144712448120117 2.333940267562866
32.61607360839844 26.801931381225586 2.336766242980957
32.63846206665039 26.48672103881836 2.3383188247680664
32.65509796142578 26.169748306274414 2.3400075435638428
32.67220687866211 25.85605239868164 2.341585636138916
32.67568588256836 25.534517288208008 2.3436121940612793
32.690696716308594 25.22490692138672 2.3450937271118164
32.7293815612793 24.936067581176758 2.3455562591552734
32.72342300415039 24.615859985351562 2.3476884365081787
32.65058517456055 24.248987197875977 2.3523571491241455
32.258522033691406 23.65226173400879 2.3694400787353516
32.406890869140625 23.456867218017578 2.3652522563934326
32.48984146118164 23.214635848999023 2.3635547161102295
32.52938461303711 22.942888259887695 2.363478183746338
32.48151397705078 22.612140655517578 2.366732597351074
32.46623611450195 22.307186126708984 2.368635892868042
32.47657012939453 22.02234649658203 2.369462728500366
32.507896423339844 21.753786087036133 2.3693971633911133
32.384525299072266 21.384878158569336 2.37526798248291
32.426185607910156 21.127986907958984 2.3746509552001953
32.46338653564453 20.869766235351562 2.3741350173950195
32.57797622680664 20.662206649780273 2.370549440383911
32.55907440185547 20.37132453918457 2.3720686435699463
32.3779411315918 19.982763290405273 2.379795551300049
32.30084228515625 19.662681579589844 2.38342022895813
32.37356948852539 19.43587875366211 2.381178617477417
32.34239196777344 19.148326873779297 2.382887363433838
32.35724639892578 18.89011001586914 2.3827500343322754
32.50094223022461 18.70772361755371 2.3775672912597656
32.66969299316406 18.53908348083496 2.3713550567626953
32.69193649291992 18.287586212158203 2.370737314224243
32.77271270751953 18.069812774658203 2.367793560028076
32.86697769165039 17.859848022460938 2.3642661571502686
32.97488021850586 17.657428741455078 2.36014723777771
33.01524353027344 17.41937828063965 2.3585734367370605
33.03618621826172 17.172273635864258 2.3576855659484863
33.04734802246094 16.921470642089844 2.3571131229400635
33.05845642089844 16.67207908630371 2.356480121612549
33.067752838134766 16.423187255859375 2.3558552265167236
33.084228515625 16.179201126098633 2.354891538619995
33.099849700927734 15.936064720153809 2.353900909423828
33.11283874511719 15.692916870117188 2.3529505729675293
33.11594009399414 15.446409225463867 2.352323293685913
33.130889892578125 15.206707000732422 2.3511784076690674
33.13686752319336 14.964115142822266 2.3503215312957764
33.14385223388672 14.723236083984375 2.3493664264678955
33.161041259765625 14.488038063049316 2.34795880317688
33.15914535522461 14.245687484741211 2.3472325801849365
33.18867111206055 14.017906188964844 2.3452296257019043
33.18711853027344 13.778035163879395 2.3443756103515625
33.21625900268555 13.551924705505371 2.3422727584838867
33.210487365722656 13.312589645385742 2.3414697647094727
33.0793571472168 13.02513313293457 2.3454909324645996
33.1286506652832 12.810439109802246 2.3424363136291504
33.6277961730957 12.76696491241455 2.321779727935791
33.67628860473633 12.549626350402832 2.3186235427856445
33.72431564331055 12.332517623901367 2.315425395965576
33.73521041870117 12.102466583251953 2.3136212825775146
33.74737548828125 11.873739242553711 2.311711311340332
33.765567779541016 11.647927284240723 2.309509754180908
33.75669860839844 11.413695335388184 2.308314085006714
33.76899719238281 11.187553405761719 2.3062334060668945
33.77789306640625 10.961071014404297 2.304231643676758
33.785282135009766 10.734902381896973 2.302234411239624
33.794986724853516 10.510242462158203 2.30009126663208
33.81181335449219 10.288484573364258 2.297612428665161
33.81474304199219 10.063209533691406 2.295628786087036
33.81618118286133 9.838285446166992 2.293649673461914
33.84112548828125 9.620826721191406 2.2906856536865234
33.84156799316406 9.397015571594238 2.2886390686035156
33.85211181640625 9.176698684692383 2.2861380577087402
33.86799240112305 8.958393096923828 2.283370018005371
33.88730239868164 8.741486549377441 2.280409574508667
33.88584899902344 8.519804954528809 2.2782249450683594
33.906246185302734 8.30417537689209 2.2751128673553467
33.8961181640625 8.08166217803955 2.2731707096099854
33.90108108520508 7.863423824310303 2.2705705165863037
33.913421630859375 7.647407054901123 2.2676198482513428
33.93218994140625 7.433244705200195 2.2643558979034424
33.94374465942383 7.217892169952393 2.261329174041748
33.946109771728516 7.00106143951416 2.258619546890259
33.950035095214844 6.785060405731201 2.255794048309326
33.965335845947266 6.571741580963135 2.252453565597534
33.970458984375 6.35683536529541 2.249472141265869
33.97914505004883 6.143002033233643 2.2462923526763916
33.99238967895508 5.930330276489258 2.242872476577759
34.00923156738281 5.718555450439453 2.2392501831054688
34.02376937866211 5.506636619567871 2.2356669902801514
34.0271110534668 5.293217182159424 2.2324893474578857
34.02219772338867 5.078930377960205 2.2295982837677
34.033748626708984 4.8674492835998535 2.225975275039673
34.04892349243164 4.656693458557129 2.222146511077881
34.058841705322266 4.44541597366333 2.218480348587036
34.06050109863281 4.233328819274902 2.215102195739746
34.074737548828125 4.023027420043945 2.211146593093872
33.53162384033203 3.750495672225952 2.230450391769409
33.52798843383789 3.5420069694519043 2.227187156677246
33.58967208862305 3.340330123901367 2.2211265563964844
33.64118576049805 3.137192964553833 2.215427875518799
33.66061019897461 2.9308605194091797 2.2110204696655273
33.66980743408203 2.7236814498901367 2.206989049911499
33.67872619628906 2.516573429107666 2.2029128074645996
33.678401947021484 2.3089098930358887 2.1991748809814453
33.67978286743164 2.101531505584717 2.1953089237213135
12.976581573486328 0.7290675044059753 3.0777106285095215
12.123608589172363 0.6064873337745667 3.1128151416778564
33.68924331665039 1.4804108142852783 2.1831533908843994
12.673115730285645 0.47825735807418823 3.0862183570861816
19.30121612548828 0.6104986071586609 2.7977988719940186
33.728206634521484 0.8606903553009033 2.169213056564331
33.7376594543457 0.6538777351379395 2.1646018028259277
33.756832122802734 0.4471263587474823 2.1595075130462646
33.77573776245117 0.24017031490802765 2.154362916946411
33.771392822265625 0.03297580033540726 2.1501777172088623
12.852328300476074 -0.06705767661333084 3.0671281814575195
12.732728958129883 -0.14455646276474 3.07070255279541
33.79767608642578 -0.5890254974365234 2.1355390548706055
33.800228118896484 -0.7964982390403748 2.1308140754699707
11.543404579162598 -0.3436976671218872 3.1185193061828613
12.488463401794434 -0.44842612743377686 3.074633836746216
11.787724494934082 -0.49575480818748474 3.1043057441711426
12.729349136352539 -0.6135036945343018 3.0602293014526367
13.360694885253906 -0.7260465621948242 3.029869556427002
12.845368385314941 -0.7771503329277039 3.051251173019409
12.834308624267578 -0.8555329442024231 3.0498411655426025
33.87633514404297 -2.4649782180786133 2.088294267654419
13.08362102508545 -1.0335055589675903 3.0345406532287598
12.463820457458496 -1.061580777168274 3.060976028442383
12.291864395141602 -1.122945785522461 3.0669493675231934
12.371173858642578 -1.2067533731460571 3.0613386631011963
12.75594711303711 -1.3232941627502441 3.0415098667144775
33.924339294433594 -3.727712869644165 2.0540931224823
13.40540885925293 -1.5570731163024902 3.007014274597168
13.447086334228516 -1.6455789804458618 3.0028364658355713
13.569424629211426 -1.7450958490371704 2.9948232173919678
13.875171661376953 -1.8709877729415894 2.9780821800231934
11.844568252563477 -1.6714040040969849 3.071923017501831
13.810494422912598 -2.035100221633911 2.9763612747192383
34.001163482666016 -5.221866607666016 2.010082721710205
33.99293899536133 -5.434276103973389 2.004425287246704
34.001129150390625 -5.649728775024414 1.9979108572006226
33.99810791015625 -5.863790035247803 1.99186372756958
34.01142883300781 -6.0811920166015625 1.9849525690078735
34.03711700439453 -6.301523685455322 1.9773633480072021
34.039794921875 -6.518268585205078 1.9708147048950195
33.983280181884766 -6.723847389221191 1.9670921564102173
33.89224624633789 -6.92218542098999 1.9650158882141113
33.852840423583984 -7.130776882171631 1.9603480100631714
33.859004974365234 -7.349313735961914 1.9533584117889404
33.84231185913086 -7.563404083251953 1.947428584098816
33.799930572509766 -7.771972179412842 1.9427121877670288
33.83888244628906 -7.999835968017578 1.9338501691818237
33.85495376586914 -8.223284721374512 1.9260461330413818
34.03333282470703 -8.48807430267334 1.909936547279358
34.04523468017578 -8.713266372680664 1.9021352529525757
34.096221923828125 -8.94957447052002 1.8922501802444458
34.09736251831055 -9.17386245727539 1.8848155736923218
34.0787353515625 -9.393461227416992 1.8783141374588013
34.07023239135742 -9.61643123626709 1.8712115287780762
34.0852165222168 -9.846858024597168 1.8628056049346924
34.08619689941406 -10.074151039123535 1.855035662651062
34.11053466796875 -10.309340476989746 1.8459532260894775
34.1160774230957 -10.539900779724121 1.8377587795257568
34.158172607421875 -10.782942771911621 1.8275376558303833
34.14913558959961 -11.010960578918457 1.8199204206466675
34.139530181884766 -11.239587783813477 1.8122438192367554
34.142601013183594 -11.473282814025879 1.8037984371185303
34.167701721191406 -11.715538024902344 1.7940694093704224
34.1656608581543 -11.949630737304688 1.7856996059417725
34.1281623840332 -12.1720609664917 1.7791579961776733
34.125823974609375 -12.407791137695312 1.7706170082092285
34.301673889160156 -12.7105712890625 1.7522047758102417
34.30970764160156 -12.95354175567627 1.742845058441162
34.308589935302734 -13.194223403930664 1.7338835000991821
34.330909729003906 -13.445208549499512 1.7235136032104492
34.349578857421875 -13.696226119995117 1.7132285833358765
34.34147262573242 -13.937837600708008 1.7043285369873047
34.3676872253418 -14.194734573364258 1.693386435508728
34.36257553100586 -14.440095901489258 1.6840945482254028
34.357574462890625 -14.686715126037598 1.6746851205825806
29.62514305114746 -12.879526138305664 1.9359960556030273
29.545360565185547 -13.061005592346191 1.932032823562622
34.42139434814453 -15.469528198242188 1.641218662261963
34.42641830444336 -15.726433753967285 1.6307450532913208
34.42776870727539 -15.983139038085938 1.620361566543579
34.4317741394043 -16.242584228515625 1.6096978187561035
34.446495056152344 -16.50872230529785 1.5982725620269775
34.45744323730469 -16.774776458740234 1.5869344472885132
34.46372985839844 -17.040258407592773 1.5757378339767456
34.423431396484375 -17.284046173095703 1.5672008991241455
34.347625732421875 -17.510746002197266 1.5607000589370728
34.26323699951172 -17.733495712280273 1.5546326637268066
34.233985900878906 -17.985591888427734 1.5451204776763916
34.29103469848633 -18.284976959228516 1.530195951461792
34.34744644165039 -18.586687088012695 1.5151307582855225
34.100337982177734 -18.724456787109375 1.518703579902649
34.4948616027832 -19.217548370361328 1.4822924137115479
34.44472122192383 -19.467588424682617 1.4733394384384155
34.50455093383789 -19.781795501708984 1.4573349952697754
34.533329010009766 -20.080909729003906 1.4431021213531494
34.52360534667969 -20.359813690185547 1.4311479330062866
34.54003143310547 -20.656265258789062 1.4173619747161865
34.56264877319336 -20.958858489990234 1.403002381324768
34.52925109863281 -21.229562759399414 1.3920953273773193
34.5006103515625 -21.504867553710938 1.3807344436645508
34.46398162841797 -21.776887893676758 1.3697495460510254
34.554786682128906 -22.13219451904297 1.3501993417739868
34.56546401977539 -22.439414978027344 1.3357263803482056
34.556156158447266 -22.73607635498047 1.3223998546600342
34.53120422363281 -23.02460289001465 1.3099499940872192
34.66202163696289 -23.42043685913086 1.2867873907089233
34.73488998413086 -23.781513214111328 1.267272710800171
34.76934814453125 -24.119890213012695 1.2501338720321655
30.043594360351562 -21.116098403930664 1.561078667640686
34.80283737182617 -24.781457901000977 1.2176234722137451
34.81665802001953 -25.114788055419922 1.2012426853179932
34.83010482788086 -25.45098114013672 1.1846644878387451
34.81905746459961 -25.772249221801758 1.169592261314392
34.83413314819336 -26.11589241027832 1.1524513959884644
34.86616897583008 -26.475780487060547 1.1338578462600708
34.86738586425781 -26.81574058532715 1.117228627204895
34.87676239013672 -27.165300369262695 1.0997742414474487
34.8870735168457 -27.51906967163086 1.0820046663284302
34.8935661315918 -27.87335968017578 1.0642646551132202
34.780582427978516 -28.134584426879883 1.0551276206970215
34.78850173950195 -28.496057510375977 1.0368291139602661
34.92238235473633 -28.96575164794922 1.0088012218475342
34.91264724731445 -29.321304321289062 0.9912394285202026
34.92647933959961 -29.700458526611328 0.9716240763664246
34.95132827758789 -30.0932559967041 0.9508748650550842
34.9312744140625 -30.451396942138672 0.933289647102356
34.891666412353516 -30.795883178710938 0.9169626832008362
34.95707702636719 -31.237476348876953 0.8921545743942261
34.984310150146484 -31.650217056274414 0.8699899315834045
34.97980880737305 -32.03883743286133 0.8500145673751831
35.00990676879883 -32.46389389038086 0.8269578218460083
35.020809173583984 -32.87615966796875 0.8050978779792786
30.290414810180664 -28.787525177001953 1.1686656475067139
32.4609489440918 30.92142677307129 2.047520160675049
32.33323287963867 30.423805236816406 2.058936357498169
32.33167266845703 30.05071449279785 2.064044952392578
32.477664947509766 29.81735610961914 2.0618724822998047
32.52800369262695 29.49806785583496 2.064218759536743
32.45729446411133 29.073270797729492 2.0722646713256836
32.4439811706543 28.704755783081055 2.077404260635376
32.551536560058594 28.446012496948242 2.0766282081604004
32.56182861328125 28.104755401611328 2.080390453338623
32.59577941894531 27.787137985229492 2.082904100418091
32.58425521850586 27.434120178222656 2.087458848953247
32.6364860534668 27.137882232666016 2.0888707637786865
32.62066650390625 26.788127899169922 2.093386650085449
32.62895965576172 26.461626052856445 2.0966451168060303
32.65944290161133 26.156023025512695 2.0987470149993896
32.66859436035156 25.83616828918457 2.1017401218414307
32.68844985961914 25.527647018432617 2.1041224002838135
32.67885208129883 25.199106216430664 2.1077730655670166
32.704620361328125 24.900707244873047 2.1096651554107666
32.741546630859375 24.61315155029297 2.110935926437378
32.66865158081055 24.24626922607422 2.117204189300537
32.55300521850586 23.852272033691406 2.1253373622894287
32.39733123779297 23.43425750732422 2.135199785232544
32.48336410522461 23.194435119628906 2.133779287338257
32.52438735961914 22.92392349243164 2.134347915649414
32.59120559692383 22.673192977905273 2.1336379051208496
32.470829010009766 22.29522705078125 2.1414432525634766
32.58280563354492 22.079370498657227 2.138477325439453
32.625247955322266 21.817424774169922 2.138618230819702
32.44969940185547 21.41323471069336 2.148646831512451
32.454654693603516 21.131986618041992 2.150315523147583
32.51118850708008 20.886056900024414 2.149542808532715
32.54989242553711 20.63006019592285 2.1494994163513184
32.52907180786133 20.338354110717773 2.1520843505859375
32.47953796386719 20.03141975402832 2.1558871269226074
32.561500549316406 19.807401657104492 2.153625965118408
32.61537551879883 19.567190170288086 2.152562141418457
