# .PCD v0.7 - Point Cloud Data file format
VERSION 0.7
FIELDS x y z
SIZE 4 4 4
TYPE F F F
COUNT 1 1 1
WIDTH 845
HEIGHT 1
VIEWPOINT 0 0 0 1 0 0 0
POINTS 845
DATA ascii
33.29106521606445 -19.317089080810547 -0.36218535900115967
33.33258056640625 -19.615751266479492 -0.3861129581928253
33.20939254760742 -19.81880760192871 -0.39040401577949524
33.17261505126953 -20.074129104614258 -0.4053540527820587
20.202302932739258 -13.444695472717285 1.086286187171936
20.05892562866211 -13.527761459350586 1.0911786556243896
19.729717254638672 -13.482775688171387 1.1197457313537598
19.58744239807129 -13.562772750854492 1.1246109008789062
19.516578674316406 -13.691793441772461 1.1202741861343384
19.45378303527832 -13.826794624328613 1.114789366722107
19.442522048950195 -13.999308586120605 1.102478265762329
19.47123908996582 -14.572129249572754 1.0561050176620483
19.423152923583984 -14.723115921020508 1.0478613376617432
19.41938018798828 -15.099419593811035 1.0184721946716309
19.447147369384766 -15.313591003417969 0.9994181394577026
19.43724822998047 -15.500151634216309 0.9852158427238464
28.93796730041504 -23.663103103637695 -0.35684722661972046
28.792510986328125 -23.840778350830078 -0.36090946197509766
28.709970474243164 -24.071224212646484 -0.3738888204097748
28.699207305908203 -24.363971710205078 -0.3971959948539734
28.719100952148438 -24.68600845336914 -0.4252128005027771
28.767610549926758 -25.03662109375 -0.4577385485172272
28.712173461914062 -25.300012588500977 -0.47588467597961426
20.9427490234375 -18.684085845947266 0.6169394850730896
20.763154983520508 -18.754201889038086 0.6233725547790527
20.340625762939453 -18.60074806213379 0.665284276008606
20.137470245361328 -18.6434268951416 0.6754589676856995
19.862024307250977 -18.616331100463867 0.696401059627533
19.71028709411621 -18.702899932861328 0.699144721031189
19.553218841552734 -18.783489227294922 0.7026652097702026
15.531672477722168 14.450324058532715 1.8467199802398682
13.085062980651855 11.588587760925293 2.1550049781799316
13.111473083496094 11.469400405883789 2.1583664417266846
13.140687942504883 11.353582382202148 2.161306381225586
13.169734954833984 11.238484382629395 2.1641619205474854
13.219958305358887 11.142082214355469 2.1645619869232178
13.241164207458496 11.021896362304688 2.1680939197540283
13.282174110412598 10.918957710266113 2.1693363189697266
13.31855583190918 10.812788963317871 2.1710004806518555
13.350248336791992 10.70346736907959 2.173088312149048
13.386571884155273 10.598494529724121 2.174579381942749
13.42995834350586 10.499615669250488 2.175215721130371
13.450556755065918 10.383552551269531 2.1782386302948
13.498762130737305 10.289379119873047 2.1781866550445557
13.536767959594727 10.187813758850098 2.1791560649871826
13.57563591003418 10.087358474731445 2.1799519062042236
13.61056900024414 9.98444938659668 2.1810874938964844
13.642330169677734 9.879739761352539 2.182478666305542
13.674942016601562 9.77617359161377 2.183696985244751
13.714123725891113 9.677749633789062 2.184138774871826
13.75261402130127 9.579211235046387 2.184577226638794
13.791232109069824 9.481130599975586 2.1849260330200195
13.826693534851074 9.381256103515625 2.1855311393737793
13.859794616699219 9.280195236206055 2.1863062381744385
13.900486946105957 9.18457317352295 2.186213970184326
13.938026428222656 9.087166786193848 2.1863772869110107
13.974056243896484 8.989107131958008 2.186624050140381
14.011932373046875 8.892547607421875 2.1866071224212646
14.049149513244629 8.79586124420166 2.186586618423462
14.092489242553711 8.703240394592285 2.185865640640259
14.136072158813477 8.610937118530273 2.1850528717041016
14.185030937194824 8.522015571594238 2.1836233139038086
14.249712944030762 8.44246768951416 2.1805262565612793
14.325992584228516 8.369481086730957 2.1761929988861084
14.419432640075684 8.188687324523926 2.1733648777008057
14.48746109008789 8.110309600830078 2.169700860977173
14.62134838104248 8.067986488342285 2.1593399047851562
15.059765815734863 8.189970016479492 2.118299722671509
15.801331520080566 8.468292236328125 2.046905040740967
27.88507843017578 14.726654052734375 0.8386621475219727
27.700618743896484 14.412797927856445 0.8625430464744568
27.708377838134766 14.201725006103516 0.8670058250427246
27.849750518798828 14.059338569641113 0.8580036759376526
32.33772659301758 15.342470169067383 0.43268969655036926
32.70968246459961 15.274064064025879 0.40102455019950867
33.01140213012695 15.169224739074707 0.3762417733669281
33.13790512084961 14.98205280303955 0.36865171790122986
33.14140319824219 14.739653587341309 0.3730385899543762
33.10211944580078 14.479809761047363 0.3814689815044403
33.11488342285156 14.244224548339844 0.3846224844455719
33.12784194946289 14.00980281829834 0.387601763010025
33.154808044433594 13.782257080078125 0.3890572190284729
33.17654037475586 13.553397178649902 0.39087527990341187
33.21889877319336 13.333693504333496 0.3905302584171295
33.07359313964844 13.040542602539062 0.4083462655544281
33.10426330566406 12.818731307983398 0.4088360369205475
33.47135543823242 12.725521087646484 0.3764382302761078
33.65193557739258 12.558635711669922 0.362098753452301
33.703609466552734 12.343082427978516 0.36016538739204407
33.699546813964844 12.107833862304688 0.363502562046051
33.7248649597168 11.884021759033203 0.36384299397468567
33.72517776489258 11.6522216796875 0.3664644658565521
33.73995590209961 11.426292419433594 0.3675408363342285
33.744728088378906 11.197796821594238 0.36944374442100525
33.74891662597656 10.969978332519531 0.3712606728076935
33.765811920166016 10.74705982208252 0.37170833349227905
33.773643493652344 10.521973609924316 0.37289270758628845
33.78855895996094 10.29980754852295 0.37325483560562134
33.767669677734375 10.067607879638672 0.37693244218826294
33.792049407958984 9.849708557128906 0.3761056661605835
33.80257797241211 9.628338813781738 0.37647944688796997
33.81358337402344 9.407742500305176 0.3766705095767975
33.82987976074219 9.18919849395752 0.37621721625328064
33.84284591674805 8.970295906066895 0.3759501874446869
33.83608627319336 8.746842384338379 0.37744876742362976
33.84813690185547 8.52891731262207 0.37700238823890686
33.85975646972656 8.311409950256348 0.37646567821502686
33.87385559082031 8.095003128051758 0.3755582273006439
33.880760192871094 7.877381324768066 0.3752116560935974
33.866844177246094 7.655585289001465 0.37673527002334595
33.89427185058594 7.443653583526611 0.37415215373039246
33.9125862121582 7.230010032653809 0.37231528759002686
33.93540573120117 7.017629623413086 0.36991584300994873
33.921756744384766 6.798193454742432 0.3708938956260681
33.92819595336914 6.58336067199707 0.3698115944862366
33.93033981323242 6.36815071105957 0.36901265382766724
33.9370002746582 6.154226779937744 0.36765149235725403
33.951141357421875 5.942002773284912 0.36544251441955566
33.96787643432617 5.73049783706665 0.3628540635108948
33.98231887817383 5.518848419189453 0.3603595495223999
33.99347686767578 5.3069281578063965 0.3580535054206848
33.982635498046875 5.091977119445801 0.3577399253845215
33.99113082885742 4.880328178405762 0.3554364740848541
34.00718688964844 4.669983863830566 0.35227611660957336
34.01898193359375 4.459236145019531 0.34939971566200256
34.03638458251953 4.249379634857178 0.3458537757396698
34.05644226074219 4.039944171905518 0.34192344546318054
32.55979919433594 3.6599791049957275 0.4845772087574005
32.715850830078125 3.474503993988037 0.46732622385025024
32.364723205566406 3.236602783203125 0.4990616738796234
32.81862258911133 3.078869104385376 0.45268967747688293
32.800785064697266 2.8743813037872314 0.4518946707248688
32.465213775634766 2.6444287300109863 0.48183318972587585
33.08784103393555 2.4910154342651367 0.41858696937561035
32.667171478271484 2.257929563522339 0.4565923810005188
32.840919494628906 2.0676586627960205 0.4366805851459503
15.749112129211426 0.8935485482215881 2.0992536544799805
15.77497673034668 0.7979902625083923 2.0951693058013916
15.783353805541992 0.7013936042785645 2.092729330062866
15.778214454650879 0.6042262315750122 2.09155011177063
15.787394523620605 0.5076289176940918 2.0889124870300293
15.8208589553833 0.41159072518348694 2.083833932876587
15.830849647521973 0.31470203399658203 2.0809922218322754
15.807405471801758 0.21724945306777954 2.0813732147216797
32.719146728515625 0.2511783242225647 0.4160750210285187
32.761451721191406 0.0505521222949028 0.4076918959617615
32.85029602050781 -0.1508023887872696 0.39458605647087097
12.49747371673584 -0.13531526923179626 2.3999624252319336
12.521126747131348 -0.21238616108894348 2.3958709239959717
12.55126953125 -0.28991296887397766 2.391082763671875
12.843527793884277 -0.37545260787010193 2.3602404594421387
12.852755546569824 -0.45464393496513367 2.3573763370513916
12.838626861572266 -0.5330178141593933 2.3567843437194824
32.898075103759766 -1.564789891242981 0.3558391332626343
13.095108032226562 -0.7046504616737366 2.327044725418091
12.840065956115723 -0.7699885368347168 2.350356340408325
12.823022842407227 -0.8479449152946472 2.3498685359954834
12.559380531311035 -0.9079692959785461 2.3740766048431396
12.778594017028809 -1.0026185512542725 2.349799871444702
12.248542785644531 -1.0367575883865356 2.40083384513855
13.54883098602295 -1.2303566932678223 2.2673842906951904
12.023645401000977 -1.1665040254592896 2.418940782546997
33.154659271240234 -3.418365478515625 0.2769237160682678
33.067359924316406 -3.614529609680176 0.2791946232318878
33.21907043457031 -3.8374831676483154 0.2570684254169464
33.360389709472656 -4.061354637145996 0.235803484916687
33.06993103027344 -4.23206901550293 0.25841769576072693
33.85148620605469 -4.543299674987793 0.17136062681674957
33.92302703857422 -4.764956474304199 0.15660761296749115
33.92617416381836 -4.977847099304199 0.14870719611644745
33.89946365356445 -5.186596393585205 0.14373677968978882
33.767330169677734 -5.378626346588135 0.14951394498348236
33.75582504272461 -5.5893778800964355 0.142732635140419
33.86457824707031 -5.8210835456848145 0.12334470450878143
29.20996856689453 -5.2060017585754395 0.5987393260002136
33.75644302368164 -6.22992467880249 0.11788780987262726
33.596946716308594 -6.413918972015381 0.12598568201065063
33.746829986572266 -6.6574015617370605 0.10163213312625885
29.435749053955078 -12.995049476623535 0.1814756542444229
33.03477096557617 -16.31394386291504 -0.3510042130947113
32.921112060546875 -16.51001739501953 -0.3539313077926636
20.418691635131836 -13.423012733459473 0.9331747889518738
20.41503143310547 -13.600893020629883 0.9198509454727173
19.420129776000977 -13.461281776428223 1.0115231275558472
19.337663650512695 -13.580711364746094 1.0087764263153076
19.9913330078125 -14.409586906433105 0.8906763195991516
19.451091766357422 -14.202592849731445 0.9502023458480835
19.446359634399414 -14.383081436157227 0.936026394367218
19.471158981323242 -14.58728313446045 0.9175105094909668
19.37224769592285 -14.699824333190918 0.9160810708999634
19.350521087646484 -15.0614652633667 0.8879978656768799
19.302419662475586 -15.603589057922363 0.8464058041572571
19.309795379638672 -15.806652069091797 0.8286863565444946
27.651369094848633 -22.918949127197266 -0.40739259123802185
27.432849884033203 -23.023595809936523 -0.3998698890209198
27.1512393951416 -23.073022842407227 -0.38300976157188416
26.990589141845703 -23.22355842590332 -0.3840365409851074
26.813379287719727 -23.35929298400879 -0.38268423080444336
20.53818130493164 -18.569787979125977 0.4979476034641266
20.330387115478516 -18.610204696655273 0.5094333291053772
20.049264907836914 -18.580564498901367 0.5323461294174194
19.84682273864746 -18.620925903320312 0.5432438850402832
19.664817810058594 -18.678667068481445 0.5510170459747314
19.467815399169922 -18.720417022705078 0.5611963272094727
15.51285171508789 14.462750434875488 1.717029333114624
12.963458061218262 11.792527198791504 2.0468671321868896
13.0072021484375 11.687500953674316 2.048696994781494
13.048657417297363 11.581060409545898 2.0507044792175293
13.065333366394043 11.453542709350586 2.055605173110962
13.113314628601074 11.354286193847656 2.056614398956299
13.156027793884277 11.250988006591797 2.0581634044647217
13.18427562713623 11.136027336120605 2.06134295463562
13.22231674194336 11.030074119567871 2.063251256942749
13.263399124145508 10.927238464355469 2.064702272415161
13.300628662109375 10.821799278259277 2.0665149688720703
13.338617324829102 10.717562675476074 2.068143367767334
13.37505054473877 10.612646102905273 2.0698604583740234
13.40991497039795 10.507072448730469 2.071667194366455
13.429025650024414 10.389892578125 2.075209379196167
13.475692749023438 10.294634819030762 2.0754587650299072
13.514543533325195 10.193799018859863 2.0765278339385986
13.547872543334961 10.08930492401123 2.0781445503234863
13.590057373046875 9.991862297058105 2.078657627105713
13.62430477142334 9.889017105102539 2.0799944400787354
13.665088653564453 9.791346549987793 2.080500841140747
13.704374313354492 9.692973136901855 2.0810961723327637
13.737253189086914 9.590495109558105 2.0823333263397217
13.768571853637695 9.487412452697754 2.0836613178253174
13.807378768920898 9.389906883239746 2.0840632915496826
13.840548515319824 9.288949966430664 2.085016965866089
13.876317977905273 9.19013786315918 2.0855982303619385
13.912233352661133 9.091782569885254 2.0860836505889893
13.951648712158203 8.996027946472168 2.08610200881958
13.987053871154785 8.897994041442871 2.0864884853363037
14.024311065673828 8.801450729370117 2.086592674255371
14.061758041381836 8.70530891418457 2.086599826812744
14.10195255279541 8.611113548278809 2.086230754852295
14.139816284179688 8.515724182128906 2.0860443115234375
14.181320190429688 8.422735214233398 2.085386276245117
14.221357345581055 8.32905387878418 2.0848171710968018
14.262503623962402 8.236191749572754 2.0840559005737305
14.303045272827148 8.143138885498047 2.083289623260498
14.341245651245117 8.048921585083008 2.0827066898345947
14.570487022399902 8.060562133789062 2.061431884765625
14.871197700500488 8.10828685760498 2.0324788093566895
15.851813316345215 8.517313957214355 1.9305016994476318
27.55537223815918 14.588418006896973 0.6788147687911987
27.5892391204834 14.390585899353027 0.6811883449554443
27.616405487060547 14.190155982971191 0.6841301918029785
27.655479431152344 13.996675491333008 0.685654878616333
27.699459075927734 13.806357383728027 0.6865145564079285
27.773420333862305 13.63137435913086 0.6840501427650452
27.90812873840332 13.485886573791504 0.6750178933143616
28.16434669494629 13.39741039276123 0.6530202031135559
28.424123764038086 13.30798053741455 0.6305847764015198
32.65556335449219 15.045724868774414 0.1890823245048523
33.113983154296875 15.011594772338867 0.14626063406467438
33.11954116821289 14.770094871520996 0.15104228258132935
33.08601379394531 14.512696266174316 0.15975695848464966
33.126441955566406 14.288985252380371 0.1605343073606491
33.15071487426758 14.05910587310791 0.16284674406051636
33.16606521606445 13.826399803161621 0.16593006253242493
33.17520523071289 13.592145919799805 0.1694999486207962
33.214115142822266 13.370936393737793 0.16980226337909698
33.07848358154297 13.081311225891113 0.18813450634479523
33.11498260498047 12.86159896850586 0.1883600503206253
33.43739700317383 12.75151252746582 0.1587143838405609
33.604034423828125 12.57967758178711 0.14515866339206696
33.65769577026367 12.365089416503906 0.1431952565908432
33.648197174072266 12.12804126739502 0.14763043820858002
33.65676498413086 11.898537635803223 0.15003502368927002
33.66943359375 11.671339988708496 0.15186160802841187
33.689064025878906 11.447314262390137 0.15281672775745392
33.69588088989258 11.219712257385254 0.1549435704946518
33.71063995361328 10.9955415725708 0.1560996025800705
33.703060150146484 10.764947891235352 0.1594092845916748
33.72907257080078 10.545846939086914 0.15910682082176208
33.75556945800781 10.327412605285645 0.15860755741596222
33.743473052978516 10.097920417785645 0.16193515062332153
33.74320602416992 9.872875213623047 0.16389550268650055
33.7586784362793 9.653136253356934 0.16409312188625336
33.76984405517578 9.43277359008789 0.16458748281002045
33.78438949584961 9.213944435119629 0.1645917445421219
33.78886413574219 8.992985725402832 0.16548626124858856
33.796714782714844 8.773565292358398 0.16589082777500153
33.80121612548828 8.553897857666016 0.16649697721004486
33.81589126586914 8.337361335754395 0.16591793298721313
33.83015060424805 8.121195793151855 0.16523994505405426
33.838191986083984 7.904036045074463 0.16506081819534302
33.83222961425781 7.6842145919799805 0.16617634892463684
33.84135818481445 7.46840763092041 0.16560591757297516
33.86176681518555 7.255485534667969 0.16374021768569946
33.872066497802734 7.040768146514893 0.162772074341774
33.87028121948242 6.824033737182617 0.1629055291414261
33.87785339355469 6.609679222106934 0.16194169223308563
33.89091873168945 6.396778583526611 0.16027772426605225
33.89775466918945 6.183070659637451 0.15911559760570526
33.911075592041016 5.970897197723389 0.15715144574642181
33.92601776123047 5.759289741516113 0.1548856794834137
33.93571472167969 5.547079563140869 0.1530212014913559
33.94015884399414 5.334346294403076 0.15156036615371704
33.94227981567383 5.121615886688232 0.1502024233341217
33.95488739013672 4.910767078399658 0.14763318002223969
33.959285736083984 4.698998928070068 0.14577150344848633
33.975189208984375 4.489053249359131 0.14259293675422668
33.991764068603516 4.279334545135498 0.13920865952968597
33.97840118408203 4.066151142120361 0.13876958191394806
32.480010986328125 3.6849772930145264 0.2910531163215637
32.39870834350586 3.474656343460083 0.2974384129047394
32.356624603271484 3.269569158554077 0.29966408014297485
32.372676849365234 3.0707619190216064 0.29577401280403137
32.35975646972656 2.8694186210632324 0.29474371671676636
32.353519439697266 2.6690011024475098 0.2928983271121979
32.33314514160156 2.4677813053131104 0.2923881709575653
32.37502670288086 2.271364212036133 0.28531453013420105
32.4047966003418 2.073824644088745 0.27936044335365295
15.761337280273438 0.9118589162826538 2.001007080078125
15.776359558105469 0.815680742263794 1.9979273080825806
15.786819458007812 0.719170331954956 1.9952565431594849
15.790727615356445 0.6223260760307312 1.9932020902633667
15.796026229858398 0.5255258679389954 1.9909396171569824
15.823598861694336 0.4293026328086853 1.9862943887710571
15.82870864868164 0.3323008716106415 1.9839218854904175
15.818305015563965 0.23503002524375916 1.9831050634384155
32.52065658569336 0.2833034098148346 0.23564065992832184
32.670528411865234 0.08421146124601364 0.21578997373580933
32.619266510009766 -0.11599786579608917 0.21684151887893677
32.53793716430664 -0.31529802083969116 0.22093145549297333
32.39573669433594 -0.5126627087593079 0.23130720853805542
32.427337646484375 -0.7121427059173584 0.22331207990646362
32.43583297729492 -0.9114174246788025 0.21760976314544678
32.43714141845703 -1.110621452331543 0.2125319391489029
12.897812843322754 -0.5206138491630554 2.271679401397705
32.51655197143555 -1.5129261016845703 0.19385574758052826
13.068860054016113 -0.6882096529006958 2.249363660812378
12.86567497253418 -0.7566734552383423 2.268726348876953
12.861610412597656 -0.8356369733810425 2.2669365406036377
12.85210132598877 -0.9142271876335144 2.265674591064453
12.877802848815918 -0.9954934120178223 2.2606067657470703
13.230988502502441 -1.1045001745224 2.22048282623291
12.006595611572266 -1.0764665603637695 2.3490400314331055
12.824706077575684 -1.867970585823059 2.237135648727417
12.818726539611816 -1.947493314743042 2.234804153442383
29.264198303222656 -5.184208393096924 0.410826712846756
19.609909057617188 -6.959583282470703 1.3045998811721802
19.499265670776367 -7.055383205413818 1.3100085258483887
19.420822143554688 -7.1621270179748535 1.3115366697311401
19.34738540649414 -7.270272731781006 1.3124089241027832
19.291915893554688 -7.384895324707031 1.3110588788986206
19.253358840942383 -7.505970001220703 1.307590365409851
19.242671966552734 -7.638218879699707 1.300653100013733
19.23845672607422 -7.773597717285156 1.292814016342163
19.201135635375977 -7.895984649658203 1.28889799118042
33.62035369873047 -17.33734893798828 -0.7043474316596985
20.580402374267578 -13.139874458312988 0.7902990579605103
20.351444244384766 -13.170333862304688 0.8080116510391235
20.040678024291992 -13.144551277160645 0.8372494578361511
19.818689346313477 -13.173745155334473 0.8542602062225342
19.615224838256836 -13.212925910949707 0.8687634468078613
19.462080001831055 -13.284266471862793 0.8762176036834717
19.37904930114746 -13.40281867980957 0.8736936450004578
19.343286514282227 -13.554483413696289 0.8643078804016113
19.310434341430664 -13.709088325500488 0.8543356657028198
19.314306259155273 -13.891057014465332 0.8388753533363342
19.295795440673828 -14.058382987976074 0.8264375925064087
19.295129776000977 -14.240158081054688 0.8111861944198608
19.282611846923828 -14.414724349975586 0.7974427342414856
19.290048599243164 -14.60585880279541 0.7805269360542297
19.287981033325195 -14.791583061218262 0.7647678256034851
19.28513526916504 -14.97844123840332 0.7488783001899719
19.283058166503906 -15.167662620544434 0.7326232194900513
19.284038543701172 -15.36113166809082 0.7156496047973633
19.30577850341797 -15.573266983032227 0.6952486634254456
19.284099578857422 -15.752318382263184 0.6811871528625488
19.298439025878906 -15.9627046585083 0.6613407731056213
19.305587768554688 -16.169395446777344 0.6423014402389526
19.32984733581543 -16.392831802368164 0.620293378829956
19.404064178466797 -16.661806106567383 0.5901080965995789
20.88982582092285 -18.617429733276367 0.29492706060409546
20.55584716796875 -18.547637939453125 0.3272845149040222
20.334957122802734 -18.57625389099121 0.34167295694351196
20.045976638793945 -18.539491653442383 0.3672725260257721
19.841577529907227 -18.57793426513672 0.3792599141597748
19.623775482177734 -18.60159683227539 0.3935469686985016
19.450849533081055 -18.66591453552246 0.4004928171634674
15.505498886108398 14.456283569335938 1.5799132585525513
12.903739929199219 11.883622169494629 1.932712197303772
12.960718154907227 11.790188789367676 1.9331482648849487
12.992607116699219 11.674551010131836 1.9367706775665283
14.412595748901367 12.791812896728516 1.7597278356552124
14.447896003723145 12.665775299072266 1.7634687423706055
14.551417350769043 12.599725723266602 1.7582852840423584
13.132072448730469 11.230703353881836 1.9485410451889038
13.169332504272461 11.123615264892578 1.9508980512619019
13.222587585449219 11.030519485473633 1.951112985610962
13.259833335876465 10.924530029296875 1.9532697200775146
13.290103912353516 10.813474655151367 1.9562044143676758
13.338907241821289 10.71804141998291 1.9566996097564697
13.369110107421875 10.60818862915039 1.9594359397888184
13.396120071411133 10.496526718139648 1.9624652862548828
13.441154479980469 10.399548530578613 1.9631460905075073
13.47996997833252 10.29818344116211 1.9645085334777832
13.511693000793457 10.191937446594238 1.966652512550354
13.547410011291504 10.089256286621094 1.9682066440582275
13.587187767028809 9.990056037902832 1.9691689014434814
13.619815826416016 9.88607120513916 1.9709148406982422
13.658154487609863 9.786697387695312 1.9718714952468872
13.699849128723145 9.690098762512207 1.97233247756958
13.72618579864502 9.583100318908691 1.9745653867721558
13.770574569702148 9.48913288116455 1.9745265245437622
13.806097984313965 9.389382362365723 1.9754714965820312
13.840916633605957 9.289552688598633 1.9764140844345093
13.878351211547852 9.19184684753418 1.9769576787948608
13.913443565368652 9.092940330505371 1.9776965379714966
13.949517250061035 8.995028495788574 1.9782339334487915
13.982396125793457 8.89541244506836 1.9790666103363037
14.034805297851562 8.808425903320312 1.9775090217590332
14.054524421691895 8.701225280761719 1.9797288179397583
14.092142105102539 8.605523109436035 1.9797559976577759
14.13337516784668 8.512252807617188 1.979280710220337
14.176563262939453 8.420324325561523 1.9785007238388062
14.21829605102539 8.327681541442871 1.9778157472610474
14.249948501586914 8.229369163513184 1.978227138519287
14.293035507202148 8.137873649597168 1.977232575416565
14.337271690368652 8.047131538391113 1.97603178024292
14.508036613464355 8.026474952697754 1.960158109664917
15.852104187011719 8.51806354522705 1.8132178783416748
27.480112075805664 14.550286293029785 0.4841843545436859
27.4952335357666 14.343269348144531 0.4890850782394409
27.5000057220459 14.132064819335938 0.49500128626823425
27.53518295288086 13.937516212463379 0.4972853362560272
27.455041885375977 13.68625259399414 0.5125281810760498
27.665790557861328 13.58028793334961 0.4945572018623352
27.784896850585938 13.428092002868652 0.4868911802768707
28.054996490478516 13.347171783447266 0.4620368480682373
28.413423538208008 13.30478286743164 0.42715713381767273
15.762397766113281 0.9125930666923523 1.8978756666183472
15.767478942871094 0.8158958554267883 1.895825982093811
19.287778854370117 0.7610743641853333 1.503791093826294
19.27691078186035 0.6422601342201233 1.5029280185699463
12.903071403503418 -0.5997138023376465 2.1847546100616455
13.029959678649902 -0.6857337951660156 2.168328046798706
12.893383026123047 -0.7578901648521423 2.181490182876587
12.886323928833008 -0.8368296027183533 2.180026054382324
12.870851516723633 -0.9151485562324524 2.1794588565826416
12.68796443939209 -1.0587575435638428 2.1954028606414795
12.813666343688965 -1.1484416723251343 2.178673267364502
12.817076683044434 -1.2280555963516235 2.1757545471191406
12.811094284057617 -1.306848406791687 2.1738476753234863
12.800676345825195 -1.3851877450942993 2.172391891479492
12.797675132751465 -1.4643528461456299 2.1700334548950195
12.78234577178955 -1.5421066284179688 2.1690311431884766
12.762530326843262 -1.8585028648376465 2.15970516204834
29.25620460510254 -5.180769443511963 0.21759404242038727
19.93630027770996 -6.52777099609375 1.1591830253601074
19.484901428222656 -6.512676239013672 1.2076767683029175
19.216812133789062 -6.554486274719238 1.233502745628357
19.133726119995117 -6.657544136047363 1.2362356185913086
19.13152503967285 -6.788721561431885 1.2287461757659912
19.10321807861328 -6.911003112792969 1.2244313955307007
19.085309982299805 -7.037317276000977 1.2187023162841797
19.112117767333984 -7.180785179138184 1.2071870565414429
19.14158821105957 -7.326267719268799 1.1951841115951538
19.078393936157227 -7.436682224273682 1.1948789358139038
20.331096649169922 -8.213913917541504 1.0164774656295776
19.022775650024414 -7.821561813354492 1.1762210130691528
19.125259399414062 -8.001317024230957 1.1540788412094116
19.108386993408203 -8.132466316223145 1.1472417116165161
28.37834358215332 -16.212223052978516 -0.3556629717350006
28.389488220214844 -16.450668334960938 -0.3752584159374237
28.401336669921875 -16.69136619567871 -0.3952355682849884
28.36610221862793 -16.905900955200195 -0.4087907671928406
28.27237892150879 -17.08623504638672 -0.4142017662525177
28.081878662109375 -17.207456588745117 -0.40584442019462585
27.872407913208008 -17.31546974182129 -0.3947705328464508
27.715593338012695 -17.45488929748535 -0.39134156703948975
20.54002571105957 -13.112807273864746 0.6364440321922302
20.22799301147461 -13.089184761047363 0.6675190329551697
19.927833557128906 -13.06931209564209 0.6970754265785217
19.741933822631836 -13.121520042419434 0.709925651550293
19.540510177612305 -13.161409378051758 0.7251434326171875
19.386072158813477 -13.231218338012695 0.7334107160568237
19.29682159423828 -13.344788551330566 0.7318856120109558
19.261362075805664 -13.495918273925781 0.7221387624740601
19.233671188354492 -13.653435707092285 0.7110363841056824
19.213632583618164 -13.817496299743652 0.6985743641853333
19.252456665039062 -14.02564811706543 0.6768636107444763
19.234344482421875 -14.194137573242188 0.6636387705802917
19.23236846923828 -14.376005172729492 0.6476902365684509
19.2257137298584 -14.555984497070312 0.6322227716445923
19.227807998657227 -14.744274139404297 0.6151361465454102
19.233007431030273 -14.936787605285645 0.5972928404808044
19.23655891418457 -15.12992000579834 0.5794346928596497
19.223712921142578 -15.311910629272461 0.5639166235923767
19.22788429260254 -15.50926399230957 0.5454093813896179
19.23880386352539 -15.714147567749023 0.5255211591720581
19.242572784423828 -15.915322303771973 0.5064854621887207
19.229373931884766 -16.104393005371094 0.4899214208126068
19.225923538208008 -16.303524017333984 0.4714788794517517
19.262149810791016 -16.538768768310547 0.4461686611175537
19.295454025268555 -16.774415969848633 0.42095836997032166
20.936969757080078 -18.6580753326416 0.10378216952085495
20.540264129638672 -18.53224754333496 0.14866259694099426
20.314395904541016 -18.556167602539062 0.16485847532749176
20.08027458190918 -18.569936752319336 0.18260185420513153
19.86558723449707 -18.599166870117188 0.19713373482227325
19.6333065032959 -18.609407424926758 0.2148425430059433
19.458921432495117 -18.67245864868164 0.2225566804409027
12.876984596252441 12.001349449157715 1.8229984045028687
12.931107521057129 11.90462589263916 1.8240737915039062
12.899900436401367 11.730722427368164 1.836936116218567
12.93143081665039 11.615487098693848 1.8408846855163574
14.384620666503906 12.762611389160156 1.6484204530715942
14.466876983642578 12.678078651428223 1.6460238695144653
13.088162422180176 11.32872200012207 1.8434690237045288
13.121651649475098 11.217854499816895 1.8466886281967163
13.164153099060059 11.11534309387207 1.8485674858093262
13.218878746032715 11.02356243133545 1.848689079284668
13.24380111694336 10.907498359680176 1.8527292013168335
13.288631439208984 10.808489799499512 1.8539791107177734
13.324993133544922 10.703109741210938 1.856259822845459
13.352771759033203 10.591509819030762 1.8595744371414185
13.38594913482666 10.484878540039062 1.8620599508285522
13.430122375488281 10.38736629486084 1.862987756729126
13.466490745544434 10.284272193908691 1.8648462295532227
13.502897262573242 10.181720733642578 1.8665984869003296
13.540146827697754 10.080297470092773 1.8681401014328003
13.57505989074707 9.977622032165527 1.8698879480361938
13.606810569763184 9.873143196105957 1.8719464540481567
13.647492408752441 9.775601387023926 1.872750997543335
13.690738677978516 9.68022632598877 1.8731341361999512
13.721912384033203 9.576719284057617 1.8749769926071167
13.758886337280273 9.477707862854004 1.875981092453003
13.793517112731934 9.377481460571289 1.8771919012069702
13.828263282775879 9.277742385864258 1.8782953023910522
13.868109703063965 9.181771278381348 1.8786612749099731
13.913959503173828 9.090012550354004 1.8781830072402954
13.93914794921875 8.985101699829102 1.8802236318588257
13.958539962768555 8.877022743225098 1.8828957080841064
14.01672077178955 8.793883323669434 1.8806151151657104
14.054959297180176 8.69832706451416 1.880752682685852
14.095100402832031 8.604185104370117 1.8805692195892334
14.126096725463867 8.504746437072754 1.8814388513565063
14.167520523071289 8.411852836608887 1.8809304237365723
14.214341163635254 8.322285652160645 1.8796757459640503
14.237346649169922 8.219035148620605 1.8812777996063232
14.275177955627441 8.124669075012207 1.8809690475463867
14.32192325592041 8.035499572753906 1.879487156867981
14.481226921081543 8.008626937866211 1.8641715049743652
15.052794456481934 8.204734802246094 1.7985637187957764
15.877784729003906 8.528701782226562 1.7023333311080933
27.473857879638672 14.54222583770752 0.29864516854286194
27.52597427368164 14.35459041595459 0.2995505928993225
27.47954559326172 14.116881370544434 0.3122134804725647
27.538583755493164 13.934602737426758 0.31194671988487244
27.51900863647461 13.713543891906738 0.32099592685699463
27.607542037963867 13.547126770019531 0.3168662190437317
27.735353469848633 13.3996000289917 0.3078920543193817
27.94319725036621 13.289445877075195 0.28922024369239807
28.263273239135742 13.229930877685547 0.2570549547672272
28.718196868896484 13.228965759277344 0.2087678462266922
44.98596954345703 8.203696250915527 -1.5506999492645264
19.27292251586914 0.757918119430542 1.3895338773727417
19.253095626831055 0.638900637626648 1.3898028135299683
12.899956703186035 -0.6808813810348511 2.1053061485290527
12.875515937805176 -0.7588241100311279 2.1059718132019043
12.869433403015137 -0.8377177715301514 2.1044039726257324
12.867819786071777 -0.9169188141822815 2.1022467613220215
12.767476081848145 -1.3043867349624634 2.101647138595581
12.737321853637695 -1.380320429801941 2.102583169937134
12.636237144470215 -1.5264670848846436 2.1092333793640137
12.602802276611328 -1.6009420156478882 2.1104319095611572
12.628963470458984 -1.683060646057129 2.104363441467285
12.623125076293945 -1.7611740827560425 2.1021063327789307
12.644309997558594 -1.8432880640029907 2.0965023040771484
12.568768501281738 -1.9111124277114868 2.102614402770996
20.01308822631836 -6.420103073120117 1.0306496620178223
20.109743118286133 -6.587518215179443 1.0101441144943237
19.030500411987305 -6.3636674880981445 1.143357753753662
18.98514747619629 -6.478346824645996 1.1415663957595825
19.066566467285156 -6.6370720863342285 1.122991919517517
19.02423667907715 -6.753558158874512 1.1205772161483765
20.290342330932617 -7.343501567840576 0.9446197152137756
19.03120231628418 -7.421276569366455 1.0777781009674072
19.020957946777344 -7.552140712738037 1.070390224456787
19.00705909729004 -7.68204402923584 1.063371181488037
20.264434814453125 -8.481083869934082 0.8738901019096375
19.094694137573242 -8.268583297729492 1.0143970251083374
19.03691864013672 -8.382742881774902 1.0127182006835938
19.06539535522461 -8.535421371459961 0.9990301728248596
28.28056526184082 -13.71747875213623 -0.3505477011203766
28.273681640625 -13.929252624511719 -0.365420937538147
28.323814392089844 -14.17075252532959 -0.38862210512161255
28.272977828979492 -14.36307430267334 -0.3977230191230774
28.182933807373047 -14.53575611114502 -0.40139487385749817
28.09446907043457 -14.709256172180176 -0.40543538331985474
27.72462272644043 -14.73327350616455 -0.36898887157440186
27.5520076751709 -14.8592529296875 -0.36094358563423157
27.402385711669922 -14.996529579162598 -0.3562876880168915
27.01085090637207 -15.435657501220703 -0.35118427872657776
26.895401000976562 -15.589591026306152 -0.35190051794052124
26.767961502075195 -15.736161231994629 -0.3509451150894165
20.530357360839844 -13.110679626464844 0.4907514750957489
20.2143497467041 -13.084389686584473 0.5240994691848755
19.95169448852539 -13.088994026184082 0.5494428277015686
19.716184616088867 -13.108447074890137 0.5707381367683411
19.517391204833984 -13.149887084960938 0.5864334106445312
19.34013557434082 -13.203926086425781 0.5988280177116394
19.261642456054688 -13.324551582336426 0.595689594745636
19.231124877929688 -13.478859901428223 0.5848333239555359
19.213176727294922 -13.643056869506836 0.5717815160751343
19.206010818481445 -13.8162260055542 0.5567871332168579
19.21747398376465 -14.00442123413086 0.5385542511940002
19.21297836303711 -14.1826753616333 0.522631049156189
19.210983276367188 -14.364372253417969 0.506048858165741
19.220125198364258 -14.556153297424316 0.48738348484039307
19.215036392211914 -14.738933563232422 0.4707745909690857
19.218603134155273 -14.93010425567627 0.45246797800064087
19.223655700683594 -15.124327659606934 0.4336276948451996
19.214630126953125 -15.309287071228027 0.4168492257595062
19.23106575012207 -15.516495704650879 0.3955105245113373
19.22416877746582 -15.706916809082031 0.37779471278190613
19.214889526367188 -15.89720344543457 0.360196590423584
19.27011489868164 -16.14335823059082 0.33125147223472595
19.196760177612305 -16.2836856842041 0.324051171541214
19.2630558013916 -16.544513702392578 0.29245391488075256
19.249053955078125 -16.739107131958008 0.27440449595451355
12.823005676269531 12.094307899475098 1.7194782495498657
12.873438835144043 11.993745803833008 1.7213566303253174
13.81328010559082 12.712392807006836 1.591570258140564
12.923508644104004 11.747994422912598 1.732245683670044
14.128917694091797 12.686805725097656 1.5645256042480469
13.014127731323242 11.542407989501953 1.7366342544555664
14.471390724182129 12.677634239196777 1.5336670875549316
13.094141006469727 11.329862594604492 1.7420958280563354
13.118573188781738 11.211231231689453 1.7468892335891724
13.156477928161621 11.10490894317627 1.749616265296936
13.208080291748047 11.010639190673828 1.7502715587615967
13.241372108459473 10.901618003845215 1.7534290552139282
13.285393714904785 10.80201244354248 1.7549487352371216
13.312417984008789 10.689202308654785 1.7587580680847168
13.339339256286621 10.57708740234375 1.7624585628509521
13.377909660339355 10.474847793579102 1.764409065246582
13.414942741394043 10.371925354003906 1.766466498374939
13.466228485107422 10.280402183532715 1.7664391994476318
13.507372856140137 10.181459426879883 1.7677223682403564
13.521500587463379 10.062812805175781 1.7726249694824219
13.568321228027344 9.969096183776855 1.7729157209396362
13.59760856628418 9.86292552947998 1.7755112648010254
13.642266273498535 9.768345832824707 1.7759041786193848
13.678972244262695 9.66842269897461 1.7772841453552246
13.71822738647461 9.570691108703613 1.7782204151153564
13.757616996765137 9.473406791687012 1.7790427207946777
13.788110733032227 9.370409965515137 1.7809662818908691
13.821989059448242 9.270161628723145 1.7823357582092285
13.863442420959473 9.175336837768555 1.7825955152511597
13.889277458190918 9.07056713104248 1.7848461866378784
13.924375534057617 8.972286224365234 1.7857650518417358
13.95962905883789 8.874448776245117 1.7865701913833618
14.005152702331543 8.783381462097168 1.7859277725219727
14.044167518615723 8.68842601776123 1.7860584259033203
14.072367668151855 8.587108612060547 1.7875211238861084
14.113475799560547 8.493972778320312 1.7871994972229004
14.155681610107422 8.4016695022583 1.7866498231887817
14.190424919128418 8.30514907836914 1.7869884967803955
14.226239204406738 8.209510803222656 1.7871004343032837
14.26832389831543 8.11767864227295 1.7863136529922485
14.298551559448242 8.019314765930176 1.7869778871536255
14.433330535888672 7.979071140289307 1.7740761041641235
15.880409240722656 8.526887893676758 1.5971232652664185
27.470685958862305 14.53569221496582 0.11807437241077423
27.50337791442871 14.337987899780273 0.12169121205806732
27.543519973754883 14.144967079162598 0.12418249249458313
27.561050415039062 13.9412260055542 0.12937936186790466
27.560226440429688 13.72938346862793 0.13672520220279694
27.605121612548828 13.541266441345215 0.13809216022491455
27.71853256225586 13.386822700500488 0.1306355893611908
27.951324462890625 13.288666725158691 0.10798869282007217
19.26173210144043 0.7548409104347229 1.2782535552978516
19.244863510131836 0.6359944939613342 1.278296947479248
19.303667068481445 0.5194455981254578 1.2689818143844604
12.885848999023438 -0.682167112827301 2.0315823554992676
12.865367889404297 -0.7602551579475403 2.0318706035614014
12.864219665527344 -0.8394080400466919 2.0296921730041504
12.719168663024902 -1.4593918323516846 2.0271832942962646
12.607329368591309 -1.5250022411346436 2.0384814739227295
20.16842269897461 -6.336664199829102 0.8944481015205383
20.150535583496094 -6.467213153839111 0.8888092637062073
20.134632110595703 -6.598709583282471 0.8827823996543884
20.11223030090332 -6.728368759155273 0.8775269389152527
18.979692459106445 -6.479429721832275 1.024796485900879
18.961729049682617 -6.603541374206543 1.0191707611083984
18.937347412109375 -6.725688457489014 1.0143194198608398
18.942947387695312 -6.858922958374023 1.0051974058151245
19.021772384643555 -7.286426544189453 0.9683088064193726
18.986534118652344 -7.406919002532959 0.9643427729606628
18.99660873413086 -7.5455522537231445 0.9538770914077759
18.968944549560547 -8.356006622314453 0.9005579948425293
18.9459285736084 -8.485157012939453 0.8938310742378235
18.987913131713867 -8.644318580627441 0.8775386810302734
19.161813735961914 -8.865914344787598 0.8418194651603699
19.374065399169922 -9.108943939208984 0.8001391887664795
20.70311164855957 -13.046780586242676 0.335798054933548
20.410120010375977 -13.038018226623535 0.3669590353965759
20.11137580871582 -13.021851539611816 0.39925840497016907
19.86415672302246 -13.03568172454834 0.4234553277492523
19.637340545654297 -13.060144424438477 0.44449082016944885
19.46933364868164 -13.121638298034668 0.45604968070983887
19.298860549926758 -13.179891586303711 0.4680449962615967
19.231904983520508 -13.308154106140137 0.4630078971385956
19.173839569091797 -13.44291877746582 0.4563627541065216
19.40972137451172 -13.786893844604492 0.40059173107147217
19.334016799926758 -13.91262149810791 0.396337628364563
19.194236755371094 -13.991833686828613 0.4027419686317444
19.20567512512207 -14.181678771972656 0.38353508710861206
19.199628829956055 -14.360322952270508 0.367012619972229
19.217378616333008 -14.558568000793457 0.34615349769592285
19.205896377563477 -14.736464500427246 0.33001017570495605
19.214855194091797 -14.931788444519043 0.31006598472595215
19.21979522705078 -15.12593936920166 0.2905120253562927
19.23933982849121 -15.333678245544434 0.2680959403514862
19.225435256958008 -15.516714096069336 0.2512226402759552
19.21767807006836 -15.706426620483398 0.23298080265522003
19.19761848449707 -15.887784004211426 0.21662944555282593
19.248952865600586 -16.130569458007812 0.18721282482147217
19.236825942993164 -16.32266616821289 0.16879135370254517
19.29670524597168 -16.578481674194336 0.13701030611991882
19.209888458251953 -16.710168838500977 0.13150382041931152
12.772783279418945 12.217095375061035 1.6099634170532227
12.82917594909668 12.121471405029297 1.6112375259399414
12.913204193115234 12.052048683166504 1.6080602407455444
12.992478370666504 11.978009223937988 1.6055546998977661
12.97657299041748 11.817164421081543 1.6177644729614258
12.965097427368164 11.66228199005127 1.6290717124938965
13.027227401733398 11.574626922607422 1.6288412809371948
13.04471492767334 11.44798755645752 1.6353546380996704
13.083662986755371 11.341089248657227 1.6384356021881104
13.101417541503906 11.21669864654541 1.644608974456787
13.147727012634277 11.117533683776855 1.6463122367858887
13.197125434875488 11.021404266357422 1.6474369764328003
13.234345436096191 10.915605545043945 1.6502801179885864
13.269227027893066 10.808509826660156 1.6533517837524414
13.30716323852539 10.704508781433105 1.655846357345581
13.340435981750488 10.597360610961914 1.6589142084121704
13.372896194458008 10.490203857421875 1.6619811058044434
13.413970947265625 10.390348434448242 1.663662314414978
13.44880199432373 10.286157608032227 1.6661489009857178
13.475726127624512 10.176542282104492 1.6696739196777344
13.51296329498291 10.075296401977539 1.671579360961914
13.551868438720703 9.975741386413574 1.673134684562683
13.590059280395508 9.876087188720703 1.6746872663497925
13.629961013793945 9.778075218200684 1.6758888959884644
13.66755199432373 9.678796768188477 1.6773192882537842
13.70362377166748 9.578855514526367 1.6788629293441772
13.747161865234375 9.484475135803223 1.6792409420013428
13.772818565368652 9.378180503845215 1.6820588111877441
13.811702728271484 9.281344413757324 1.6828961372375488
13.855714797973633 9.188223838806152 1.6829134225845337
13.87167739868164 9.0769681930542 1.6867773532867432
13.919341087341309 8.986870765686035 1.6860876083374023
13.952181816101074 8.887456893920898 1.6873797178268433
13.995258331298828 8.79484748840332 1.687148094177246
14.02928352355957 8.696809768676758 1.6880828142166138
14.068564414978027 8.602311134338379 1.6881943941116333
14.105514526367188 8.506629943847656 1.6885361671447754
14.156332015991211 8.419448852539062 1.6868784427642822
14.192901611328125 8.32392406463623 1.6870936155319214
14.227974891662598 8.22776985168457 1.6874231100082397
14.261540412902832 8.131004333496094 1.6878670454025269
14.310037612915039 8.042893409729004 1.6861859560012817
14.377099990844727 7.965078830718994 1.6819028854370117
14.856861114501953 8.11230182647705 1.6216351985931396
15.868850708007812 8.539056777954102 1.4896243810653687
19.256694793701172 0.7721725106239319 1.1630778312683105
19.248855590820312 0.6536446809768677 1.1620995998382568
19.265077590942383 0.5359292030334473 1.157936453819275
12.87286376953125 -0.6689276695251465 1.9559026956558228
12.858404159545898 -0.7472942471504211 1.9555110931396484
12.880083084106445 -0.8278641700744629 1.9503337144851685
19.71000862121582 -6.040635108947754 0.8412131071090698
19.470806121826172 -6.098320960998535 0.8672240972518921
19.187294006347656 -6.139110088348389 0.8996157646179199
19.088640213012695 -6.236978530883789 0.9056838154792786
18.963191986083984 -6.325092315673828 0.9155458211898804
18.94807243347168 -6.449581623077393 0.909515917301178
18.927457809448242 -6.572500705718994 0.9041592478752136
18.91818618774414 -6.699711322784424 0.8970444202423096
18.895017623901367 -6.822346210479736 0.891819417476654
18.903596878051758 -6.95692777633667 0.8818549513816833
18.913087844848633 -7.092569351196289 0.8716105222702026
18.898483276367188 -7.219749927520752 0.864747941493988
18.924577713012695 -7.363186836242676 0.8517726063728333
18.931194305419922 -7.499918460845947 0.8415011763572693
18.946029663085938 -7.640714168548584 0.829860508441925
18.94426727294922 -7.775581359863281 0.820523202419281
18.979036331176758 -7.9263691902160645 0.8055919408798218
18.936071395874023 -8.04533576965332 0.8021005988121033
18.93146514892578 -8.1809720993042 0.7927436232566833
18.930438995361328 -8.31885051727295 0.7826961278915405
18.805423736572266 -8.402066230773926 0.7912402153015137
18.975934982299805 -8.618430137634277 0.7549141645431519
18.97450065612793 -8.758731842041016 0.7444270253181458
18.949636459350586 -8.888824462890625 0.7373599410057068
18.96501922607422 -9.03854751586914 0.7239781022071838
18.99264144897461 -9.195269584655762 0.7085233926773071
19.205707550048828 -9.444463729858398 0.6641823053359985
20.481595993041992 -13.058639526367188 0.21092499792575836
20.13620376586914 -13.013094902038574 0.25257381796836853
19.891555786132812 -13.02892017364502 0.27752751111984253
19.657386779785156 -13.048812866210938 0.3008563816547394
19.456592559814453 -13.088436126708984 0.31863582134246826
19.299421310424805 -13.155652046203613 0.3290300965309143
19.213855743408203 -13.270956039428711 0.3271130323410034
19.20304298400879 -13.438502311706543 0.3121538460254669
19.21188735961914 -13.621307373046875 0.29353320598602295
19.19347381591797 -13.78624153137207 0.27939531207084656
19.21938133239746 -13.984667778015137 0.25723135471343994
19.222055435180664 -14.168070793151855 0.2388482242822647
19.226364135742188 -14.354399681091309 0.21988800168037415
19.21015167236328 -14.526985168457031 0.2042970508337021
19.212186813354492 -14.714959144592285 0.185169517993927
19.207155227661133 -14.899258613586426 0.16701610386371613
19.220815658569336 -15.099949836730957 0.14517581462860107
19.23505210876465 -15.303220748901367 0.12289319187402725
19.237489700317383 -15.49915599822998 0.10243257135152817
13.265359878540039 12.994107246398926 1.3892629146575928
12.728842735290527 12.316734313964844 1.4913073778152466
12.78738021850586 12.222658157348633 1.492505431175232
12.770895957946777 12.058127403259277 1.506089448928833
12.944538116455078 12.073015213012695 1.487899899482727
13.15314769744873 12.117836952209473 1.464012622833252
12.985411643981934 11.817116737365723 1.5020594596862793
13.854838371276855 12.301544189453125 1.3807369470596313
13.055073738098145 11.44922924041748 1.520662546157837
13.099282264709473 11.346847534179688 1.5231586694717407
13.09973430633545 11.20757007598877 1.532550573348999
13.150533676147461 11.11228084564209 1.5337128639221191
13.19913387298584 11.015515327453613 1.5351123809814453
13.2378511428833 10.910996437072754 1.5379632711410522
13.267316818237305 10.799521446228027 1.542147159576416
13.292046546936035 10.684988021850586 1.5469385385513306
13.350079536437988 10.597709655761719 1.5463800430297852
13.369266510009766 10.480114936828613 1.5517780780792236
13.411847114562988 10.381518363952637 1.5534021854400635
13.448203086853027 10.278572082519531 1.5558761358261108
