# .PCD v0.7 - Point Cloud Data file format
VERSION 0.7
FIELDS x y z
SIZE 4 4 4
TYPE F F F
COUNT 1 1 1
WIDTH 847
HEIGHT 1
VIEWPOINT 0 0 0 1 0 0 0
POINTS 847
DATA ascii
12.772480010986328 -1.5409170389175415 2.1701619625091553
12.774328231811523 -1.8602205514907837 2.158341884613037
29.234683990478516 -5.176959037780762 0.22010737657546997
19.994815826416016 -6.546929836273193 1.151917815208435
19.484901428222656 -6.512676239013672 1.2076767683029175
19.22715187072754 -6.55801248550415 1.2322112321853638
19.151548385620117 -6.66374397277832 1.2340022325515747
19.126846313476562 -6.7870612144470215 1.2293343544006348
19.109756469726562 -6.913367748260498 1.2236067056655884
19.09649085998535 -7.041439533233643 1.217287302017212
19.100034713745117 -7.176245212554932 1.2087211608886719
19.063688278198242 -7.296453952789307 1.2051111459732056
19.021957397460938 -7.414684772491455 1.20209538936615
20.309921264648438 -8.20535945892334 1.0192039012908936
19.12563133239746 -7.863849639892578 1.1629300117492676
19.125259399414062 -8.001317024230957 1.1540788412094116
19.118436813354492 -8.136743545532227 1.1459332704544067
28.42660903930664 -16.239797592163086 -0.3624494969844818
28.413536071777344 -16.464603424072266 -0.37865468859672546
28.41674041748047 -16.700420379638672 -0.39742138981819153
28.378890991210938 -16.913522720336914 -0.4106138348579407
28.307209014892578 -17.107282638549805 -0.4191893935203552
28.026020050048828 -17.17323112487793 -0.39780834317207336
27.78050994873047 -17.258380889892578 -0.3814861476421356
27.66352081298828 -17.422096252441406 -0.38377809524536133
20.539186477661133 -13.112272262573242 0.6365664005279541
20.214662551879883 -13.080558776855469 0.6694741249084473
19.93281364440918 -13.072577476501465 0.6963412761688232
19.728708267211914 -13.112730979919434 0.7118849754333496
19.523221969604492 -13.14976692199707 0.7277170419692993
19.38443374633789 -13.230098724365234 0.7336560487747192
19.30335235595703 -13.34930419921875 0.7309035062789917
19.271116256713867 -13.502752304077148 0.7206645607948303
19.251476287841797 -13.666072845458984 0.7083304524421692
19.235387802124023 -13.833139419555664 0.6952503323554993
19.238018035888672 -14.015130043029785 0.6790812611579895
19.22955322265625 -14.19060230255127 0.6643786430358887
19.24349594116211 -14.384322166442871 0.6459620594978333
19.22334098815918 -14.554186820983887 0.6325934529304504
19.227807998657227 -14.744274139404297 0.6151361465454102
19.22673797607422 -14.931918144226074 0.5982831716537476
19.238121032714844 -15.131145477294922 0.5791866779327393
19.233802795410156 -15.319947242736816 0.5623047351837158
19.253372192382812 -15.529821395874023 0.541314959526062
19.24110984802246 -15.71603012084961 0.5251486301422119
19.261688232421875 -15.931132316589355 0.50337815284729
19.24078369140625 -16.113948822021484 0.4880557060241699
19.2380313873291 -16.313791275024414 0.46948716044425964
19.271183013916016 -16.546524047851562 0.4446733891963959
20.814010620117188 -18.548500061035156 0.12451735883951187
20.546894073486328 -18.53822898864746 0.1475374698638916
20.316593170166016 -18.55817413330078 0.16448360681533813
20.072261810302734 -18.562524795532227 0.18397901952266693
19.856172561645508 -18.59035301208496 0.19876274466514587
19.639066696166992 -18.6148681640625 0.2138390690088272
19.433866500854492 -18.64841651916504 0.22694948315620422
12.871163368225098 11.995923042297363 1.8238173723220825
12.939156532287598 11.91203784942627 1.8229466676712036
12.944790840148926 11.7715482711792 1.8306808471679688
12.904791831970215 11.591554641723633 1.8445794582366943
14.385364532470703 12.76327133178711 1.6483176946640015
14.470617294311523 12.681356430053711 1.645509958267212
13.081393241882324 11.32286262512207 1.8443951606750488
13.121651649475098 11.217854499816895 1.8466886281967163
13.170991897583008 11.121118545532227 1.8476396799087524
13.212004661560059 11.017828941345215 1.849617600440979
13.247639656066895 10.910660743713379 1.85221266746521
13.285545349121094 10.805978775024414 1.8543925285339355
13.32111644744873 10.699995040893555 1.856777310371399
13.359784126281738 10.597074508666992 1.858642339706421
13.392996788024902 10.490398406982422 1.8611267805099487
13.430122375488281 10.38736629486084 1.862987756729126
13.466490745544434 10.284272193908691 1.8648462295532227
13.50051498413086 10.179924011230469 1.8669102191925049
13.535360336303711 10.076733589172363 1.8687645196914673
13.583874702453613 9.984101295471191 1.8687418699264526
13.610029220581055 9.875479698181152 1.871529221534729
13.636173248291016 9.767492294311523 1.8742120265960693
13.680994987487793 9.673335075378418 1.8743878602981567
13.724359512329102 9.578426361083984 1.8746633529663086
13.760523796081543 9.478836059570312 1.8757716417312622
13.798450469970703 9.380836486816406 1.8765631914138794
13.833218574523926 9.28106689453125 1.8776659965515137
13.865621566772461 9.18012523651123 1.8789763450622559
13.907299995422363 9.085660934448242 1.8790236711502075
13.948341369628906 8.991028785705566 1.8790667057037354
13.98622989654541 8.894635200500488 1.8794212341308594
14.040306091308594 8.808683395385742 1.8776642084121704
14.058341979980469 8.700420379638672 1.8803306818008423
14.084067344665527 8.59744930267334 1.8819422721862793
14.126096725463867 8.504746437072754 1.8814388513565063
14.169229507446289 8.412867546081543 1.8807188272476196
14.211767196655273 8.320778846740723 1.8799935579299927
14.245097160339355 8.223509788513184 1.8803236484527588
14.283819198608398 8.12958812713623 1.879907488822937
14.329728126525879 8.039878845214844 1.8785309791564941
14.508199691772461 8.02354621887207 1.860874056816101
15.88917350769043 8.534818649291992 1.7009475231170654
27.465070724487305 14.53757381439209 0.2997119426727295
27.50217056274414 14.34217643737793 0.3024340867996216
27.51934051513672 14.137328147888184 0.30740228295326233
27.562538146972656 13.946722984313965 0.3090567886829376
27.51544761657715 13.711770057678223 0.3214245140552521
27.602188110351562 13.544498443603516 0.3175102472305298
27.755048751831055 13.4091157913208 0.30552974343299866
27.90818214416504 13.272791862487793 0.2934119403362274
28.25246810913086 13.224873542785645 0.25834599137306213
28.673954010009766 13.208581924438477 0.2140457183122635
44.90385437011719 8.188719749450684 -1.5412358045578003
19.282848358154297 0.7583091259002686 1.3883777856826782
19.255081176757812 0.6389666199684143 1.389571189880371
12.898964881896973 -0.6808291077613831 2.105423927307129
12.875515937805176 -0.7588241100311279 2.1059718132019043
12.866460800170898 -0.8375245928764343 2.104757308959961
12.770439147949219 -1.3046891689300537 2.1012914180755615
12.726462364196777 -1.3791447877883911 2.103889226913452
12.66285228729248 -1.5296794176101685 2.106020927429199
12.612651824951172 -1.6021922826766968 2.1092405319213867
12.638806343078613 -1.6843711137771606 2.1031711101531982
12.63492488861084 -1.7628192901611328 2.1006736755371094
12.626626014709473 -1.8407118320465088 2.0986533164978027
12.556008338928223 -1.9091734886169434 2.1041696071624756
20.11703872680664 -6.453442573547363 1.0171256065368652
20.077678680419922 -6.5770158767700195 1.0143287181854248
20.13450050354004 -6.732761383056641 0.9988463521003723
19.063756942749023 -6.636093616485596 1.123362421989441
19.042938232421875 -6.760196685791016 1.1181058883666992
20.281944274902344 -7.340462684631348 0.9457332491874695
18.987712860107422 -7.004265308380127 1.1090761423110962
18.975643157958984 -7.132460594177246 1.1023313999176025
18.99237060546875 -7.272125720977783 1.091612696647644
18.990524291992188 -7.405417442321777 1.083242416381836
20.25711441040039 -8.478020668029785 0.8748875260353088
19.115270614624023 -8.138486862182617 1.0210758447647095
19.077394485473633 -8.261093139648438 1.0167704820632935
19.047815322875977 -8.387540817260742 1.0112175941467285
19.05362319946289 -8.530152320861816 1.0006574392318726
28.303773880004883 -13.728734970092773 -0.3538178503513336
28.312837600708008 -13.948541641235352 -0.370959997177124
28.31494140625 -14.166314125061035 -0.3873620331287384
28.2685546875 -14.360827445983887 -0.3970922827720642
28.193513870239258 -14.54121208190918 -0.4029100239276886
28.106773376464844 -14.7156982421875 -0.4072045385837555
27.731630325317383 -14.736997604370117 -0.37000077962875366
27.512718200683594 -14.838065147399902 -0.3552466034889221
27.39542579650879 -14.992720603942871 -0.35527363419532776
27.285076141357422 -15.15083122253418 -0.3564256727695465
27.142709732055664 -15.290631294250488 -0.35299116373062134
27.0117130279541 -15.436149597167969 -0.35131141543388367
20.508625030517578 -13.096802711486816 0.49407926201820374
20.215181350708008 -13.084928512573242 0.523971438407898
19.94008445739746 -13.081377983093262 0.5512380003929138
19.716184616088867 -13.108447074890137 0.5707381367683411
19.502586364746094 -13.139914512634277 0.5887454748153687
19.337678909301758 -13.202248573303223 0.5992138385772705
19.261642456054688 -13.324551582336426 0.595689594745636
19.225439071655273 -13.474875450134277 0.5857346653938293
19.209135055541992 -13.640186309814453 0.5724263191223145
19.219696044921875 -13.826068878173828 0.5545943975448608
19.225486755371094 -14.010260581970215 0.5372630953788757
19.21217918395996 -14.182085990905762 0.522760272026062
19.2213077545166 -14.372091293334961 0.5043678879737854
19.21063804626465 -14.548970222473145 0.48893651366233826
19.222116470336914 -14.744364738464355 0.46960893273353577
19.21155548095703 -14.924630165100098 0.45363473892211914
19.230669021606445 -15.129844665527344 0.4324595034122467
19.215408325195312 -15.309905052185059 0.4167194962501526
19.25267219543457 -15.533927917480469 0.3918713331222534
19.22416877746582 -15.706916809082031 0.37779471278190613
19.2080135345459 -15.891515731811523 0.36136817932128906
19.293676376342773 -16.163095474243164 0.32721278071403503
19.211881637573242 -16.296512603759766 0.32144322991371155
19.245004653930664 -16.529010772705078 0.2955854535102844
19.287208557128906 -16.77228546142578 0.2677443027496338
12.819390296936035 12.090896606445312 1.7200183868408203
12.882165908813477 12.00187873840332 1.7200593948364258
13.863747596740723 12.758848190307617 1.5841056108474731
12.969112396240234 11.789458274841309 1.7255325317382812
14.128917694091797 12.686805725097656 1.5645256042480469
14.34602165222168 12.7239351272583 1.5423890352249146
14.425034523010254 12.637017250061035 1.5403974056243896
13.095643997192383 11.331164360046387 1.7418783903121948
13.119328498840332 11.211875915527344 1.7467803955078125
13.163314819335938 11.11068058013916 1.7486367225646973
13.209606170654297 11.01191234588623 1.7500537633895874
13.24290657043457 10.90288257598877 1.7532107830047607
13.280766487121582 10.798249244689941 1.755603313446045
13.307767868041992 10.685468673706055 1.759413242340088
13.34946346282959 10.585116386413574 1.7610375881195068
13.38182258605957 10.477911949157715 1.763861894607544
13.406294822692871 10.365236282348633 1.767670750617981
13.455168724060059 10.271957397460938 1.76797354221344
13.488324165344238 10.167098999023438 1.7703547477722168
13.526284217834473 10.066372871398926 1.7719662189483643
13.573927879333496 9.973217010498047 1.7721465826034546
13.595999717712402 9.8617582321167 1.7757313251495361
13.641458511352539 9.767765998840332 1.7760142087936401
13.687898635864258 9.674734115600586 1.7760720252990723
13.715781211853027 9.568985939025879 1.7785511016845703
13.756797790527344 9.472843170166016 1.7791528701782227
13.79304313659668 9.373761177062988 1.7803032398223877
13.821163177490234 9.269607543945312 1.7824463844299316
13.85846996307373 9.172045707702637 1.7832601070404053
13.885117530822754 9.067850112915039 1.7854002714157104
13.916857719421387 8.96744155883789 1.786763310432434
13.96214485168457 8.876049041748047 1.7862372398376465
14.001784324645996 8.781269073486328 1.786372423171997
14.034027099609375 8.682150840759277 1.7873932123184204
14.062188148498535 8.580896377563477 1.788857340812683
14.113475799560547 8.493972778320312 1.7871994972229004
14.155681610107422 8.4016695022583 1.7866498231887817
14.18871021270752 8.304144859313965 1.7872118949890137
14.233124732971191 8.213485717773438 1.7862062454223633
14.269186973571777 8.118169784545898 1.7862019538879395
14.308951377868652 8.02514934539795 1.7856340408325195
14.454200744628906 7.990612030029297 1.771385669708252
14.991318702697754 8.16810131072998 1.706726312637329
15.884785652160645 8.5292387008667 1.5965619087219238
27.472442626953125 14.536622047424316 0.11784984916448593
27.488399505615234 14.330178260803223 0.12360436469316483
27.53733253479004 14.141789436340332 0.12497075647115707
27.574350357055664 13.947955131530762 0.1276877075433731
27.501529693603516 13.700138092041016 0.1441744863986969
27.60333824157715 13.54039192199707 0.1383185237646103
27.70869255065918 13.382068634033203 0.13187964260578156
27.932479858398438 13.279707908630371 0.11036600172519684
19.26569938659668 0.7549968361854553 1.2777682542800903
19.2528018951416 0.6362575888633728 1.2773253917694092
19.317556381225586 0.5198209881782532 1.2672796249389648
12.87593936920166 -0.6816441416740417 2.0328152179718018
12.86437702178955 -0.7601968050003052 2.031993865966797
12.877093315124512 -0.8402459621429443 2.0280861854553223
12.665937423706055 -1.453292965888977 2.033910036087036
12.609298706054688 -1.5252400636672974 2.0382320880889893
20.132469177246094 -6.325372219085693 0.899332582950592
20.170366287231445 -6.473575115203857 0.886107325553894
20.1412296295166 -6.6008710861206055 0.8818812370300293
20.12915802001953 -6.734030246734619 0.875206470489502
18.96843147277832 -6.475586414337158 1.0263450145721436
18.96360206604004 -6.604193687438965 1.0189125537872314
18.937347412109375 -6.725688457489014 1.0143194198608398
18.942014694213867 -6.858585834503174 1.005326747894287
18.97739028930664 -7.003464221954346 0.9919219613075256
18.944042205810547 -7.390347003936768 0.9703182578086853
19.00582504272461 -7.549211502075195 0.9525765180587769
18.938095092773438 -8.342421531677246 0.9050043225288391
18.928739547729492 -8.477458953857422 0.8963181972503662
19.000545501708984 -8.650068283081055 0.8757045269012451
19.184307098388672 -8.87631893157959 0.8385412693023682
19.331897735595703 -9.089122772216797 0.806307852268219
20.686342239379883 -13.036213874816895 0.3384699821472168
20.384227752685547 -13.02148151397705 0.3711044192314148
20.094738006591797 -13.011080741882324 0.40193450450897217
19.86415672302246 -13.03568172454834 0.4234553277492523
19.64971923828125 -13.068375587463379 0.44247984886169434
19.46111488342285 -13.116100311279297 0.4573913514614105
19.299678802490234 -13.180450439453125 0.4679110050201416
19.225387573242188 -13.303644180297852 0.4640829861164093
19.182764053344727 -13.449175834655762 0.454883337020874
19.42426300048828 -13.797221183776855 0.3981684744358063
19.33723258972168 -13.914936065673828 0.3957988917827606
19.204647064208984 -13.999420166015625 0.4009896516799927
19.198501586914062 -14.176382064819336 0.38474932312965393
19.217084884643555 -14.373376846313477 0.36404186487197876
19.22290802001953 -14.562756538391113 0.34520766139030457
19.209829330444336 -14.739479064941406 0.329334020614624
19.221115112304688 -14.936652183532715 0.3089834451675415
19.22057342529297 -15.12655258178711 0.29037681221961975
19.22384262084961 -15.321329116821289 0.2708071768283844
19.242399215698242 -15.530403137207031 0.24823786318302155
19.21767807006836 -15.706426620483398 0.23298080265522003
19.205251693725586 -15.894099235534668 0.21527042984962463
19.244396209716797 -16.126752853393555 0.18802879750728607
19.2322940826416 -16.31882095336914 0.16960805654525757
19.27190589904785 -16.557180404663086 0.14150495827198029
19.2562313079834 -16.75047492980957 0.12305301427841187
12.759860038757324 12.204734802246094 1.6120120286941528
12.836398124694824 12.128293991088867 1.6100986003875732
12.880518913269043 12.02154541015625 1.6131895780563354
12.91504955291748 11.906632423400879 1.6176464557647705
12.958943367004395 11.801111221313477 1.6205042600631714
12.974699020385742 11.670918464660645 1.6275864839553833
13.024256706237793 11.57198715209961 1.6292988061904907
13.035754203796387 11.44012451171875 1.636728048324585
13.120447158813477 11.372971534729004 1.6328238248825073
13.09839916229248 11.214115142822266 1.6450676918029785
13.144692420959473 11.114967346191406 1.64677095413208
13.195601463317871 11.020130157470703 1.647666573524475
13.234345436096191 10.915605545043945 1.6502801179885864
13.27846908569336 10.81603717803955 1.6519715785980225
13.294778823852539 10.694546699523926 1.657687783241272
13.325657844543457 10.585620880126953 1.6611027717590332
13.368206977844238 10.486526489257812 1.6626731157302856
13.408473014831543 10.386090278625488 1.6644703149795532
13.448013305664062 10.285554885864258 1.666264533996582
13.48048210144043 10.180133819580078 1.6689802408218384
13.511370658874512 10.07411003112793 1.6718106269836426
13.551068305969238 9.975152969360352 1.673250675201416
13.58443546295166 9.871999740600586 1.675498366355896
13.624311447143555 9.774022102355957 1.6767007112503052
13.661877632141113 9.674778938293457 1.6781318187713623
13.70118236541748 9.577149391174316 1.6792112588882446
13.742257118225098 9.481090545654297 1.6799386739730835
13.779385566711426 9.382652282714844 1.6811277866363525
13.815825462341309 9.284113883972168 1.6823135614395142
13.8615083694458 9.192066192626953 1.6820976734161377
13.872509002685547 9.077512741088867 1.6866605281829834
13.916003227233887 8.984716415405273 1.6865549087524414
13.95971965789795 8.89225959777832 1.6863276958465576
13.985167503356934 8.788506507873535 1.6885523796081543
14.02928352355957 8.696809768676758 1.6880828142166138
14.068564414978027 8.602311134338379 1.6881943941116333
14.106365203857422 8.507143020629883 1.6884191036224365
14.153770446777344 8.417925834655762 1.6872304677963257
14.195472717285156 8.325430870056152 1.6867411136627197
14.221097946166992 8.223793029785156 1.6883642673492432
14.258090019226074 8.129036903381348 1.6883379220962524
14.303112030029297 8.03900146484375 1.6871289014816284
14.38144302368164 7.967484951019287 1.681312918663025
15.873223304748535 8.54140853881836 1.4890334606170654
19.25967025756836 0.7722916603088379 1.1626964807510376
19.245882034301758 0.6535437703132629 1.162481427192688
19.28292465209961 0.5364252924919128 1.1556419134140015
12.87187385559082 -0.6688761711120605 1.9560317993164062
12.858404159545898 -0.7472942471504211 1.9555110931396484
12.876124382019043 -0.827609658241272 1.9508512020111084
19.69106101989746 -6.03482723236084 0.8438990712165833
19.448110580444336 -6.091212272644043 0.8704499006271362
19.134441375732422 -6.122199058532715 0.9071494936943054
19.094289779663086 -6.23882532119751 0.9048759937286377
18.954730987548828 -6.322270393371582 0.9167588353157043
18.944320678710938 -6.448304653167725 0.9100556373596191
18.9180965423584 -6.569250583648682 0.9055095911026001
18.907913208007812 -6.696073055267334 0.8985311388969421
18.90060806274414 -6.824365615844727 0.8910077810287476
18.88593101501465 -6.95042610168457 0.8844274878501892
18.917726516723633 -7.094308853149414 0.8709328770637512
18.897558212280273 -7.219396114349365 0.864883542060852
18.89041519165039 -7.3498945236206055 0.8567963242530823
18.9542236328125 -7.5090413093566895 0.8381035327911377
18.96532440185547 -7.648496150970459 0.827004075050354
18.95892906188965 -7.781599998474121 0.8183448910713196
18.975378036499023 -7.92484188079834 0.8061368465423584
18.963424682617188 -8.056957244873047 0.7980088591575623
18.98147964477539 -8.20258617401123 0.7852351665496826
18.930438995361328 -8.31885051727295 0.7826961278915405
18.78643035888672 -8.393579483032227 0.7941122651100159
18.975934982299805 -8.618430137634277 0.7549141645431519
18.97450065612793 -8.758731842041016 0.7444270253181458
18.972951889038086 -8.899762153625488 0.7337949275970459
18.966806411743164 -9.039400100708008 0.7237036824226379
18.991750717163086 -9.19483757019043 0.708660900592804
19.254592895507812 -9.468503952026367 0.6566210389137268
20.665699005126953 -12.998151779174805 0.1964133232831955
20.47992706298828 -13.057575225830078 0.21120420098304749
20.123729705810547 -13.005033493041992 0.25466886162757874
19.88327407836914 -13.023493766784668 0.2789255976676941
19.634286880493164 -13.033478736877441 0.3047737777233124
19.45083999633789 -13.084567070007324 0.31961578130722046
19.296966552734375 -13.15397834777832 0.32945016026496887
19.210596084594727 -13.268705368041992 0.327674001455307
19.201419830322266 -13.43736743927002 0.31243452429771423
19.222387313842773 -13.628751754760742 0.2917071580886841
19.209556579589844 -13.7977933883667 0.2765839397907257
19.23619270324707 -13.996901512145996 0.2542768716812134
19.243572235107422 -14.183930397033691 0.23504677414894104
19.225570678710938 -14.35380744934082 0.22002865374088287
19.21567726135254 -14.53116512298584 0.20331014692783356
19.22004508972168 -14.720979690551758 0.18375824391841888
19.216541290283203 -14.906539916992188 0.16532127559185028
19.220815658569336 -15.099949836730957 0.14517581462860107
19.232728958129883 -15.301371574401855 0.12331745028495789
13.248339653015137 12.977434158325195 1.3921443223953247
12.743111610412598 12.330541610717773 1.488904595375061
12.78738021850586 12.222658157348633 1.492505431175232
12.778836250305176 12.065625190734863 1.5047662258148193
12.951071739196777 12.079109191894531 1.4868162870407104
13.30646800994873 12.2590913772583 1.4387102127075195
12.983208656311035 11.815113067626953 1.5024211406707764
13.80584716796875 12.25804328918457 1.388706922531128
13.153587341308594 11.535628318786621 1.5047099590301514
13.130043983459473 11.373495101928711 1.5181999206542969
13.098980903625488 11.206924438476562 1.5326714515686035
13.146742820739746 11.109077453613281 1.534318447113037
13.197608947753906 11.014244079589844 1.5353549718856812
13.239383697509766 10.91225814819336 1.5377203226089478
13.267316818237305 10.799521446228027 1.542147159576416
13.302103996276855 10.693072319030762 1.5453590154647827
13.32442569732666 10.57734489440918 1.5503932237625122
13.368485450744629 10.47950267791748 1.5518999099731445
13.406352043151855 10.377264976501465 1.5542548894882202
13.444259643554688 10.275557518005371 1.5564855337142944
13.479839324951172 10.172578811645508 1.5589576959609985
13.520235061645508 10.073700904846191 1.5605731010437012
13.54553508758545 9.96412467956543 1.564384937286377
13.592488288879395 9.870944023132324 1.5647724866867065
13.622675895690918 9.765995979309082 1.5676027536392212
13.661002159118652 9.667354583740234 1.5690847635269165
13.700258255004883 9.569746971130371 1.570318579673767
13.738832473754883 9.47201919555664 1.571548581123352
13.78410816192627 9.379202842712402 1.571670651435852
13.808990478515625 9.272907257080078 1.5747367143630981
13.856252670288086 9.182008743286133 1.5743590593338013
13.886306762695312 9.080015182495117 1.5764378309249878
13.911462783813477 8.97530746459961 1.5791308879852295
13.963486671447754 8.888216972351074 1.5777543783187866
13.99815559387207 8.79026985168457 1.5788389444351196
14.036369323730469 8.694843292236328 1.5793029069900513
14.075632095336914 8.600311279296875 1.5795164108276367
14.08791732788086 8.489747047424316 1.5835613012313843
14.149706840515137 8.409265518188477 1.5803017616271973
14.188777923583984 8.315299034118652 1.580255150794983
14.223793983459473 8.219181060791016 1.5807006359100342
14.256441116333008 8.121964454650879 1.5813908576965332
14.296217918395996 8.029027938842773 1.5809600353240967
14.390081405639648 7.966183662414551 1.5726875066757202
14.811202049255371 8.081180572509766 1.5175837278366089
15.279688835144043 8.215739250183105 1.4558991193771362
19.2574405670166 0.7665015459060669 1.036363124847412
19.229753494262695 0.6473063826560974 1.0381360054016113
19.265718460083008 0.5302514433860779 1.0312144756317139
12.888312339782715 -0.6738119125366211 1.8690388202667236
12.868874549865723 -0.7519815564155579 1.8693875074386597
12.872693061828613 -0.8314713835716248 1.8664803504943848
27.849098205566406 -5.808064937591553 -0.3517994284629822
27.801782608032227 -5.976473808288574 -0.35394948720932007
27.729272842407227 -6.139172077178955 -0.3526168763637543
19.873695373535156 -5.964004993438721 0.6890736222267151
19.504131317138672 -5.983863830566406 0.735815703868866
19.233341217041016 -6.030221462249756 0.7680051326751709
19.05702018737793 -6.103682994842529 0.7861672639846802
19.03767204284668 -6.22660493850708 0.7808131575584412
18.865407943725586 -6.298733234405518 0.7983301877975464
18.841978073120117 -6.419747829437256 0.793418824672699
18.85330581665039 -6.553064346313477 0.7831329107284546
18.84503936767578 -6.680148124694824 0.7756686210632324
18.83964729309082 -6.808724403381348 0.7676334381103516
18.837099075317383 -6.938856601715088 0.7590258121490479
18.8299503326416 -7.06782341003418 0.7509799599647522
18.829322814941406 -7.199793815612793 0.7417929768562317
18.831470489501953 -7.333461284637451 0.7320302724838257
18.88144874572754 -7.486762523651123 0.7147181034088135
18.849477767944336 -7.6083526611328125 0.7099187970161438
18.864330291748047 -7.749390602111816 0.6977084279060364
18.862632751464844 -7.884410858154297 0.6879120469093323
18.869091033935547 -8.023574829101562 0.6766807436943054
18.881818771362305 -8.166258811950684 0.6642969250679016
18.884435653686523 -8.305418968200684 0.6533321738243103
18.88515281677246 -8.444514274597168 0.6425020694732666
18.90558624267578 -8.593352317810059 0.628368616104126
18.908729553222656 -8.735288619995117 0.6168025135993958
18.916213989257812 -8.880111694335938 0.6043661236763
18.914587020874023 -9.021522521972656 0.5932121872901917
18.937759399414062 -9.175760269165039 0.577881395816803
18.936660766601562 -9.31926441192627 0.5662768483161926
18.99027442932129 -9.49096965789795 0.5455915927886963
16.551349639892578 -8.39953899383545 0.9317195415496826
16.47981071472168 -8.490922927856445 0.9326696991920471
16.71291732788086 -8.74133586883545 0.8833962082862854
16.608062744140625 -8.94802474975586 0.878185510635376
16.61762046813965 -9.085312843322754 0.8650974035263062
16.33625030517578 -9.062270164489746 0.9005140662193298
16.315351486206055 -9.1821870803833 0.8923711776733398
16.272113800048828 -9.289926528930664 0.8878517150878906
16.235013961791992 -9.401450157165527 0.8821738958358765
16.30379867553711 -9.575498580932617 0.8583363890647888
16.1984920501709 -9.647972106933594 0.8639881014823914
19.982402801513672 -13.09715461730957 0.10396262258291245
19.626829147338867 -13.037196159362793 0.14997631311416626
19.44837760925293 -13.09158706665039 0.16474027931690216
19.28961944580078 -13.157665252685547 0.17602357268333435
19.20240020751953 -13.271784782409668 0.17443318665027618
19.179325103759766 -13.4307222366333 0.1611141413450241
19.223594665527344 -13.63852596282959 0.13530521094799042
19.1824893951416 -13.787342071533203 0.12475655227899551
12.814359664916992 12.867947578430176 1.3326472043991089
12.703312873840332 12.601168632507324 1.3649262189865112
12.698603630065918 12.443170547485352 1.3778471946716309
12.740196228027344 12.331934928894043 1.3823342323303223
12.638228416442871 12.084221839904785 1.4119147062301636
12.7183256149292 12.012614250183105 1.4092222452163696
12.90173625946045 12.037254333496094 1.3884588479995728
13.126035690307617 12.09706974029541 1.3607077598571777
12.945182800292969 11.784605026245117 1.4029709100723267
13.152737617492676 11.68224811553955 1.3887442350387573
13.099349021911621 11.492108345031738 1.4082826375961304
13.065871238708496 11.321904182434082 1.424163818359375
13.091090202331543 11.204146385192871 1.4299068450927734
13.14262866973877 11.10955810546875 1.4310787916183472
13.18969440460205 11.011578559875488 1.4328806400299072
13.226868629455566 10.905867576599121 1.4362047910690308
13.270167350769043 10.805749893188477 1.4383811950683594
13.282594680786133 10.681268692016602 1.4455225467681885
13.326619148254395 10.582948684692383 1.4473134279251099
13.363692283630371 10.479592323303223 1.4501205682754517
13.400003433227539 10.376178741455078 1.4529261589050293
13.440277099609375 10.276329040527344 1.4549627304077148
13.467166900634766 10.166810989379883 1.459041953086853
13.509918212890625 10.06979751586914 1.4604341983795166
13.547197341918945 9.96911334991455 1.4625905752182007
13.584551811218262 9.868931770324707 1.464616298675537
13.620383262634277 9.76809024810791 1.466767430305481
13.65306282043457 9.665457725524902 1.4693015813827515
13.697188377380371 9.571313858032227 1.4699065685272217
13.736593246459961 9.474174499511719 1.4711498022079468
13.77204418182373 9.374679565429688 1.4729042053222656
13.816669464111328 9.28174114227295 1.4731106758117676
13.840012550354004 9.174905776977539 1.4765347242355347
13.884140968322754 9.08224868774414 1.4766045808792114
13.909326553344727 8.977561950683594 1.4795103073120117
13.960515022277832 8.889954566955566 1.4782805442810059
13.992682456970215 8.790447235107422 1.4798890352249146
14.015725135803223 8.685656547546387 1.4827892780303955
14.042243003845215 8.583498001098633 1.4850419759750366
14.107096672058105 8.504892349243164 1.4813308715820312
14.140830993652344 8.407567024230957 1.4822794198989868
14.187588691711426 8.318172454833984 1.4811480045318604
14.211463928222656 8.215614318847656 1.4833887815475464
14.247537612915039 8.120441436767578 1.483677864074707
14.283843040466309 8.025618553161621 1.4838334321975708
14.375898361206055 7.961882591247559 1.4755173921585083
14.851471900939941 8.106833457946777 1.4096837043762207
15.243767738342285 8.200204849243164 1.3565231561660767
19.247488021850586 0.7702727913856506 0.9213670492172241
19.225770950317383 0.6513338088989258 0.9224916696548462
19.24687385559082 0.5338990688323975 0.917472779750824
12.856378555297852 -0.7487274408340454 1.7933416366577148
12.856247901916504 -0.8278831243515015 1.7909501791000366
19.769794464111328 -5.928160190582275 0.5797818899154663
19.48487091064453 -5.973353862762451 0.6155540347099304
19.221866607666016 -6.022079944610596 0.6480224132537842
19.06546974182129 -6.101874828338623 0.6639659404754639
18.858997344970703 -6.163698196411133 0.6877318620681763
18.82139015197754 -6.279561519622803 0.6850776076316833
18.819589614868164 -6.407628059387207 0.6766871809959412
18.814117431640625 -6.534937381744385 0.6687329411506653
18.811519622802734 -6.663742542266846 0.6601837873458862
18.805252075195312 -6.7917561531066895 0.6520717740058899
18.806476593017578 -6.923020362854004 0.6426258087158203
18.812347412109375 -7.056640148162842 0.632286012172699
18.818206787109375 -7.190946578979492 0.6217901110649109
18.82219886779785 -7.325234413146973 0.6114339828491211
18.82065200805664 -7.45802116394043 0.6018102765083313
18.840192794799805 -7.599944591522217 0.5886210799217224
18.83673667907715 -7.733375549316406 0.5789811611175537
18.84421157836914 -7.872007846832275 0.5674042105674744
18.851598739624023 -8.0114107131958 0.5556685924530029
18.863428115844727 -8.153554916381836 0.5430309176445007
18.86787986755371 -8.293362617492676 0.5314249992370605
18.88035011291504 -8.437567710876465 0.5183197259902954
18.88995361328125 -8.581419944763184 0.5055012702941895
18.876052856445312 -8.715347290039062 0.49640366435050964
18.890756607055664 -8.863287925720215 0.4823717474937439
19.154268264770508 -9.130855560302734 0.42646706104278564
19.12773895263672 -9.262808799743652 0.41881123185157776
16.76333236694336 -8.245469093322754 0.8055768609046936
16.63599967956543 -8.31013298034668 0.8162153959274292
16.552602767944336 -8.39590835571289 0.8193811178207397
16.459989547729492 -8.476449966430664 0.8240618705749512
16.243473052978516 -8.491600036621094 0.8499404191970825
16.699874877929688 -8.861186981201172 0.7601112127304077
16.22962188720703 -8.739880561828613 0.8296307325363159
15.967129707336426 -8.72549057006836 0.863583505153656
16.12131690979004 -8.938770294189453 0.8251185417175293
16.14594841003418 -9.08254337310791 0.808922529220581
16.281036376953125 -9.290643692016602 0.7730915546417236
16.198556900024414 -9.375961303710938 0.7752767205238342
16.10285758972168 -9.453113555908203 0.7797428965568542
16.133386611938477 -9.60478401184082 0.7616865634918213
16.01032066345215 -9.665239334106445 0.770862340927124
12.640094757080078 12.679520606994629 1.2602497339248657
12.659600257873535 12.544539451599121 1.2694857120513916
12.691388130187988 12.422972679138184 1.2762234210968018
12.747102737426758 12.325607299804688 1.278351068496704
12.764115333557129 12.191733360290527 1.2874600887298584
12.768434524536133 12.04722785949707 1.2986832857131958
12.830924034118652 11.9585542678833 1.2990893125534058
12.884053230285645 11.861509323120117 1.3010730743408203
12.893948554992676 11.725574493408203 1.3107181787490845
12.954278945922852 11.636340141296387 1.3111090660095215
12.993241310119629 11.528380393981934 1.315199375152588
13.047021865844727 11.434103012084961 1.3165061473846436
13.050679206848145 11.29677677154541 1.3265557289123535
13.097593307495117 11.197843551635742 1.3287853002548218
13.143027305603027 11.098118782043457 1.331144094467163
13.19001579284668 11.000161170959473 1.3331003189086914
13.22635555267334 10.893851280212402 1.3367804288864136
13.26342487335205 10.788759231567383 1.3401923179626465
13.291979789733887 10.677413940429688 1.3449337482452393
13.333645820617676 10.577211380004883 1.3472771644592285
13.369902610778809 10.473231315612793 1.3504172563552856
13.39754867553711 10.363138198852539 1.3548892736434937
13.439312934875488 10.264531135559082 1.3568247556686401
13.473254203796387 10.160428047180176 1.3599592447280884
13.510398864746094 10.059255599975586 1.3624235391616821
13.54521369934082 9.956831932067871 1.3651529550552368
13.584094047546387 9.857853889465332 1.3670767545700073
13.622271537780762 9.758769989013672 1.3689974546432495
13.654891014099121 9.65615463256836 1.3717198371887207
13.691642761230469 9.556910514831543 1.3736350536346436
13.730955123901367 9.45982551574707 1.37501060962677
13.771230697631836 9.363730430603027 1.3761138916015625
13.807555198669434 9.265287399291992 1.3777512311935425
13.849800109863281 9.171127319335938 1.378308653831482
13.869844436645508 9.062702178955078 1.3823643922805786
13.912398338317871 8.969409942626953 1.382645845413208
13.945136070251465 8.870084762573242 1.3844071626663208
13.988926887512207 8.778069496154785 1.3842756748199463
14.02621841430664 8.682197570800781 1.3850849866867065
14.059479713439941 8.584131240844727 1.3864316940307617
14.102250099182129 8.492117881774902 1.386151671409607
14.139310836791992 8.39686393737793 1.38667893409729
14.178297996520996 8.30297565460205 1.386795997619629
14.217524528503418 8.209420204162598 1.3867732286453247
14.243223190307617 8.1083402633667 1.3887826204299927
14.291543960571289 8.020346641540527 1.3871217966079712
14.40953540802002 7.970914840698242 1.374438762664795
14.764899253845215 8.049825668334961 1.324575662612915
15.283187866210938 8.211431503295898 1.2494288682937622
19.229888916015625 0.7602353096008301 0.8106290102005005
19.220972061157227 0.6418482065200806 0.810015082359314
19.251876831054688 0.5247064232826233 0.8034393191337585
12.91299819946289 -0.6790984272956848 1.7114051580429077
12.873784065246582 -0.7562599182128906 1.7148696184158325
12.853853225708008 -0.8342455625534058 1.7153949737548828
19.967247009277344 -5.864505767822266 0.43441471457481384
19.628515243530273 -5.896183967590332 0.4802953004837036
19.41866683959961 -5.963379383087158 0.5055524706840515
19.128591537475586 -6.003081321716309 0.5438122153282166
18.933834075927734 -6.069917678833008 0.5667396783828735
18.816009521484375 -6.159800052642822 0.5771968960762024
18.785911560058594 -6.277903079986572 0.5733204483985901
18.78874397277832 -6.407351970672607 0.5639420747756958
18.835494995117188 -6.5526533126831055 0.5472123622894287
18.804790496826172 -6.671684741973877 0.5430203080177307
18.792848587036133 -6.797644138336182 0.5356119275093079
18.808809280395508 -6.934303283691406 0.5234454870223999
18.79974365234375 -7.062384128570557 0.5152590870857239
18.790735244750977 -7.190968990325928 0.5069147944450378
18.797422409057617 -7.326168060302734 0.49579840898513794
18.815095901489258 -7.466457843780518 0.4826727509498596
18.822587966918945 -7.603541851043701 0.4710756838321686
18.79437255859375 -7.72672700881958 0.46532541513442993
18.85377311706543 -7.886831283569336 0.444614440202713
18.832809448242188 -8.014305114746094 0.4373093843460083
18.8182430267334 -8.144959449768066 0.42876654863357544
16.521217346191406 -7.271816253662109 0.8102858662605286
16.47052574157715 -7.370584487915039 0.8090031147003174
16.443523406982422 -7.480049133300781 0.8035462498664856
16.308181762695312 -7.539724349975586 0.8166857361793518
16.314912796020508 -7.66480016708374 0.805195689201355
16.43751335144043 -7.84597635269165 0.7733643054962158
18.924816131591797 -9.176015853881836 0.32801496982574463
16.600723266601562 -8.175726890563965 0.7231046557426453
16.542814254760742 -8.27385139465332 0.7221211791038513
16.376869201660156 -8.317018508911133 0.740138590335846
16.453357696533203 -8.483378410339355 0.7151917815208435
16.407630920410156 -8.58779239654541 0.7117329239845276
16.3054141998291 -8.662313461303711 0.7182647585868835
16.089872360229492 -8.674981117248535 0.7451165318489075
16.0030517578125 -8.755486488342285 0.7488892078399658
16.212934494018555 -9.000129699707031 0.6988800764083862
16.341215133666992 -9.203092575073242 0.6632044911384583
15.995049476623535 -9.138062477111816 0.7137835025787354
15.985318183898926 -9.26321792602539 0.703006386756897
16.112592697143555 -9.46965217590332 0.6668136119842529
16.09878158569336 -9.595085144042969 0.6563199162483215
16.10601043701172 -9.73398494720459 0.6417372226715088
12.6063871383667 12.6634521484375 1.1571953296661377
12.646954536437988 12.549622535705566 1.1627938747406006
12.678112983703613 12.427451133728027 1.1700410842895508
12.721772193908691 12.318459510803223 1.174674391746521
12.760279655456543 12.205290794372559 1.1801310777664185
12.797160148620605 12.09143352508545 1.1857246160507202
12.836747169494629 11.980960845947266 1.1906269788742065
12.875463485717773 11.87045669555664 1.1955279111862183
12.912577629089355 11.759260177612305 1.2005650997161865
12.939241409301758 11.639444351196289 1.2073971033096313
12.973069190979004 11.526978492736816 1.2127095460891724
13.009729385375977 11.417801856994629 1.2173293828964233
13.047785758972168 11.310554504394531 1.2215330600738525
13.090283393859863 11.207777976989746 1.2247647047042847
13.127476692199707 11.101066589355469 1.2288252115249634
13.173736572265625 11.002573013305664 1.2310806512832642
13.197128295898438 10.88565444946289 1.2373570203781128
13.237244606018066 10.783247947692871 1.2404406070709229
13.265801429748535 10.672066688537598 1.245466947555542
13.305124282836914 10.57017993927002 1.248407006263733
13.339802742004395 10.465153694152832 1.2520405054092407
13.378393173217773 10.363739013671875 1.2548365592956543
13.412310600280762 10.259234428405762 1.258326768875122
13.45177173614502 10.159477233886719 1.260699987411499
13.490516662597656 10.059621810913086 1.263069748878479
13.524557113647461 9.956735610961914 1.2661349773406982
13.562650680541992 9.857301712036133 1.2683597803115845
13.6000337600708 9.757774353027344 1.2705817222595215
13.62297248840332 9.648429870605469 1.275180459022522
13.671862602233887 9.557890892028809 1.2751574516296387
13.704671859741211 9.456429481506348 1.2777918577194214
13.742481231689453 9.358823776245117 1.279442310333252
13.781253814697266 9.262214660644531 1.2808090448379517
13.816883087158203 9.163838386535645 1.2825934886932373
13.850997924804688 9.06482982635498 1.2845158576965332
13.886082649230957 8.966821670532227 1.2861541509628296
13.922991752624512 8.870316505432129 1.287367343902588
13.958402633666992 8.77316951751709 1.2887181043624878
13.997353553771973 8.67852783203125 1.2893610000610352
14.03904914855957 8.585803031921387 1.2894351482391357
14.08098030090332 8.493402481079102 1.2893636226654053
14.120606422424316 8.399797439575195 1.289569616317749
14.157906532287598 8.305022239685059 1.2900543212890625
14.198860168457031 8.212581634521484 1.2898272275924683
14.235772132873535 8.117988586425781 1.2901618480682373
14.287592887878418 8.031981468200684 1.2879412174224854
14.38997745513916 7.973947525024414 1.2773429155349731
14.739781379699707 8.050174713134766 1.2262630462646484
15.273210525512695 8.22044563293457 1.145405650138855
19.231061935424805 0.7744503617286682 0.6939801573753357
15.73977279663086 0.5372597575187683 1.226370096206665
19.291715621948242 0.5399946570396423 0.680801272392273
12.870719909667969 -0.745759904384613 1.637453317642212
12.86564826965332 -0.8246847987174988 1.6357682943344116
19.69023895263672 -5.89915132522583 0.3464744985103607
19.248231887817383 -5.895733833312988 0.4116896390914917
19.057689666748047 -5.965590953826904 0.4349254071712494
18.87360954284668 -6.035442352294922 0.45709773898124695
18.799219131469727 -6.139127731323242 0.46077021956443787
18.76922607421875 -6.257120132446289 0.4568431079387665
16.489595413208008 -5.609836578369141 0.8348309993743896
18.80215072631836 -6.5257182121276855 0.4327918589115143
16.66171646118164 -5.897660732269287 0.7889525294303894
16.55613899230957 -5.974935531616211 0.798507809638977
18.783266067504883 -6.909389019012451 0.4071444272994995
18.795574188232422 -7.0452494621276855 0.3950800895690918
18.805997848510742 -7.181170463562012 0.38316503167152405
18.838455200195312 -7.3264312744140625 0.36725059151649475
18.838626861572266 -7.4600043296813965 0.3567507565021515
18.85068130493164 -7.599024295806885 0.3440059423446655
18.852602005004883 -7.734727382659912 0.33285024762153625
18.860849380493164 -7.873783111572266 0.3204062879085541
18.85719108581543 -8.0086030960083 0.3098751902580261
18.86345863342285 -8.1483736038208 0.2974132299423218
18.853355407714844 -8.281773567199707 0.2876696288585663
16.360368728637695 -7.306811332702637 0.7201430201530457
16.27442169189453 -7.388650894165039 0.7251839637756348
16.282184600830078 -7.5131354331970215 0.7133558392524719
16.22022247314453 -7.605729579925537 0.7139100432395935
16.217432022094727 -7.726289749145508 0.7036830186843872
16.134708404541016 -7.808837413787842 0.707794189453125
16.750375747680664 -8.234197616577148 0.5846593976020813
16.605560302734375 -8.290044784545898 0.5995208024978638
16.476545333862305 -8.352461814880371 0.6115061640739441
16.43425941467285 -8.458321571350098 0.607514500617981
16.533857345581055 -8.638471603393555 0.5771583914756775
16.38077735900879 -8.687002182006836 0.5933904647827148
16.114770889282227 -8.673184394836426 0.6307156085968018
16.35445213317871 -8.93220329284668 0.5735887289047241
16.18157958984375 -8.96728515625 0.593451201915741
16.36240005493164 -9.199346542358398 0.5466247797012329
16.585533142089844 -9.459381103515625 0.4912928640842438
16.04595184326172 -9.282735824584961 0.5805914402008057
16.047880172729492 -9.415923118591309 0.5670385956764221
16.038599014282227 -9.543431282043457 0.5554294586181641
16.030887603759766 -9.672707557678223 0.5433257818222046
12.603455543518066 12.664936065673828 1.042954444885254
12.652483940124512 12.559514999389648 1.0471528768539429
12.685152053833008 12.438725471496582 1.054510235786438
12.718949317932129 12.320073127746582 1.0614358186721802
12.758207321166992 12.207630157470703 1.0670663118362427
12.803040504455566 12.101286888122559 1.0713989734649658
12.834031105041504 11.982695579528809 1.078322410583496
12.872053146362305 11.87155818939209 1.0836600065231323
12.907733917236328 11.759072303771973 1.0892847776412964
12.94620132446289 11.649903297424316 1.0941866636276245
12.989733695983887 11.545964241027832 1.0979312658309937
13.025044441223145 11.435399055480957 1.1031181812286377
13.063227653503418 11.32807445526123 1.107580542564392
13.081048011779785 11.203977584838867 1.1158044338226318
13.11748218536377 11.096700668334961 1.1202657222747803
13.164484024047852 10.99891471862793 1.122551679611206
13.202386856079102 10.894041061401367 1.126428484916687
13.235665321350098 10.785989761352539 1.131028413772583
13.278138160705566 10.686003684997559 1.1337398290634155
13.294323921203613 10.565587043762207 1.1412429809570312
13.335997581481934 10.466140747070312 1.1438052654266357
13.371479034423828 10.362337112426758 1.1473824977874756
13.406190872192383 10.258491516113281 1.1509581804275513
13.441712379455566 10.155800819396973 1.1542408466339111
13.477272987365723 10.053650856018066 1.157375454902649
13.516072273254395 9.954379081726074 1.159778356552124
13.549360275268555 9.851517677307129 1.16305410861969
13.587522506713867 9.75265884399414 1.165305733680725
13.625792503356934 9.65427303314209 1.1674079895019531
13.662555694580078 9.555215835571289 1.1696536540985107
13.686407089233398 9.447640419006348 1.1740920543670654
13.72580337524414 9.35127067565918 1.1756012439727783
13.765357971191406 9.255322456359863 1.1769603490829468
13.807547569274902 9.161428451538086 1.1777284145355225
13.843311309814453 9.063569068908691 1.1795200109481812
13.878396987915039 8.965615272521973 1.181308388710022
13.915303230285645 8.869165420532227 1.1826533079147339
13.95155143737793 8.772598266601562 1.1839946508407593
13.9879789352417 8.67643928527832 1.1851855516433716
14.027972221374512 8.582745552062988 1.1856366395950317
14.070730209350586 8.490927696228027 1.1854933500289917
14.111188888549805 8.397894859313965 1.1856402158737183
14.149331092834473 8.30368423461914 1.1860777139663696
14.19027328491211 8.211299896240234 1.1859203577041626
14.24264144897461 8.125585556030273 1.183687686920166
14.279836654663086 8.031293869018555 1.1839629411697388
14.380417823791504 7.9723358154296875 1.1732767820358276
14.737690925598145 8.052812576293945 1.118708610534668
15.241876602172852 8.207503318786621 1.039290428161621
19.22987174987793 0.778725266456604 0.5704459547996521
15.7381010055542 0.5405905246734619 1.1254148483276367
19.273710250854492 0.5438247919082642 0.5596103668212891
12.873919486999512 -0.7433086037635803 1.5540812015533447
12.864911079406738 -0.8220008015632629 1.5530338287353516
16.511478424072266 -3.220954418182373 0.8707806468009949
16.5249080657959 -3.328979969024658 0.8629220724105835
16.4738712310791 -3.4240424633026123 0.8657755851745605
16.462812423706055 -3.527287483215332 0.861812174320221
16.489648818969727 -3.6390321254730225 0.8513417840003967
16.511878967285156 -3.750365972518921 0.8415117263793945
19.923498153686523 -5.831118106842041 0.18277347087860107
19.583560943603516 -5.862400054931641 0.23283179104328156
19.29683494567871 -5.90590238571167 0.2737732529640198
19.09788703918457 -5.973496913909912 0.29949259757995605
18.850927352905273 -6.023567199707031 0.3336511552333832
18.79444122314453 -6.132946968078613 0.33443960547447205
16.188270568847656 -5.39277458190918 0.7841670513153076
16.419721603393555 -5.582109451293945 0.7351738214492798
16.304658889770508 -5.654914855957031 0.7471839189529419
16.11865997314453 -5.701528549194336 0.7717725038528442
16.41236686706543 -5.919048309326172 0.7109439373016357
18.811735153198242 -6.915133476257324 0.2733570337295532
18.810087203979492 -7.045942306518555 0.2634003758430481
18.830570220947266 -7.1857829093933105 0.24929553270339966
18.828899383544922 -7.317924499511719 0.238991841673851
18.84832000732422 -7.4590277671813965 0.2246994823217392
18.846588134765625 -7.592538356781006 0.21404732763767242
18.846660614013672 -7.727433681488037 0.20289039611816406
18.84760284423828 -7.863375663757324 0.19139325618743896
18.840320587158203 -7.9965410232543945 0.18121972680091858
18.8719425201416 -8.147109031677246 0.1637132167816162
18.859079360961914 -8.279342651367188 0.154189795255661
16.36745262145996 -7.305781364440918 0.6036103367805481
