# .PCD v0.7 - Point Cloud Data file format
VERSION 0.7
FIELDS x y z
SIZE 4 4 4
TYPE F F F
COUNT 1 1 1
WIDTH 849
HEIGHT 1
VIEWPOINT 0 0 0 1 0 0 0
POINTS 849
DATA ascii
32.84690475463867 20.88375473022461 0.9434954524040222
32.82868957519531 20.590713500976562 0.95124751329422
32.821693420410156 20.307079315185547 0.9579108357429504
32.87888717651367 20.064842224121094 0.9591869115829468
32.84374237060547 19.768136978149414 0.967815101146698
32.933170318603516 19.547977447509766 0.9661831259727478
32.89973068237305 19.256412506103516 0.974353015422821
32.89248275756836 18.982446670532227 0.9802446365356445
32.912593841552734 18.726070404052734 0.9837770462036133
32.82117462158203 18.408674240112305 0.9961272478103638
32.86243438720703 18.16791534423828 0.9976578950881958
32.95803451538086 17.957889556884766 0.9947012066841125
32.99781036376953 17.71811294555664 0.9960876107215881
33.02001190185547 17.47012710571289 0.9987426400184631
33.02538299560547 17.214696884155273 1.002602219581604
33.02354049682617 16.957124710083008 1.0068950653076172
33.039371490478516 16.710126876831055 1.0096440315246582
33.048954010009766 16.461349487304688 1.0127549171447754
33.06927490234375 16.2192325592041 1.0148804187774658
33.08427429199219 15.975748062133789 1.017296314239502
33.088531494140625 15.728408813476562 1.020430088043213
33.1099739074707 15.490493774414062 1.0220766067504883
33.11162567138672 15.244564056396484 1.0251554250717163
33.15330505371094 15.01812744140625 1.0249555110931396
33.1251220703125 14.761305809020996 1.030125379562378
33.102352142333984 14.50859546661377 1.0347391366958618
33.1290283203125 14.278827667236328 1.0353440046310425
33.13209533691406 14.039938926696777 1.0376791954040527
33.162017822265625 13.813437461853027 1.0377875566482544
33.19780731201172 13.590118408203125 1.037320613861084
33.22932052612305 13.365763664245605 1.0370699167251587
33.09607696533203 13.077025413513184 1.0495678186416626
33.104679107666016 12.846351623535156 1.0508626699447632
33.47983932495117 12.756326675415039 1.0234607458114624
33.674827575683594 12.594747543334961 1.0100196599960327
33.72022247314453 12.37661361694336 1.0081279277801514
33.72667694091797 12.144880294799805 1.0091533660888672
33.73814010620117 11.915857315063477 1.0096731185913086
33.75654983520508 11.690086364746094 1.0095380544662476
33.73284912109375 11.450753211975098 1.012561321258545
33.75764846801758 11.22883129119873 1.0117024183273315
33.77909469604492 11.006418228149414 1.0109914541244507
33.779136657714844 10.777795791625977 1.011830449104309
33.794776916503906 10.554937362670898 1.011346697807312
33.80610275268555 10.331417083740234 1.0110878944396973
33.7958869934082 10.102155685424805 1.0123883485794067
33.81476974487305 9.882359504699707 1.0113221406936646
33.81592559814453 9.658053398132324 1.011521577835083
33.83578109741211 9.439730644226074 1.0101619958877563
33.83883285522461 9.217333793640137 1.0099979639053345
33.84428405761719 8.99627685546875 1.0095386505126953
33.85795974731445 8.77800178527832 1.008335828781128
33.878929138183594 8.562093734741211 1.0064597129821777
33.887874603271484 8.343635559082031 1.0054088830947876
33.88669204711914 8.123296737670898 1.0050383806228638
33.89961624145508 7.906906604766846 1.0034667253494263
33.90046691894531 7.688238620758057 1.0027271509170532
33.91743850708008 7.473715782165527 1.000630497932434
33.938907623291016 7.260524749755859 0.9980797171592712
33.948299407958984 7.045121192932129 0.9963623881340027
33.964149475097656 6.831446647644043 0.9940381050109863
33.960052490234375 6.6142191886901855 0.9931597709655762
33.95261764526367 6.396928310394287 0.9924384355545044
33.97518539428711 6.185690402984619 0.9892784357070923
33.98073196411133 5.971653461456299 0.9873406887054443
33.99279022216797 5.759111404418945 0.9847915768623352
34.0045051574707 5.546804904937744 0.9821653962135315
34.0001220703125 5.332252502441406 0.9806922078132629
34.00818634033203 5.1200385093688965 0.9781444668769836
34.01789093017578 4.908351421356201 0.9753653407096863
34.031219482421875 4.697417259216309 0.9722009301185608
34.051143646240234 4.487544536590576 0.9684159159660339
34.06582260131836 4.277105808258057 0.9649374485015869
34.079193115234375 4.066652774810791 0.9614567160606384
33.60881805419922 3.8016295433044434 0.9958422780036926
33.49734115600586 3.581101417541504 1.0020010471343994
33.54611587524414 3.3783633708953857 0.9954743981361389
33.61846923828125 3.177504539489746 0.9869813323020935
33.65386962890625 2.9727256298065186 0.9812890291213989
33.662193298339844 2.765507459640503 0.9776265025138855
33.665260314941406 2.557995557785034 0.9742767810821533
33.676002502441406 2.3511722087860107 0.9702185988426208
33.68844985961914 2.1445016860961914 0.9659217596054077
15.759479522705078 0.9063919186592102 2.3841917514801025
15.78051471710205 0.810526430606842 2.380877733230591
15.784035682678223 0.7136709094047546 2.378904104232788
15.783973693847656 0.6166850924491882 2.3771674633026123
15.810215950012207 0.520611047744751 2.373286008834839
15.82690143585205 0.42399728298187256 2.3701136112213135
15.842998504638672 0.327197402715683 2.366935968399048
15.807671546936035 0.22947832942008972 2.3678245544433594
33.750362396240234 0.28247272968292236 0.9265711307525635
13.009004592895508 0.029314706102013588 2.5886619091033936
33.752586364746094 -0.13158419728279114 0.9176071286201477
33.76375198364258 -0.3387443423271179 0.9121572375297546
33.78560256958008 -0.5462419986724854 0.9057375192642212
33.80219268798828 -0.7539336085319519 0.8996328115463257
11.837418556213379 -0.3364380896091461 2.6746323108673096
33.81758499145508 -1.169505000114441 0.8885359168052673
33.81838607788086 -1.3772791624069214 0.8833864331245422
33.747215270996094 -1.5817950963974 0.8839938044548035
13.07520866394043 -0.6930360794067383 2.56638503074646
12.813881874084473 -0.7580312490463257 2.5856716632843018
12.861570358276367 -0.8400596380233765 2.5796737670898438
33.86881637573242 -2.421522855758667 0.852208137512207
12.646331787109375 -0.981951117515564 2.593069314956665
33.86265563964844 -2.83906888961792 0.841122567653656
12.985448837280273 -1.1687400341033936 2.560631275177002
33.90193557739258 -3.261704683303833 0.8258349895477295
33.90571212768555 -3.4721298217773438 0.8193299174308777
33.924034118652344 -3.6844475269317627 0.8114995956420898
33.92320251464844 -3.8950772285461426 0.8051469922065735
33.929962158203125 -4.1069135665893555 0.7980450391769409
33.94330978393555 -4.3199896812438965 0.7902746796607971
33.9355583190918 -4.530747890472412 0.7841545939445496
33.962032318115234 -4.7465410232543945 0.7750401496887207
12.794437408447266 -1.8680152893066406 2.5542256832122803
33.96158218383789 -5.172108173370361 0.7609407305717468
33.99971008300781 -5.391562461853027 0.750460684299469
33.98529052734375 -5.603250503540039 0.7443118095397949
12.764835357666016 -2.184863805770874 2.54573917388916
13.410382270812988 -2.380160093307495 2.487705945968628
34.0301513671875 -6.256107807159424 0.7176217436790466
34.01424789428711 -6.469192028045654 0.7111154794692993
34.03416442871094 -6.689621925354004 0.7014053463935852
33.96965026855469 -6.893695831298828 0.6988546252250671
33.913665771484375 -7.099274158477783 0.6954684853553772
33.931434631347656 -7.320608139038086 0.6855732798576355
33.98666763305664 -7.551075458526611 0.6722757816314697
34.06268310546875 -7.787604331970215 0.6570033431053162
34.07111358642578 -8.009843826293945 0.6474838852882385
34.08971405029297 -8.235289573669434 0.6369327902793884
34.09425354003906 -8.458148002624512 0.627476155757904
34.10892868041992 -8.684324264526367 0.6169858574867249
34.12788772583008 -8.912510871887207 0.605969250202179
34.116455078125 -9.133528709411621 0.597508430480957
34.11608123779297 -9.35816764831543 0.58792644739151
34.139163970947266 -9.590156555175781 0.5761014819145203
34.16164779663086 -9.823055267333984 0.5641750693321228
34.16342544555664 -10.050969123840332 0.5539565086364746
34.15129089355469 -10.275543212890625 0.5448495149612427
34.21767044067383 -10.52495288848877 0.5284764766693115
34.19768142700195 -10.748976707458496 0.519777774810791
34.1790771484375 -10.974067687988281 0.5108132362365723
34.17129135131836 -11.203370094299316 0.5007156729698181
34.2158317565918 -11.451013565063477 0.4856538474559784
34.20109939575195 -11.679987907409668 0.4758797585964203
34.22811508178711 -11.924288749694824 0.46208852529525757
34.1773796081543 -12.142348289489746 0.4553491175174713
34.166465759277344 -12.375162124633789 0.4447651207447052
34.2231330871582 -12.633831024169922 0.42769405245780945
34.3105354309082 -12.905937194824219 0.40752679109573364
34.31122589111328 -13.147154808044434 0.3953131437301636
34.3046760559082 -13.386695861816406 0.3836149573326111
34.325172424316406 -13.638053894042969 0.36917611956596375
34.31616973876953 -13.8789644241333 0.3573642373085022
34.34417724609375 -14.136202812194824 0.3418327569961548
34.3289680480957 -14.376991271972656 0.33025968074798584
34.31759262084961 -14.620469093322754 0.31814542412757874
34.33742141723633 -14.878607749938965 0.30282869935035706
29.497127532958984 -12.996855735778809 0.7607113122940063
34.42413330078125 -15.420870780944824 0.2669805884361267
34.37649154663086 -15.653604507446289 0.2576529085636139
34.40140914916992 -15.920639038085938 0.24101397395133972
34.38828659057617 -16.171615600585938 0.2279236763715744
34.39314270019531 -16.43247413635254 0.21285521984100342
34.37278366088867 -16.682697296142578 0.2000970095396042
34.3068733215332 -16.911710739135742 0.19172115623950958
34.33563232421875 -17.188697814941406 0.17365367710590363
34.093257904052734 -17.329927444458008 0.18279345333576202
34.30270004272461 -17.702228546142578 0.14599613845348358
33.79072952270508 -17.701553344726562 0.18247658014297485
34.280765533447266 -18.227359771728516 0.11639722436666489
34.17398452758789 -18.44059181213379 0.11115384101867676
34.109554290771484 -18.677120208740234 0.10139807313680649
29.81417465209961 -21.178255081176758 0.23152875900268555
30.21099281311035 -21.74050521850586 0.1669149398803711
29.811100006103516 -21.731836318969727 0.19344983994960785
29.7064151763916 -21.936159133911133 0.185955211520195
29.629844665527344 -22.16208267211914 0.17502500116825104
29.61431312561035 -22.435392379760742 0.15673355758190155
29.624176025390625 -22.73055648803711 0.13516020774841309
33.7407341003418 -26.220050811767578 -0.374630868434906
33.678096771240234 -26.50470542907715 -0.3911082148551941
33.589874267578125 -26.77096176147461 -0.4047844111919403
33.473297119140625 -27.01587677001953 -0.4152752459049225
32.5561408996582 -26.942670822143555 -0.353107750415802
32.39431381225586 -27.145679473876953 -0.3581249713897705
32.215274810791016 -27.334197998046875 -0.3611465096473694
32.078941345214844 -27.559171676635742 -0.3696095645427704
31.898244857788086 -27.746259689331055 -0.3726840317249298
31.12353515625 -28.096315383911133 -0.35280081629753113
30.898639678955078 -28.239665985107422 -0.3504427373409271
31.17660903930664 29.77888298034668 0.5095152854919434
31.253110885620117 29.487850189208984 0.5161677598953247
15.524476051330566 14.468704223632812 2.0921847820281982
31.302820205688477 28.817853927612305 0.5389799475669861
31.364980697631836 28.521976470947266 0.5463017225265503
31.553800582885742 28.342384338378906 0.540972113609314
31.69832420349121 28.123157501220703 0.5398387908935547
31.945606231689453 27.994590759277344 0.5285529494285583
31.980600357055664 27.680633544921875 0.5377395153045654
32.01371383666992 27.367950439453125 0.5468626022338867
32.380252838134766 27.339645385742188 0.5237181782722473
32.53853225708008 27.133493423461914 0.5205078125
14.541196823120117 11.975268363952637 2.247803211212158
14.636646270751953 11.90410041809082 2.243866443634033
14.661789894104004 11.776004791259766 2.2465357780456543
14.697635650634766 11.657343864440918 2.2481014728546143
14.711381912231445 11.522082328796387 2.251657724380493
14.693258285522461 11.363299369812012 2.258099317550659
14.703864097595215 11.228172302246094 2.261742115020752
14.718146324157715 11.096945762634277 2.2649457454681396
14.755372047424316 10.983830451965332 2.265928268432617
14.80703353881836 10.881898880004883 2.2654976844787598
14.871721267700195 10.789700508117676 2.2637975215911865
14.86368179321289 10.645437240600586 2.2687156200408936
14.913877487182617 10.54370403289795 2.2681996822357178
14.965836524963379 10.443467140197754 2.2674543857574463
15.039302825927734 10.358262062072754 2.264683961868286
15.169188499450684 10.31122875213623 2.2567360401153564
15.058907508850098 10.101884841918945 2.270505666732788
15.093814849853516 9.99171257019043 2.2710204124450684
15.12292766571045 9.878220558166504 2.271984100341797
15.154570579528809 9.76690673828125 2.272646188735962
15.163541793823242 9.641666412353516 2.2752668857574463
15.209561347961426 9.540526390075684 2.2744948863983154
15.25830078125 9.4412841796875 2.2734146118164062
15.320014953613281 9.350112915039062 2.2711172103881836
15.372639656066895 9.253396034240723 2.269568920135498
15.42465591430664 9.156384468078613 2.2680132389068604
15.475198745727539 9.058579444885254 2.266526937484741
32.947715759277344 19.016530990600586 0.7288374900817871
32.935123443603516 18.7410945892334 0.7359685897827148
32.82735061645508 18.414335250854492 0.7512866258621216
32.85555648803711 18.166316986083984 0.754485547542572
32.937992095947266 17.949180603027344 0.7527880668640137
32.98210906982422 17.71190071105957 0.7543029189109802
33.014862060546875 17.469623565673828 0.7566624879837036
33.025550842285156 17.217010498046875 0.7607952356338501
33.04148864746094 16.96856689453125 0.7643201351165771
33.04050064086914 16.712926864624023 0.7691640853881836
33.05458068847656 16.466381072998047 0.7725507020950317
33.07941436767578 16.226438522338867 0.7748630046844482
33.073822021484375 15.972933769226074 0.7796580195426941
33.08437728881836 15.728672981262207 0.782913088798523
33.107635498046875 15.491640090942383 0.7849329710006714
33.120182037353516 15.250744819641113 0.7877350449562073
33.152809143066406 15.020151138305664 0.7886745929718018
33.11283874511719 14.758071899414062 0.7957022786140442
33.10285568237305 14.51106071472168 0.8000149130821228
33.13870620727539 14.285245895385742 0.8002689480781555
33.1225471496582 14.038139343261719 0.8048348426818848
33.153385162353516 13.812088966369629 0.8052527904510498
33.18730545043945 13.588075637817383 0.8052787780761719
33.230831146240234 13.36862850189209 0.8043594360351562
33.07728958129883 13.071847915649414 0.8200799226760864
33.1063117980957 12.849234580993652 0.8201290369033813
33.54092025756836 12.781888961791992 0.7856102585792542
33.66408157348633 12.593029975891113 0.7774498462677002
33.71319580078125 12.376341819763184 0.7754548192024231
33.72340393066406 12.146011352539062 0.7766335010528564
33.73863983154297 11.918344497680664 0.7772601842880249
33.752349853515625 11.690946578979492 0.7778902649879456
33.731510162353516 11.45261001586914 0.7813188433647156
33.75347137451172 11.229758262634277 0.7810022234916687
33.76544189453125 11.00428581237793 0.7814078330993652
33.77876663208008 10.779996871948242 0.7815773487091064
33.78490447998047 10.554174423217773 0.7822312712669373
33.79240798950195 10.32955551147461 0.7826491594314575
33.802249908447266 10.106380462646484 0.7827488780021667
33.823062896728516 9.887106895446777 0.7818038463592529
33.81849670410156 9.661113739013672 0.7828802466392517
33.83835983276367 9.442779541015625 0.78177809715271
33.84623718261719 9.221680641174316 0.7815690040588379
33.85364532470703 9.001094818115234 0.7812814116477966
33.84514617919922 8.777010917663574 0.7822167277336121
33.867061614990234 8.561429977416992 0.7804732322692871
33.88180160522461 8.344477653503418 0.7792184352874756
33.89322280883789 8.127201080322266 0.7781276702880859
33.895484924316406 7.9082841873168945 0.7776938676834106
33.89439392089844 7.689202308654785 0.7774276733398438
33.913307189941406 7.475149154663086 0.775360643863678
33.93671798706055 7.262402534484863 0.7728002071380615
33.94805908203125 7.047419548034668 0.7711440324783325
33.95218276977539 6.831389904022217 0.7699825167655945
33.957862854003906 6.61614465713501 0.7685768008232117
33.959251403808594 6.400529861450195 0.7674199342727661
33.96711349487305 6.186574935913086 0.7656047344207764
33.974613189697266 5.972933769226074 0.763708233833313
33.99452209472656 5.761763572692871 0.7606493234634399
34.00132369995117 5.548645496368408 0.7585872411727905
34.005802154541016 5.335504531860352 0.756609320640564
34.0050048828125 5.121921062469482 0.7549663782119751
34.019630432128906 4.910966873168945 0.7519055604934692
34.03196334838867 4.699888229370117 0.7489274144172668
34.051883697509766 4.490012168884277 0.7451932430267334
34.059627532958984 4.278700828552246 0.7423800230026245
34.073978424072266 4.068405628204346 0.7388935089111328
33.57612228393555 3.8002612590789795 0.7788484692573547
33.50035095214844 3.5837466716766357 0.7828450202941895
33.541168212890625 3.3801934719085693 0.7768129706382751
33.60356140136719 3.1784307956695557 0.7688252329826355
33.637935638427734 2.9736578464508057 0.7631102800369263
33.64822006225586 2.766702651977539 0.7593376040458679
33.655250549316406 2.559579372406006 0.7557339072227478
33.665977478027344 2.3528192043304443 0.751702606678009
33.67940139770508 2.146275520324707 0.7473284602165222
15.767019271850586 0.9074885845184326 2.2810122966766357
15.791023254394531 0.8117322325706482 2.2773380279541016
15.799515724182129 0.7150383591651917 2.274941921234131
15.79049015045166 0.6176074147224426 2.274000406265259
15.803767204284668 0.5210688710212708 2.2710864543914795
15.829399108886719 0.42473742365837097 2.267050266265869
15.834522247314453 0.32769718766212463 2.264730215072632
15.812153816223145 0.23021668195724487 2.2647366523742676
33.74216842651367 0.2847740650177002 0.7079153060913086
12.02072811126709 0.027432868257164955 2.5899946689605713
12.188902854919434 -0.04694259539246559 2.5737826824188232
12.956303596496582 -0.12934744358062744 2.5052847862243652
33.7843017578125 -0.5438398718833923 0.6862207651138306
33.788917541503906 -0.7512539029121399 0.6810252070426941
12.170600891113281 -0.34558480978012085 2.5685508251190186
11.780835151672363 -0.40686920285224915 2.6009199619293213
33.81401062011719 -1.3747092485427856 0.6637588739395142
13.223519325256348 -0.6191447377204895 2.470351457595825
13.191473007202148 -0.6987687349319458 2.4710769653320312
12.815878868103027 -0.7577514052391052 2.502107620239258
12.82078742980957 -0.8369953632354736 2.4995503425598145
12.722865104675293 -0.9090207815170288 2.5060627460479736
33.882225036621094 -2.6290838718414307 0.6244337558746338
12.844473838806152 -1.0762505531311035 2.4908032417297363
13.005146026611328 -1.1700941324234009 2.4741673469543457
12.927181243896484 -1.243075966835022 2.478752613067627
12.997446060180664 -1.3303544521331787 2.4700467586517334
33.92036819458008 -3.6816232204437256 0.5899759531021118
33.91753005981445 -3.8919970989227295 0.5836535692214966
33.916358947753906 -4.102835655212402 0.5770602226257324
33.93659591674805 -4.316699981689453 0.5684086680412292
33.96140670776367 -4.5317583084106445 0.5592110753059387
33.952301025390625 -4.742738723754883 0.5529552698135376
13.082053184509277 -1.909584403038025 2.444044828414917
13.126066207885742 -1.9983327388763428 2.437206745147705
13.190135955810547 -2.090967893600464 2.428466558456421
13.219162940979004 -2.1787965297698975 2.422858238220215
33.998966217041016 -5.817542552947998 0.5113574266433716
29.256330490112305 -5.191058158874512 0.9401738047599792
34.02511978149414 -6.252713680267334 0.4930873513221741
34.03071975708008 -6.469851970672607 0.4844357669353485
34.0153923034668 -6.683457374572754 0.4775887131690979
33.95968246459961 -6.8892011642456055 0.4743712544441223
33.91735076904297 -7.097574710845947 0.4697967767715454
33.91559600830078 -7.314717769622803 0.46131107211112976
34.02327346801758 -7.556722164154053 0.442422091960907
34.09624481201172 -7.792779922485352 0.4266017973423004
34.075496673583984 -8.008376121520996 0.4194416403770447
34.07758331298828 -8.229857444763184 0.40999048948287964
34.07243347167969 -8.45022964477539 0.4010797142982483
34.09674072265625 -8.678709983825684 0.3892233073711395
34.11855697631836 -8.907557487487793 0.3774440288543701
34.11479187011719 -9.130562782287598 0.3679520785808563
34.11053466796875 -9.354124069213867 0.3583591878414154
34.13261413574219 -9.585785865783691 0.3460812270641327
34.1502571105957 -9.817246437072754 0.33406513929367065
34.1529655456543 -10.0453519821167 0.32333049178123474
34.13699722290039 -10.26870059967041 0.3142547011375427
34.190940856933594 -10.514181137084961 0.29820916056632996
34.170013427734375 -10.7377290725708 0.2892979681491852
34.18270492553711 -10.972675323486328 0.2769378423690796
34.187164306640625 -11.206013679504395 0.2652163803577423
34.18815612792969 -11.439188003540039 0.2536689341068268
34.20170593261719 -11.677624702453613 0.24070823192596436
34.215484619140625 -11.917312622070312 0.22754502296447754
34.14692687988281 -12.128954887390137 0.22242790460586548
34.07050323486328 -12.337833404541016 0.21797478199005127
34.19547653198242 -12.6210355758667 0.19313569366931915
34.29494857788086 -12.89747428894043 0.1706037074327469
34.303985595703125 -13.14177417755127 0.1569858342409134
34.314090728759766 -13.387757301330566 0.14306886494159698
34.253997802734375 -13.60716438293457 0.1361277550458908
33.73565673828125 -13.64161205291748 0.17601732909679413
33.89485168457031 -13.948670387268066 0.14640989899635315
33.703514099121094 -14.112476348876953 0.15269486606121063
33.62868118286133 -14.324396133422852 0.1468602865934372
33.54703140258789 -14.533559799194336 0.1416027992963791
29.487659454345703 -12.990538597106934 0.5519621968269348
33.66510009765625 -15.078258514404297 0.10117678344249725
30.81519317626953 -17.117605209350586 0.19810807704925537
20.633502960205078 -14.090766906738281 1.1550265550613403
20.024274826049805 -13.855813980102539 1.2152882814407349
19.89133071899414 -13.94524097442627 1.2183094024658203
19.781572341918945 -14.050270080566406 1.2184810638427734
19.625234603881836 -14.121355056762695 1.2243221998214722
19.57170295715332 -14.266077995300293 1.2174838781356812
19.5611572265625 -14.443181991577148 1.2051808834075928
19.52128028869629 -14.599835395812988 1.1963496208190918
19.540491104125977 -14.802206993103027 1.1799449920654297
19.527952194213867 -14.982345581054688 1.1673113107681274
19.503713607788086 -15.154951095581055 1.1559646129608154
20.272891998291016 -18.75659942626953 0.8222188353538513
20.104080200195312 -18.83094024658203 0.8268319368362427
32.370361328125 31.28038215637207 0.10696674138307571
30.898279190063477 29.49384880065918 0.28331470489501953
31.011465072631836 29.24085235595703 0.2867107391357422
15.509337425231934 14.444655418395996 1.967667818069458
31.11904525756836 28.630088806152344 0.30556222796440125
31.233165740966797 28.38370132446289 0.30816274881362915
31.139204025268555 27.951854705810547 0.33261844515800476
31.259689331054688 27.716018676757812 0.3340444266796112
31.40545082092285 27.503402709960938 0.3326212465763092
13.54486083984375 11.715312957763672 2.2160751819610596
13.551112174987793 11.576323509216309 2.221193313598633
13.593503952026367 11.469202041625977 2.222440719604492
13.614416122436523 11.34476375579834 2.2258241176605225
13.662025451660156 11.243307113647461 2.2263548374176025
13.695752143859863 11.131002426147461 2.2282309532165527
13.67575740814209 10.976277351379395 2.2355122566223145
13.724688529968262 10.877944946289062 2.235642194747925
13.754876136779785 10.76529598236084 2.237600326538086
13.805495262145996 10.669143676757812 2.237403631210327
13.842774391174316 10.56309700012207 2.2384798526763916
13.892806053161621 10.467194557189941 2.238193988800049
13.918989181518555 10.353819847106934 2.240225076675415
13.986083984375 10.271201133728027 2.2380871772766113
14.018795013427734 10.163572311401367 2.2393112182617188
14.071786880493164 10.071012496948242 2.2384438514709473
14.111959457397461 9.96955680847168 2.2387773990631104
14.107271194458008 9.837196350097656 2.2434592247009277
14.178670883178711 9.758393287658691 2.2405641078948975
14.218301773071289 9.657800674438477 2.240727424621582
14.252265930175781 9.553756713867188 2.241373062133789
14.287154197692871 9.450759887695312 2.241854429244995
14.317976951599121 9.345514297485352 2.2426576614379883
14.357264518737793 9.246182441711426 2.2425663471221924
14.394190788269043 9.145649909973145 2.242633819580078
14.439713478088379 9.050835609436035 2.24180269241333
14.478682518005371 8.952136993408203 2.2415366172790527
14.516983985900879 8.853300094604492 2.241266965866089
14.561450958251953 8.758439064025879 2.240339517593384
14.628442764282227 8.677093505859375 2.237196922302246
14.781867980957031 8.64608383178711 2.2257654666900635
14.841357231140137 8.559237480163574 2.2232463359832764
14.914196968078613 8.479866027832031 2.219403028488159
14.997054100036621 8.40577220916748 2.214559555053711
15.00628662109375 8.290491104125977 2.2166218757629395
15.098692893981934 8.221168518066406 2.2107670307159424
27.732128143310547 14.881452560424805 1.0250067710876465
27.800539016723633 14.699424743652344 1.023569941520691
27.90841293334961 14.538296699523926 1.018315315246582
33.02505874633789 16.439138412475586 0.5550605058670044
32.94234848022461 16.14678382873535 0.5678673386573792
33.03858947753906 15.94355583190918 0.5638591647148132
33.05256652832031 15.701265335083008 0.5673533082008362
33.0693359375 15.461512565612793 0.5704361796379089
33.102516174316406 15.230475425720215 0.571850061416626
33.13410949707031 14.999611854553223 0.5732657313346863
33.10676956176758 14.743391990661621 0.5799738764762878
33.09579849243164 14.49606704711914 0.5850164890289307
33.11781692504883 14.264410018920898 0.5868714451789856
33.13274002075195 14.030695915222168 0.5892355442047119
33.15523910522461 13.801164627075195 0.5907615423202515
33.18447494506836 13.575278282165527 0.591529905796051
33.21404266357422 13.350295066833496 0.592129647731781
33.075279235839844 13.059585571289062 0.6079931855201721
33.10700225830078 12.838089942932129 0.6081078052520752
33.51344299316406 12.759941101074219 0.573871910572052
33.65602493286133 12.578557968139648 0.5636366009712219
33.70503234863281 12.361933708190918 0.5618141889572144
33.71327590942383 12.131010055541992 0.5635730028152466
33.72841262817383 11.90343189239502 0.564568281173706
33.73731994628906 11.674495697021484 0.5659956932067871
33.749412536621094 11.44749641418457 0.5669990181922913
33.74485778808594 11.215757369995117 0.5693795680999756
33.75294876098633 10.989130973815918 0.5704799294471741
33.77376937866211 10.767365455627441 0.5702929496765137
33.788387298583984 10.544271469116211 0.5705386400222778
33.784393310546875 10.31616497039795 0.5723415613174438
33.791282653808594 10.092206954956055 0.5730274319648743
33.81486511230469 9.873858451843262 0.5720727443695068
33.828426361083984 9.653139114379883 0.571898877620697
33.835750579833984 9.431283950805664 0.5721608996391296
33.83586120605469 9.2081298828125 0.5729491710662842
33.841251373291016 8.9871187210083 0.5731332302093506
33.84809875488281 8.767133712768555 0.5730599164962769
33.86125183105469 8.549354553222656 0.5722917914390564
33.864295959472656 8.329599380493164 0.5723118782043457
33.87076950073242 8.111286163330078 0.5718979835510254
33.88069152832031 7.894336223602295 0.5710493326187134
33.88825225830078 7.677346229553223 0.5702899694442749
33.90415954589844 7.462701320648193 0.5686541199684143
33.92455291748047 7.249396324157715 0.5664889216423035
33.93678283691406 7.034704208374023 0.5649410486221313
33.93983840942383 6.818563461303711 0.5641001462936401
33.95227813720703 6.604740142822266 0.5622898936271667
33.95848083496094 6.390097618103027 0.560922384262085
33.972145080566406 6.177228927612305 0.5587575435638428
33.96877670288086 5.96167516708374 0.5580152869224548
33.980743408203125 5.749218463897705 0.5557636618614197
33.988433837890625 5.5363569259643555 0.5537796020507812
33.99872970581055 5.3242316246032715 0.5514395236968994
33.99686813354492 5.110557556152344 0.5500819683074951
34.015350341796875 4.900228023529053 0.5467591285705566
34.02562713623047 4.688910961151123 0.5440613031387329
34.0306396484375 4.4771294593811035 0.5417215824127197
34.043235778808594 4.266575813293457 0.5385730862617493
34.05946731567383 4.056622505187988 0.5349737405776978
33.57859420776367 3.7906389236450195 0.5765189528465271
33.46712875366211 3.570338249206543 0.5843488574028015
33.48701858520508 3.3648927211761475 0.580100417137146
33.50564956665039 3.1593353748321533 0.5758477449417114
33.55475616455078 2.9564719200134277 0.5686911344528198
33.575836181640625 2.7509257793426514 0.5639724135398865
33.521183013916016 2.5395846366882324 0.5660653114318848
33.63209915161133 2.340636968612671 0.5528834462165833
33.60567092895508 2.131779432296753 0.552158534526825
15.750064849853516 0.9014912843704224 2.1881115436553955
15.779976844787598 0.8061396479606628 2.1837782859802246
15.786429405212402 0.7094237804412842 2.1815428733825684
15.78532600402832 0.6123872399330139 2.1799468994140625
15.804524421691895 0.5160737633705139 2.1764235496520996
15.822139739990234 0.41952040791511536 2.1729862689971924
15.832196235656738 0.322626531124115 2.170189142227173
15.808798789978027 0.22515355050563812 2.1704304218292236
33.718299865722656 0.2748053967952728 0.5081299543380737
33.715965270996094 0.06797540932893753 0.5040106773376465
33.71434783935547 -0.1388261765241623 0.4997044801712036
33.755271911621094 -0.3460552990436554 0.49131882190704346
12.93517780303955 -0.21274380385875702 2.427924156188965
11.971902847290039 -0.27045875787734985 2.516031503677368
12.061441421508789 -0.34650710225105286 2.505903482437134
12.881847381591797 -0.44909000396728516 2.427236795425415
33.768531799316406 -1.3826473951339722 0.4653555154800415
33.725196838378906 -1.588156819343567 0.4641170799732208
13.149321556091309 -0.7008512020111084 2.3959736824035645
12.829568862915039 -0.7627918124198914 2.4239675998687744
12.790718078613281 -0.8392574787139893 2.4254796504974365
33.84126663208008 -2.4269862174987793 0.43067702651023865
12.734487533569336 -0.9926227927207947 2.4263651371002197
12.88871955871582 -1.0842176675796509 2.40942645072937
33.82731246948242 -3.052651882171631 0.4137904644012451
12.48668384552002 -1.2048956155776978 2.4430034160614014
33.89739990234375 -3.478764057159424 0.39431753754615784
33.88786697387695 -3.688014507293701 0.38863667845726013
33.890892028808594 -3.898874282836914 0.38162505626678467
33.91532897949219 -4.112667083740234 0.3724214732646942
33.92261505126953 -4.324894905090332 0.36472997069358826
33.932518005371094 -4.537897109985352 0.35664916038513184
33.94206237792969 -4.75132417678833 0.3484663963317871
33.95223617553711 -4.965328693389893 0.3400835692882538
33.958106994628906 -5.179189682006836 0.33198025822639465
33.96852493286133 -5.394247531890869 0.3232942819595337
33.98249435424805 -5.610441207885742 0.31412047147750854
33.969573974609375 -5.822640895843506 0.30743408203125
13.27907657623291 -2.360870838165283 2.3304593563079834
13.282779693603516 -2.4456989765167236 2.326878547668457
34.03040313720703 -6.480011463165283 0.2767484486103058
34.00422668457031 -6.691503047943115 0.27081048488616943
33.95137405395508 -6.897768497467041 0.267386794090271
33.904090881347656 -7.105069160461426 0.2632918953895569
33.939208984375 -7.330118179321289 0.2508624792098999
33.93882751464844 -7.548305511474609 0.24181458353996277
34.04473876953125 -7.791409015655518 0.2219659388065338
34.03848648071289 -8.010109901428223 0.21318140625953674
34.04243850708008 -8.23183822631836 0.20321977138519287
34.027565002441406 -8.449601173400879 0.19500546157360077
34.07204818725586 -8.68297290802002 0.1806294173002243
34.09665298461914 -8.912430763244629 0.16809268295764923
34.1091423034668 -9.13968563079834 0.1566176563501358
34.0999641418457 -9.361898422241211 0.14719189703464508
34.09605407714844 -9.58622932434082 0.13707108795642853
34.08492660522461 -9.809218406677246 0.12753178179264069
34.058021545410156 -10.028214454650879 0.11946357041597366
34.04591369628906 -10.252131462097168 0.10971644520759583
29.461959838867188 -12.989723205566406 0.3611829876899719
33.374053955078125 -19.092283248901367 -0.35345152020454407
33.28762435913086 -19.315092086791992 -0.361772745847702
33.30943298339844 -19.602130889892578 -0.3833218812942505
33.19828796386719 -19.81218147277832 -0.38905850052833557
31.777311325073242 -20.866680145263672 -0.35284939408302307
20.368722915649414 -13.555438995361328 1.0652987957000732
20.06634521484375 -13.532766342163086 1.0902377367019653
19.759279251098633 -13.502973556518555 1.115978479385376
19.578449249267578 -13.556546211242676 1.125763177871704
19.495412826538086 -13.676944732666016 1.123000979423523
19.4659423828125 -13.835436820983887 1.1132148504257202
19.451400756835938 -14.00570011138916 1.1013224124908447
19.501495361328125 -14.594769477844238 1.052099347114563
19.427906036376953 -14.72671890258789 1.0472278594970703
19.28322982788086 -14.804425239562988 1.0517637729644775
19.37058448791504 -15.253305435180664 1.0097905397415161
19.427141189575195 -15.49209213256836 0.9865932464599609
28.742727279663086 -23.799558639526367 -0.3540022075176239
28.706161499023438 -24.068031311035156 -0.3733568489551544
28.65903091430664 -24.329866409301758 -0.3915533125400543
28.73644256591797 -24.70091438293457 -0.4276637136936188
28.729360580444336 -25.00333023071289 -0.4522976279258728
28.616683959960938 -25.21587562561035 -0.46221649646759033
20.884878158569336 -18.632457733154297 0.6252767443656921
20.753564834594727 -18.745540618896484 0.6247637271881104
20.33989143371582 -18.600078582763672 0.6653918027877808
20.114852905273438 -18.622488021850586 0.6787819266319275
19.8714542388916 -18.62516975402832 0.6950064301490784
19.70163345336914 -18.694686889648438 0.700433611869812
19.55465316772461 -18.784866333007812 0.7024504542350769
15.508328437805176 14.428603172302246 1.8494067192077637
13.094758987426758 11.597177505493164 2.1539089679718018
13.110723495483398 11.468744277954102 2.1584508419036865
13.139179229736328 11.352279663085938 2.161475419998169
13.168218612670898 11.237190246582031 2.1643311977386475
13.219196319580078 11.141439437866211 2.164646625518799
13.239631652832031 11.020621299743652 2.1682634353637695
13.279865264892578 10.917058944702148 2.169590950012207
13.313141822814941 10.808392524719238 2.171595335006714
13.35568904876709 10.707830429077148 2.1724929809570312
13.382665634155273 10.595401763916016 2.1750054359436035
13.4378080368042 10.505753517150879 2.174363136291504
13.447402000427246 10.381117820739746 2.1785800457000732
13.49400806427002 10.285755157470703 2.178699254989624
13.538360595703125 10.18901252746582 2.178985118865967
13.569238662719727 10.08260440826416 2.1806371212005615
13.600929260253906 9.977376937866211 2.182116746902466
13.636682510375977 9.87564754486084 2.183079719543457
13.678994178771973 9.779070854187012 2.183267116546631
13.715752601623535 9.678897857666016 2.183966636657715
13.75343132019043 9.579780578613281 2.1844911575317383
13.792054176330566 9.481695175170898 2.184840202331543
13.829167366027832 9.3829345703125 2.185272216796875
13.867243766784668 9.285184860229492 2.18552827835083
13.90215015411377 9.18567180633545 2.1860406398773193
13.9371919631958 9.08662223815918 2.1864638328552246
13.978245735168457 8.991803169250488 2.186190128326416
14.011932373046875 8.892547607421875 2.1866071224212646
14.05759334564209 8.801149368286133 2.1857166290283203
14.103507995605469 8.710046768188477 2.1847336292266846
14.140325546264648 8.61352825164795 2.184616804122925
14.18332290649414 8.520990371704102 2.18379807472229
14.237714767456055 8.435357093811035 2.181750535964966
14.319972038269043 8.365962982177734 2.1768057346343994
14.422030448913574 8.190162658691406 2.1731016635894775
14.495283126831055 8.114688873291016 2.168910264968872
14.644022941589355 8.0805025100708 2.157052755355835
15.080766677856445 8.201394081115723 2.1161856651306152
15.812742233276367 8.474410057067871 2.0457589626312256
27.79524040222168 14.67920207977295 0.8476686477661133
27.699735641479492 14.412337303161621 0.8626314997673035
27.71990203857422 14.20763111114502 0.86585533618927
27.828411102294922 14.048563957214355 0.8601309657096863
32.31612777709961 15.332221984863281 0.43482735753059387
32.708778381347656 15.273643493652344 0.40111371874809265
33.02135467529297 15.173799514770508 0.3752583861351013
33.13064193725586 14.978769302368164 0.36936691403388977
33.12320327758789 14.731557846069336 0.37482985854148865
33.085697174072266 14.472624778747559 0.38308340311050415
33.11122512817383 14.242650032043457 0.384981632232666
33.123252868652344 14.00786304473877 0.3880518972873688
33.168601989746094 13.787991523742676 0.3877074718475342
33.18391799926758 13.556410789489746 0.3901546597480774
33.209659576416016 13.329983711242676 0.3914332687854767
33.077301025390625 13.042003631591797 0.4079848825931549
33.098690032958984 12.816573143005371 0.4093785285949707
33.48159408569336 12.729414939880371 0.3754413425922394
33.66126251220703 12.562117576599121 0.3611913025379181
33.703609466552734 12.343082427978516 0.36016538739204407
33.70142364501953 12.108508110046387 0.3633207380771637
33.71923065185547 11.882035255432129 0.3643892705440521
33.72611999511719 11.652545928955078 0.3663731813430786
33.746559143066406 11.428528785705566 0.3669014275074005
33.744728088378906 11.197796821594238 0.36944374442100525
33.74702072143555 10.969362258911133 0.3714437782764435
33.761070251464844 10.745548248291016 0.37216639518737793
33.78219985961914 10.524639129638672 0.3720664381980896
33.77998733520508 10.297194480895996 0.37408190965652466
33.784847259521484 10.072731018066406 0.37527573108673096
33.79108810424805 9.8494291305542 0.37619873881340027
33.80449295043945 9.628884315490723 0.37629443407058716
33.81837844848633 9.409076690673828 0.37620818614959717
33.8250732421875 9.18789291381836 0.3766801655292511
33.831298828125 8.96723461151123 0.3770620822906494
33.835121154785156 8.746593475341797 0.37754154205322266
33.845237731933594 8.52818775177002 0.37728163599967957
33.852989196777344 8.309747695922852 0.377117395401001
33.85932922363281 8.091530799865723 0.3769555985927582
33.87009048461914 7.8749003410339355 0.3762374818325043
33.87364196777344 7.6571221351623535 0.37608179450035095
33.88843536376953 7.442371845245361 0.37471410632133484
33.916481018066406 7.23084020614624 0.37194082140922546
33.922733306884766 7.015007495880127 0.37113508582115173
33.9344482421875 6.800737380981445 0.3696732819080353
33.93992233276367 6.585637092590332 0.36868253350257874
33.94501876831055 6.370906352996826 0.36760008335113525
33.95365524291992 6.157247543334961 0.36604931950569153
33.951141357421875 5.942002773284912 0.36544251441955566
33.960025787353516 5.729172229766846 0.36361056566238403
33.969547271728516 5.516773223876953 0.3615902364253998
33.96986770629883 5.30324125289917 0.3603286147117615
33.979679107666016 5.091534614562988 0.3580246567726135
33.99605941772461 4.881035804748535 0.35496097803115845
34.00521469116211 4.669712543487549 0.35246652364730835
34.010101318359375 4.458071231842041 0.3502573072910309
34.027488708496094 4.248269081115723 0.346713125705719
34.03271484375 4.037128448486328 0.34421640634536743
32.54792785644531 3.658644199371338 0.4857253432273865
32.75148391723633 3.478290557861328 0.46387675404548645
32.37759780883789 3.23789119720459 0.4978141784667969
32.836463928222656 3.0805435180664062 0.4509606957435608
32.658992767333984 2.8619470596313477 0.4656504690647125
32.58426284790039 2.6541330814361572 0.47027403116226196
33.063026428222656 2.4891457557678223 0.4209985136985779
32.716819763183594 2.261364221572876 0.4517635703086853
32.83297348022461 2.067157745361328 0.4374540448188782
15.749112129211426 0.8935485482215881 2.0992536544799805
15.779945373535156 0.7982422709465027 2.0946848392486572
15.786337852478027 0.7015265822410583 2.092437744140625
15.783186912536621 0.6044173240661621 2.091064214706421
15.790380477905273 0.5077252388000488 2.0886199474334717
15.8208589553833 0.41159072518348694 2.083833932876587
15.829854011535645 0.31468212604522705 2.081089973449707
15.807405471801758 0.21724945306777954 2.0813732147216797
32.721134185791016 0.25119373202323914 0.4158792793750763
32.754486083984375 0.050540950149297714 0.4083780348300934
32.86323165893555 -0.1508609652519226 0.39330968260765076
12.501453399658203 -0.13535770773887634 2.399569272994995
12.51018238067627 -0.21220232546329498 2.3969531059265137
12.525402069091797 -0.289319783449173 2.393644332885742
12.828607559204102 -0.3750188648700714 2.361720323562622
12.852755546569824 -0.45464393496513367 2.3573763370513916
12.859506607055664 -0.5338812470436096 2.3547070026397705
32.9398193359375 -1.566772699356079 0.35167860984802246
13.086165428161621 -0.7041706442832947 2.327937364578247
12.840065956115723 -0.7699885368347168 2.350356340408325
12.818058967590332 -0.8476174473762512 2.3503658771514893
12.573274612426758 -0.9089714884757996 2.372682571411133
12.815298080444336 -1.0054923295974731 2.3461110591888428
12.247550964355469 -1.036673903465271 2.4009337425231934
13.54883098602295 -1.2303566932678223 2.2673842906951904
33.1922721862793 -3.2165701389312744 0.2795749306678772
33.10121154785156 -3.412858724594116 0.2823355495929718
33.19692611694336 -3.6286840438842773 0.26604947447776794
33.18645477294922 -3.8337173461914062 0.26038452982902527
33.40483093261719 -4.066762924194336 0.2312757819890976
33.05315399169922 -4.229923248291016 0.26013004779815674
33.875152587890625 -4.546474456787109 0.16893945634365082
33.92401123046875 -4.765094757080078 0.1565067023038864
33.94586181640625 -4.980734825134277 0.14668431878089905
33.91618347167969 -5.18915319442749 0.1420152336359024
33.77125930786133 -5.379251956939697 0.1491083949804306
33.75778579711914 -5.58970308303833 0.1425301879644394
33.845947265625 -5.817882537841797 0.12527580559253693
29.2089900970459 -5.205826759338379 0.5988405346870422
33.79948806762695 -6.237865447998047 0.11340343207120895
33.68782043457031 -6.4312615394592285 0.11649706214666367
29.437570571899414 -12.99585247039795 0.18126246333122253
33.0499267578125 -16.321428298950195 -0.3528325855731964
20.439456939697266 -13.436660766601562 0.9304279685020447
20.457218170166016 -13.62899398803711 0.9142419695854187
19.70229721069336 -13.30156421661377 1.001082181930542
19.559284210205078 -13.380633354187012 1.0065652132034302
19.44218635559082 -13.476568222045898 1.0085448026657104
19.343355178833008 -13.584709167480469 1.0080033540725708
19.273086547851562 -13.712886810302734 1.0034972429275513
19.96150016784668 -14.388087272644043 0.8947703242301941
19.607772827148438 -14.502448081970215 0.9136320948600769
19.491044998168945 -14.602177619934082 0.9147365689277649
19.383331298828125 -14.708233833312988 0.9145262241363525
19.302635192871094 -14.83471393585205 0.9104399681091309
19.283098220825195 -15.587972640991211 0.8491962552070618
19.300565719604492 -15.799099922180176 0.8300269246101379
27.581741333007812 -22.86124610900879 -0.39721617102622986
27.336177825927734 -22.942468643188477 -0.3856542408466339
27.169414520263672 -23.088462829589844 -0.38569867610931396
26.9687442779541 -23.204763412475586 -0.38078445196151733
26.817127227783203 -23.3625545501709 -0.38324490189552307
26.616147994995117 -23.476638793945312 -0.3783835768699646
20.783306121826172 -18.56061363220215 0.4808797538280487
20.553659439086914 -18.58378028869629 0.49558427929878235
20.312063217163086 -18.593433380126953 0.5122495293617249
20.092994689941406 -18.6210880279541 0.5255811810493469
19.833053588867188 -18.60801124572754 0.5453879833221436
19.670581817626953 -18.684141159057617 0.550113320350647
19.472827911376953 -18.725238800048828 0.560404896736145
15.517951011657715 14.467504501342773 1.7163994312286377
12.963458061218262 11.792527198791504 2.0468671321868896
13.007943153381348 11.688166618347168 2.0486066341400146
13.030035972595215 11.564533233642578 2.052964210510254
13.074319839477539 11.461420059204102 2.0545191764831543
13.111056327819824 11.352331161499023 2.0568861961364746
13.15073013305664 11.246458053588867 2.05879807472229
13.185037612915039 11.136670112609863 2.0612523555755615
13.226140975952148 11.033263206481934 2.0627968311309814
13.268011093139648 10.931037902832031 2.0641567707061768
13.303717613220215 10.824313163757324 2.0661509037017822
13.329302787780762 10.710077285766602 2.069236993789673
13.366469383239746 10.60583782196045 2.070864200592041
13.406780242919922 10.504615783691406 2.0720324516296387
13.454229354858398 10.409391403198242 2.0722835063934326
13.47015380859375 10.290404319763184 2.076099395751953
13.511363983154297 10.191400527954102 2.0768942832946777
13.551067352294922 10.091684341430664 2.077777624130249
13.587650299072266 9.990092277526855 2.0789332389831543
13.623498916625977 9.888432502746582 2.0800862312316895
13.662660598754883 9.789607048034668 2.080777168273926
13.698683738708496 9.688948631286621 2.0817408561706543
13.73561954498291 9.58935546875 2.0825178623199463
13.768571853637695 9.487412452697754 2.0836613178253174
13.805731773376465 9.388787269592285 2.0842480659484863
13.842201232910156 9.290060043334961 2.084831953048706
13.876317977905273 9.19013786315918 2.0855982303619385
13.912233352661133 9.091782569885254 2.0860836505889893
13.948301315307617 8.99386978149414 2.0864734649658203
13.986213684082031 8.897459983825684 2.086581230163574
14.020094871520996 8.798805236816406 2.0870578289031982
14.060911178588867 8.704785346984863 2.086693286895752
14.10195255279541 8.611113548278809 2.086230754852295
14.138110160827637 8.514697074890137 2.086231231689453
14.181320190429688 8.422735214233398 2.085386276245117
14.21963882446289 8.328046798706055 2.0850043296813965
14.259054183959961 8.234200477600098 2.084430694580078
14.302179336547852 8.142646789550781 2.083383560180664
14.34992790222168 8.053793907165527 2.0817675590515137
14.590523719787598 8.071645736694336 2.0592691898345947
14.88168716430664 8.114005088806152 2.031348943710327
15.829888343811035 8.505534172058105 1.9328581094741821
27.52457618713379 14.572114944458008 0.6821175813674927
27.570703506469727 14.3809175491333 0.6831721067428589
27.60312271118164 14.183330535888672 0.6855493187904358
27.656368255615234 13.997125625610352 0.6855599880218506
27.7083683013916 13.810797691345215 0.6855661869049072
27.80112648010254 13.644970893859863 0.6811075210571289
27.909025192260742 13.486320495605469 0.6749231815338135
28.17064094543457 13.40040397644043 0.6523540019989014
28.453874588012695 13.321908950805664 0.6274409890174866
32.68629837036133 15.059886932373047 0.18583936989307404
33.09041213989258 15.000908851623535 0.14874352514743805
33.104087829589844 14.763202667236328 0.1526675969362259
33.07963180541992 14.50989818572998 0.16042648255825043
33.112735748291016 14.283072471618652 0.16197259724140167
33.11772537231445 14.04511547088623 0.16630135476589203
33.15596008300781 13.822186470031738 0.16698706150054932
33.17428207397461 13.591769218444824 0.16959667205810547
33.19195556640625 13.362015724182129 0.17211350798606873
33.07477569580078 13.07984733581543 0.18851982057094574
33.10940933227539 12.859436988830566 0.1889389455318451
33.482967376708984 12.768891334533691 0.1539786159992218
33.60683059692383 12.580724716186523 0.14486749470233917
33.64274978637695 12.359598159790039 0.14474546909332275
33.66505432128906 12.134115219116211 0.1458841860294342
33.66802978515625 11.902518272399902 0.1488693654537201
33.66943359375 11.671339988708496 0.15186160802841187
33.69565963745117 11.449556350708008 0.15213464200496674
