# .PCD v0.7 - Point Cloud Data file format
VERSION 0.7
FIELDS x y z
SIZE 4 4 4
TYPE F F F
COUNT 1 1 1
WIDTH 852
HEIGHT 1
VIEWPOINT 0 0 0 1 0 0 0
POINTS 852
DATA ascii
34.0163688659668 5.5249834060668945 1.8204282522201538
34.0316276550293 5.313448429107666 1.816980004310608
34.024837493896484 5.098825454711914 1.8146390914916992
34.034488677978516 4.8870391845703125 1.8113504648208618
34.04380798339844 4.6754608154296875 1.808007836341858
34.06171417236328 4.465247631072998 1.804133415222168
34.071388244628906 4.254125118255615 1.8006300926208496
34.07181930541992 4.042108535766602 1.7975528240203857
33.53507995605469 3.7700114250183105 1.823399543762207
33.52159881591797 3.560438871383667 1.8209854364395142
33.58132553100586 3.358623504638672 1.8145406246185303
33.640838623046875 3.156301736831665 1.808026671409607
33.66032409667969 2.94997501373291 1.8036081790924072
33.66859817504883 2.742716073989868 1.7997266054153442
33.66961669921875 2.53501558303833 1.7961698770523071
33.69127655029297 2.328918695449829 1.7914154529571533
33.682769775390625 2.12083101272583 1.7882378101348877
33.665000915527344 1.9124810695648193 1.78550124168396
33.664894104003906 1.7053868770599365 1.7817269563674927
13.165884017944336 0.5862549543380737 2.9077556133270264
12.391897201538086 0.47567328810691833 2.9489736557006836
19.31232452392578 0.6224920749664307 2.5644326210021973
12.750967979431152 0.3328544497489929 2.9260900020599365
12.482152938842773 0.24923977255821228 2.939469575881958
33.74734878540039 0.4661216139793396 1.752964973449707
12.483101844787598 0.09608445316553116 2.9362711906433105
12.5652437210083 0.019636064767837524 2.930060386657715
12.63293170928955 -0.057752590626478195 2.9246115684509277
12.74906063079834 -0.1364966779947281 2.916393280029297
12.742903709411621 -0.21461321413516998 2.9150102138519287
33.8040771484375 -0.7774128913879395 1.7229341268539429
33.81539535522461 -0.985247790813446 1.7175568342208862
33.810462951660156 -1.1927242279052734 1.7130234241485596
12.48306655883789 -0.5168042778968811 2.922609329223633
12.620185852050781 -0.6000562906265259 2.9129490852355957
13.164490699768066 -0.7069178223609924 2.8799123764038086
12.854862213134766 -0.7693945169448853 2.895691156387329
11.868565559387207 -0.7834293246269226 2.9504735469818115
12.255779266357422 -0.8845449686050415 2.926281690597534
12.496866226196289 -0.9790511727333069 2.9103944301605225
12.383100509643555 -1.046605110168457 2.914989948272705
12.396242141723633 -1.1243479251861572 2.9122095108032227
12.742766380310059 -1.23465096950531 2.8899435997009277
33.91947937011719 -3.4972944259643555 1.6486530303955078
13.30206298828125 -1.4538073539733887 2.8528218269348145
33.95284652709961 -3.9223127365112305 1.6350808143615723
12.489265441894531 -1.5202394723892212 2.8961868286132812
33.951168060302734 -4.344878673553467 1.6232320070266724
33.97308349609375 -4.559693813323975 1.6158311367034912
33.96596908569336 -4.771053791046143 1.6100682020187378
33.9891357421875 -4.987137794494629 1.602413535118103
33.98428726196289 -5.199609756469727 1.5963443517684937
33.995845794677734 -5.415038108825684 1.589202642440796
34.00998306274414 -5.631457805633545 1.581815242767334
34.00306701660156 -5.844873428344727 1.575608253479004
29.28162384033203 -5.218397617340088 1.8555669784545898
34.02348709106445 -6.279147148132324 1.5608495473861694
34.0644645690918 -6.503078460693359 1.551449179649353
34.0354118347168 -6.7142252922058105 1.546233892440796
33.9718017578125 -6.918489933013916 1.5430662631988525
33.92161560058594 -7.125305652618408 1.5390037298202515
33.91407012939453 -7.34127140045166 1.5322271585464478
33.957759857177734 -7.569141387939453 1.5221734046936035
33.99505615234375 -7.796708106994629 1.5124047994613647
34.02695083618164 -8.024102210998535 1.5028610229492188
34.04375076293945 -8.24889087677002 1.4941540956497192
34.04550552368164 -8.47081470489502 1.486290454864502
34.0999755859375 -8.706900596618652 1.4749882221221924
34.10743713378906 -8.932088851928711 1.4665474891662598
34.135589599609375 -9.163649559020996 1.456681251525879
34.118873596191406 -9.383980751037598 1.449570894241333
34.100730895996094 -9.604453086853027 1.442455768585205
34.106109619140625 -9.832245826721191 1.4337271451950073
34.128150939941406 -10.065832138061523 1.4238100051879883
34.12281036376953 -10.292277336120605 1.415554404258728
34.13886260986328 -10.526093482971191 1.4057964086532593
34.14094924926758 -10.756596565246582 1.396834373474121
34.16238784790039 -10.99424934387207 1.386486530303955
34.166072845458984 -11.227273941040039 1.3771870136260986
34.12370681762695 -11.445838928222656 1.3708248138427734
34.182865142822266 -11.69953727722168 1.3576098680496216
34.161041259765625 -11.9267578125 1.3496589660644531
34.14241027832031 -12.1558256149292 1.3413875102996826
34.150394439697266 -12.395329475402832 1.3312115669250488
34.27372360229492 -12.678672790527344 1.3131006956100464
34.29866027832031 -12.92773723602295 1.3014848232269287
34.31157684326172 -13.173651695251465 1.2905503511428833
34.328338623046875 -13.422391891479492 1.2792161703109741
34.34239959716797 -13.671463966369629 1.2679296731948853
34.34637451171875 -13.917840003967285 1.257201910018921
34.35137939453125 -14.165923118591309 1.246267318725586
34.36750793457031 -14.41999626159668 1.234419345855713
34.34877014160156 -14.660696983337402 1.2248703241348267
34.3576545715332 -14.914426803588867 1.2132480144500732
29.546302795410156 -13.0418701171875 1.54259192943573
34.436397552490234 -15.45368480682373 1.1852308511734009
34.4286994934082 -15.70479679107666 1.174330234527588
34.415592193603516 -15.954716682434082 1.1636766195297241
34.43862533569336 -16.222929000854492 1.1502768993377686
34.43804931640625 -16.48168182373047 1.1384224891662598
34.4580192565918 -16.751949310302734 1.1249181032180786
34.47954559326172 -17.02484703063965 1.1111314296722412
34.4758186340332 -17.287010192871094 1.0990276336669922
34.41592788696289 -17.52215003967285 1.0909160375595093
34.35710144042969 -17.758583068847656 1.0826070308685303
34.43892288208008 -18.069595336914062 1.063681721687317
34.42045211791992 -18.330215454101562 1.0520498752593994
34.43342971801758 -18.609317779541016 1.0378905534744263
34.39528274536133 -18.862398147583008 1.027423620223999
30.8057918548584 -17.14065933227539 1.2872841358184814
34.58897399902344 -19.524734497070312 0.9853792786598206
34.57470703125 -19.797513961791992 0.9725211262702942
34.5549430847168 -20.0688533782959 0.9599152207374573
34.57182693481445 -20.36347770690918 0.9442865252494812
34.57953643798828 -20.654972076416016 0.9291707277297974
34.556800842285156 -20.930269241333008 0.9162482023239136
34.568538665771484 -21.228511810302734 0.9004219770431519
34.53894805908203 -21.503433227539062 0.8876696228981018
34.57393264770508 -21.82085418701172 0.8695769906044006
34.56261444091797 -22.111555099487305 0.8549683690071106
34.62184524536133 -22.45016098022461 0.8344545960426331
34.62068176269531 -22.752517700195312 0.818580687046051
34.563133239746094 -23.019750595092773 0.8071004748344421
34.733489990234375 -23.442296981811523 0.7767056822776794
34.755008697509766 -23.768672943115234 0.7582331895828247
34.765621185302734 -24.09050941467285 0.7404158711433411
34.76133728027344 -24.404769897460938 0.7235984802246094
34.807334899902344 -24.75746726989746 0.7023095488548279
34.80174255371094 -25.07665252685547 0.6850994825363159
34.82253646850586 -25.417871475219727 0.6653944253921509
34.80595397949219 -25.734785079956055 0.6486201286315918
34.84347915649414 -26.094907760620117 0.6269327402114868
34.85880661010742 -26.441987991333008 0.6068680286407471
34.87196350097656 -26.79084014892578 0.5867047905921936
34.885292053222656 -27.14329719543457 0.5662369132041931
34.89011001586914 -27.49260139465332 0.546225368976593
34.894290924072266 -27.844850540161133 0.5259789228439331
34.772850036621094 -28.0991153717041 0.5166929960250854
34.79706573486328 -28.473602294921875 0.4941118657588959
34.87481689453125 -28.896541595458984 0.4663337767124176
34.886009216308594 -29.268922805786133 0.4442380666732788
34.924346923828125 -29.66835594177246 0.4193122088909149
34.934120178222656 -30.047895431518555 0.39666107296943665
34.91120529174805 -30.40311050415039 0.3767172694206238
34.86952209472656 -30.74532127380371 0.3582264184951782
34.89712142944336 -31.152603149414062 0.33289068937301636
34.6938362121582 -31.356033325195312 0.32915762066841125
34.980220794677734 -32.007286071777344 0.2783709466457367
34.90498352050781 -32.33445739746094 0.261758953332901
35.06859588623047 -32.8884391784668 0.2216355800628662
34.98799514770508 -33.218990325927734 0.2048298716545105
32.37501525878906 30.890806198120117 1.4878495931625366
32.32303237915039 30.464872360229492 1.4997433423995972
32.331390380859375 30.10063934326172 1.5074398517608643
32.443111419677734 29.835494995117188 1.5081710815429688
32.51435470581055 29.535188674926758 1.5114034414291382
32.447086334228516 29.113061904907227 1.5234858989715576
32.40951919555664 28.722692489624023 1.5334240198135376
32.559288024902344 28.50098419189453 1.5310643911361694
32.56248474121094 28.153093338012695 1.5380222797393799
32.583160400390625 27.82375144958496 1.5436832904815674
32.600257873535156 27.49457550048828 1.5494061708450317
32.605342864990234 27.1585693359375 1.5557301044464111
32.63376998901367 26.845111846923828 1.5604054927825928
32.640201568603516 26.516586303710938 1.5663191080093384
32.64851379394531 26.192745208740234 1.5719531774520874
32.66896438598633 25.881587982177734 1.5766668319702148
32.68211364746094 25.567474365234375 1.5816893577575684
32.70133590698242 25.260892868041992 1.5861811637878418
32.71485900878906 24.952613830566406 1.590883493423462
32.725040435791016 24.64452362060547 1.5956484079360962
32.728675842285156 24.334270477294922 1.6006771326065063
32.72893524169922 24.024311065673828 1.6057707071304321
32.527679443359375 23.571102142333984 1.6231763362884521
32.58774185180664 23.311279296875 1.6242704391479492
32.65073776245117 23.055065155029297 1.625064492225647
32.6102180480957 22.728147506713867 1.6320940256118774
32.72161865234375 22.50901222229004 1.629675030708313
32.71174621582031 22.208019256591797 1.6345654726028442
32.74007797241211 21.93523597717285 1.6369938850402832
32.707149505615234 21.623838424682617 1.6430288553237915
32.74357604980469 21.360597610473633 1.6447181701660156
32.751976013183594 21.080970764160156 1.6479909420013428
32.77082443237305 20.810073852539062 1.6505104303359985
32.777435302734375 20.53337860107422 1.653652548789978
32.758949279785156 20.24321174621582 1.658190131187439
32.66139602661133 19.90726661682129 1.6673665046691895
32.6029052734375 19.59849739074707 1.6740591526031494
32.7970085144043 19.442447662353516 1.6654707193374634
32.857643127441406 19.207138061523438 1.6648006439208984
32.8664436340332 18.942890167236328 1.6671308279037476
32.86369323730469 18.673831939697266 1.6700416803359985
32.81184005737305 18.379167556762695 1.6757737398147583
32.880008697509766 18.153419494628906 1.6742382049560547
32.982601165771484 17.947097778320312 1.6705561876296997
33.026702880859375 17.70952033996582 1.6702611446380615
33.01703643798828 17.44455337524414 1.6730600595474243
33.038143157958984 17.19743537902832 1.6739290952682495
33.06278991699219 16.953447341918945 1.6744883060455322
33.0705451965332 16.702150344848633 1.6759495735168457
33.080928802490234 16.4536190032959 1.67715585231781
33.07606506347656 16.19900131225586 1.6791645288467407
33.096309661865234 15.958073616027832 1.6795923709869385
33.11665344238281 15.718365669250488 1.679919719696045
33.11449432373047 15.46928596496582 1.6814782619476318
33.13593292236328 15.232503890991211 1.6815520524978638
33.15298843383789 14.994804382324219 1.6817903518676758
33.11455154418945 14.733519554138184 1.6852015256881714
33.12996292114258 14.49769115447998 1.6853505373001099
33.13914489746094 14.260254859924316 1.685774326324463
33.154937744140625 14.026751518249512 1.6857199668884277
33.17833709716797 13.797426223754883 1.6851283311843872
33.183536529541016 13.561540603637695 1.6855171918869019
33.22694396972656 13.342109680175781 1.6835750341415405
33.093345642089844 13.053407669067383 1.691929578781128
33.13996505737305 12.837542533874512 1.6896233558654785
33.51836013793945 12.748320579528809 1.6677731275558472
33.66958236694336 12.570069313049316 1.659164309501648
33.73455047607422 12.35918140411377 1.6555263996124268
33.7361946105957 12.125678062438965 1.6555169820785522
33.74283218383789 11.894941329956055 1.6551274061203003
33.7611198425293 11.669145584106445 1.653969645500183
33.760894775390625 11.437806129455566 1.6538127660751343
33.76762771606445 11.209739685058594 1.653162956237793
33.788978576660156 10.98726749420166 1.6515721082687378
33.8060188293457 10.764045715332031 1.6501497030258179
33.80348205566406 10.535383224487305 1.649793028831482
33.80419158935547 10.308612823486328 1.6491625308990479
33.80147933959961 10.081657409667969 1.648651361465454
33.831764221191406 9.865185737609863 1.6461199522018433
33.832820892333984 9.640785217285156 1.645222783088684
33.85740661621094 9.423702239990234 1.6428614854812622
33.868080139160156 9.203275680541992 1.6412365436553955
33.86670684814453 8.980257987976074 1.6402391195297241
33.868709564208984 8.758851051330566 1.6389631032943726
33.88185501098633 8.540928840637207 1.6369496583938599
33.89845275878906 8.32436466217041 1.634652853012085
33.90298843383789 8.105364799499512 1.6329857110977173
33.90708541870117 7.886845588684082 1.6312659978866577
33.913673400878906 7.669461727142334 1.629319190979004
33.93350601196289 7.455506324768066 1.626510500907898
33.93830871582031 7.238678932189941 1.6245099306106567
33.9612922668457 7.02611780166626 1.621353268623352
33.96532440185547 6.810012340545654 1.6192399263381958
33.96994400024414 6.59450101852417 1.61701238155365
33.9604377746582 6.376792907714844 1.615545392036438
33.976070404052734 6.164260387420654 1.612507939338684
33.988407135009766 5.951430797576904 1.6095855236053467
34.01219940185547 5.74083948135376 1.6059010028839111
34.02090072631836 5.527937412261963 1.6030360460281372
34.023338317871094 5.31437349319458 1.6004664897918701
34.0214729309082 5.100541591644287 1.5980759859085083
34.03407287597656 4.889203071594238 1.5947424173355103
34.047340393066406 4.678171157836914 1.5912877321243286
34.06425094604492 4.467808723449707 1.58753502368927
34.07688903808594 4.257042407989502 1.5839592218399048
34.07632827758789 4.044875144958496 1.5810976028442383
33.52093505859375 3.7706050872802734 1.611624836921692
33.51736831665039 3.562173843383789 1.6088389158248901
33.572105407714844 3.359891653060913 1.6024504899978638
33.63058090209961 3.157536745071411 1.5957475900650024
33.65502166748047 2.9517111778259277 1.5910212993621826
33.666263580322266 2.7447290420532227 1.5870155096054077
33.67523956298828 2.5376436710357666 1.5830683708190918
33.679954528808594 2.330343246459961 1.5793015956878662
33.67741394042969 2.122702121734619 1.575899362564087
33.65964126586914 1.9143846035003662 1.573351502418518
33.672481536865234 1.707982063293457 1.568852424621582
13.035459518432617 0.5808039903640747 2.8327763080596924
13.02371597290039 0.5002584457397461 2.832000732421875
13.021452903747559 0.420200377702713 2.830612897872925
33.723148345947266 0.8818912506103516 1.5500822067260742
33.733642578125 0.675137460231781 1.5453187227249146
12.855027198791504 0.17813797295093536 2.8361704349517822
12.760965347290039 0.09854656457901001 2.8403875827789307
33.76050567626953 0.05432863160967827 1.5308195352554321
12.648237228393555 -0.057499825954437256 2.844097852706909
12.667508125305176 -0.13529545068740845 2.8411989212036133
33.792903900146484 -0.567539393901825 1.5152249336242676
12.787424087524414 -0.293499231338501 2.8301806449890137
33.80878829956055 -0.9828104376792908 1.504764437675476
33.813819885253906 -1.1905955076217651 1.499590516090393
33.82056427001953 -1.3986045122146606 1.4942238330841064
12.596535682678223 -0.5986082553863525 2.834873676300049
13.003108978271484 -0.6978866457939148 2.807131290435791
12.861004829406738 -0.7694143652915955 2.81418776512146
12.88780689239502 -0.8503907322883606 2.810469150543213
33.89177703857422 -2.4445199966430664 1.4636943340301514
12.528973579406738 -0.9812480807304382 2.8293793201446533
33.887516021728516 -2.862544059753418 1.4529582262039185
33.88693618774414 -3.07197642326355 1.447361946105957
12.762775421142578 -1.2362477779388428 2.8080062866210938
33.90668487548828 -3.4936962127685547 1.4345461130142212
13.40811824798584 -1.4649989604949951 2.761630058288574
14.000504493713379 -1.6166819334030151 2.7206332683563232
33.939815521240234 -4.129669189453125 1.4143980741500854
33.94325256347656 -4.341574192047119 1.4079921245574951
33.96415328979492 -4.556199550628662 1.4003440141677856
33.970855712890625 -4.769442081451416 1.393532156944275
33.97621536254883 -4.982939720153809 1.3867130279541016
33.99897003173828 -5.199550628662109 1.3786441087722778
33.9828987121582 -5.410667896270752 1.3730545043945312
34.01670455932617 -5.630256652832031 1.3640477657318115
33.99893569946289 -5.841849327087402 1.358381986618042
29.272384643554688 -5.214871883392334 1.6686933040618896
34.03107452392578 -6.278225421905518 1.3422237634658813
34.05729675292969 -6.499382972717285 1.3333007097244263
34.02334213256836 -6.709517002105713 1.3283430337905884
33.967559814453125 -6.9153008460998535 1.3247833251953125
33.93982696533203 -7.126806259155273 1.3192336559295654
33.9176025390625 -7.339709758758545 1.3132174015045166
33.94662857055664 -7.564329147338867 1.3035893440246582
33.979034423828125 -7.790695667266846 1.2936108112335205
34.0206184387207 -8.020264625549316 1.282878041267395
34.06744384765625 -8.252281188964844 1.2716554403305054
34.0594482421875 -8.471930503845215 1.264116644859314
34.10707092285156 -8.706351280212402 1.2525895833969116
34.095184326171875 -8.926515579223633 1.2450995445251465
34.11848831176758 -9.156689643859863 1.235027551651001
34.11908721923828 -9.381668090820312 1.2264349460601807
34.1134033203125 -9.605646133422852 1.2181718349456787
34.1292610168457 -9.836540222167969 1.2082663774490356
34.129207611083984 -10.063759803771973 1.1993703842163086
34.12669372558594 -10.291061401367188 1.1905333995819092
34.152225494384766 -10.527822494506836 1.1795628070831299
34.17612838745117 -10.765283584594727 1.168575406074524
34.16041564941406 -10.991214752197266 1.1603219509124756
34.162166595458984 -11.223586082458496 1.1506843566894531
34.149105072021484 -11.451952934265137 1.1420011520385742
34.17888641357422 -11.695762634277344 1.1300605535507202
34.17304229736328 -11.928532600402832 1.12059485912323
34.15623092651367 -12.15832805633545 1.111812949180603
34.15945053100586 -12.396194458007812 1.1014248132705688
34.26862716674805 -12.674351692199707 1.0830161571502686
34.294456481933594 -12.923710823059082 1.070635437965393
34.31385040283203 -13.172076225280762 1.058584213256836
34.32683563232422 -13.419350624084473 1.046866536140442
34.33529281616211 -13.66617488861084 1.0353420972824097
34.34385299682617 -13.914356231689453 1.0236624479293823
34.33774948120117 -14.15783405303955 1.0129528045654297
34.37777328491211 -14.421828269958496 0.9985639452934265
34.35070037841797 -14.659048080444336 0.9891665577888489
34.37051010131836 -14.917526245117188 0.9760124087333679
29.529918670654297 -13.032630920410156 1.340165615081787
34.42448043823242 -15.445839881896973 0.9480847120285034
34.40678024291992 -15.692298889160156 0.9373595714569092
34.42354965209961 -15.955901145935059 0.9237752556800842
34.43025207519531 -16.216476440429688 0.91081303358078
34.469234466552734 -16.49409294128418 0.8951181769371033
34.44599151611328 -16.74358367919922 0.8841941356658936
34.467491149902344 -17.016366958618164 0.8695315718650818
34.4815788269043 -17.287364959716797 0.8552785515785217
34.40474319458008 -17.513927459716797 0.8482018113136292
34.35566711425781 -17.755311965942383 0.8387500047683716
34.418853759765625 -18.0565242767334 0.8199814558029175
34.42592239379883 -18.330585479736328 0.8055897355079651
34.40985870361328 -18.594032287597656 0.792918860912323
30.847394943237305 -16.91448974609375 1.0742993354797363
30.814191818237305 -17.143142700195312 1.0641872882843018
34.57842254638672 -19.516197204589844 0.7356828451156616
34.57625198364258 -19.79581642150879 0.7210344076156616
34.57194900512695 -20.076139450073242 0.7063678503036499
34.53885269165039 -20.341466903686523 0.6939523816108704
34.60740661621094 -20.66901969909668 0.6726620197296143
34.56915283203125 -20.935148239135742 0.6602849364280701
34.58757019042969 -21.237594604492188 0.642828643321991
34.56800842285156 -21.5189151763916 0.6284385919570923
34.58087158203125 -21.82261848449707 0.6110115051269531
34.54761505126953 -22.099342346191406 0.5974005460739136
34.60764694213867 -22.438325881958008 0.575347900390625
34.61813735961914 -22.748207092285156 0.5574052929878235
34.57714080810547 -23.02644920349121 0.543815016746521
34.7183723449707 -23.4294376373291 0.513649582862854
34.74810028076172 -23.76128387451172 0.4931701719760895
34.75292205810547 -24.079038619995117 0.47467121481895447
34.7657585144043 -24.405195236206055 0.4551796019077301
34.804325103759766 -24.752641677856445 0.4330460727214813
34.80595016479492 -25.076993942260742 0.4140218496322632
34.805694580078125 -25.40287971496582 0.3948998749256134
34.816375732421875 -25.73978614807129 0.3744778037071228
34.827415466308594 -26.080167770385742 0.3537282347679138
34.84590148925781 -26.429481506347656 0.33197376132011414
34.883544921875 -26.797012329101562 0.3080780506134033
34.85343551635742 -27.11578941345215 0.29033803939819336
34.831695556640625 -27.443838119506836 0.2715227007865906
34.8602294921875 -27.814929962158203 0.24753987789154053
34.74822235107422 -28.07648468017578 0.23694200813770294
34.75933837890625 -28.439998626708984 0.21404950320720673
34.87401580810547 -28.89312171936035 0.18056099116802216
34.91032409667969 -29.28656005859375 0.15439827740192413
34.89826583862305 -29.64344024658203 0.13269652426242828
34.89069366455078 -30.007770538330078 0.11020670086145401
30.315807342529297 -28.780635833740234 0.39880630373954773
32.324031829833984 30.843656539916992 1.2254451513290405
32.35319137573242 30.494808197021484 1.2332695722579956
32.3310661315918 30.10185432434082 1.2446706295013428
32.441314697265625 29.835378646850586 1.2460905313491821
32.497779846191406 29.521684646606445 1.2512962818145752
32.462440490722656 29.128393173217773 1.2630200386047363
32.40333557128906 28.718772888183594 1.2762398719787598
32.55380630493164 28.497766494750977 1.2740283012390137
32.55323028564453 28.146684646606445 1.2825994491577148
32.592864990234375 27.833646774291992 1.288074254989624
32.590965270996094 27.48834991455078 1.2963496446609497
32.597572326660156 27.153715133666992 1.3038214445114136
32.61595916748047 26.83208656311035 1.3102669715881348
32.64790725708008 26.52448272705078 1.315569519996643
32.63759994506836 26.185630798339844 1.3236935138702393
32.66584396362305 25.880769729614258 1.328911304473877
32.667999267578125 25.55809211730957 1.3357981443405151
32.69508361816406 25.25773048400879 1.3407630920410156
32.69511032104492 24.939224243164062 1.3474589586257935
32.71799087524414 24.640893936157227 1.3523911237716675
32.7168083190918 24.327136993408203 1.3588393926620483
32.745216369628906 24.037960052490234 1.3630716800689697
32.52312088012695 23.569475173950195 1.3844770193099976
32.60346984863281 23.324222564697266 1.3847815990447998
32.67551040649414 23.074268341064453 1.3855310678482056
32.66872787475586 22.770633697509766 1.3915623426437378
32.706336975097656 22.500211715698242 1.3944003582000732
32.65596008300781 22.17186164855957 1.4031120538711548
32.697349548339844 21.9083309173584 1.405407190322876
32.72674560546875 21.638521194458008 1.408386468887329
32.72480010986328 21.350082397460938 1.413358449935913
32.734825134277344 21.071670532226562 1.417378544807434
32.779754638671875 20.81749153137207 1.4189056158065796
32.82618713378906 20.565673828125 1.4202070236206055
18.435909271240234 11.392790794372559 2.3929409980773926
18.435394287109375 11.236878395080566 2.395318031311035
18.375478744506836 11.04642391204834 2.4016032218933105
18.367172241210938 10.88869571685791 2.4043476581573486
32.84103775024414 19.199203491210938 1.4394192695617676
32.9259147644043 18.97894859313965 1.4374154806137085
32.89128494262695 18.6912899017334 1.4432637691497803
32.805599212646484 18.37744903564453 1.4523766040802002
32.865875244140625 18.147403717041016 1.4516597986221313
32.96841049194336 17.9411678314209 1.4480329751968384
33.0071907043457 17.70085906982422 1.4485276937484741
33.01866912841797 17.447221755981445 1.4507163763046265
33.03093338012695 17.195493698120117 1.452738881111145
33.0324821472168 16.939712524414062 1.4553546905517578
33.05352020263672 16.69536590576172 1.456573724746704
33.071022033691406 16.45050811767578 1.4579153060913086
33.07958984375 16.202550888061523 1.45973539352417
33.09356689453125 15.958575248718262 1.4610918760299683
33.093170166015625 15.709046363830566 1.4632831811904907
33.11628341674805 15.471952438354492 1.4638255834579468
33.114158630371094 15.224325180053711 1.4659161567687988
33.148441314697266 14.994585037231445 1.465518593788147
33.14194107055664 14.74754524230957 1.4676859378814697
33.11994552612305 14.495146751403809 1.470759630203247
33.13644790649414 14.26093578338623 1.4712162017822266
33.146732330322266 14.02512264251709 1.4719772338867188
33.17933654785156 13.799686431884766 1.4711835384368896
33.17808151245117 13.561159133911133 1.472496747970581
33.2177619934082 13.340276718139648 1.4710452556610107
33.08792495727539 13.053112983703613 1.4805283546447754
33.12800979614258 12.834759712219238 1.4788538217544556
33.52117156982422 12.751274108886719 1.4541271924972534
33.67235565185547 12.573001861572266 1.4450494050979614
33.71951675415039 12.355574607849121 1.4426395893096924
33.725830078125 12.123857498168945 1.442789077758789
33.72868728637695 11.891861915588379 1.443066120147705
33.76015853881836 11.670724868774414 1.4413906335830688
33.74386978149414 11.433948516845703 1.4427210092544556
33.75531005859375 11.207563400268555 1.4421567916870117
33.777591705322266 10.985479354858398 1.4407964944839478
33.786048889160156 10.75960636138916 1.4402389526367188
33.80158996582031 10.536714553833008 1.4391298294067383
33.80802917480469 10.311705589294434 1.4385193586349487
33.79290008544922 10.081021308898926 1.4392176866531372
33.81645965576172 9.862648010253906 1.437312126159668
33.824214935302734 9.640259742736816 1.4363425970077515
33.848785400390625 9.423232078552246 1.4341893196105957
33.861366271972656 9.203384399414062 1.4327242374420166
33.86288833618164 8.981178283691406 1.4318889379501343
33.8542594909668 8.757048606872559 1.431624412536621
33.86738204956055 8.539216995239258 1.429856538772583
33.884925842285156 8.322982788085938 1.4277106523513794
33.89429473876953 8.10522747039795 1.4260090589523315
33.90518569946289 7.888348579406738 1.424119234085083
33.903987884521484 7.669215679168701 1.422928810119629
33.91891860961914 7.454249858856201 1.4205987453460693
33.9305419921875 7.238971710205078 1.4183967113494873
33.936893463134766 7.0230207443237305 1.4164512157440186
33.951656341552734 6.809225559234619 1.4138678312301636
33.95625686645508 6.593799591064453 1.4118624925613403
33.95655059814453 6.378019332885742 1.4100514650344849
33.967262268066406 6.164620876312256 1.4074715375900269
33.98351287841797 5.952535629272461 1.4044408798217773
34.006309509277344 5.741809844970703 1.4008920192718506
34.014015197753906 5.528785228729248 1.3982468843460083
34.014469146728516 5.314955711364746 1.395991325378418
34.013580322265625 5.101326942443848 1.3937392234802246
34.0232048034668 4.889611721038818 1.390707015991211
34.037437438964844 4.678784370422363 1.387284278869629
34.053340911865234 4.468354225158691 1.383663296699524
34.0620002746582 4.257160663604736 1.380433201789856
34.070343017578125 4.046144962310791 1.377137541770935
33.51515579223633 3.771890878677368 1.4111233949661255
33.50761413574219 3.56307315826416 1.4087568521499634
33.56827163696289 3.361450672149658 1.4017720222473145
33.61975860595703 3.1584692001342773 1.3953005075454712
33.652130126953125 2.9534101486206055 1.3900108337402344
33.66435623168945 2.746528148651123 1.3859752416610718
33.659385681152344 2.538404941558838 1.3830012083053589
33.669063568115234 2.331547498703003 1.3789618015289307
33.661529541015625 2.12365984916687 1.375989556312561
33.660682678222656 1.9164044857025146 1.3724836111068726
33.663543701171875 1.7094905376434326 1.3686431646347046
33.67012023925781 1.5028349161148071 1.3644654750823975
33.66445541381836 1.2957384586334229 1.3610262870788574
19.280874252319336 0.6231714487075806 2.3297832012176514
12.998734474182129 0.33992138504981995 2.753059148788452
12.385005950927734 0.2478048950433731 2.793133020401001
12.395166397094727 0.17195670306682587 2.7909085750579834
33.75273895263672 0.2633410692214966 1.3346068859100342
33.75442123413086 0.05630090832710266 1.3301377296447754
12.73911190032959 -0.057672906666994095 2.7625932693481445
33.77891540527344 -0.3580726981163025 1.3194835186004639
33.78177261352539 -0.5653632879257202 1.3146626949310303
12.810371398925781 -0.29378047585487366 2.7524590492248535
33.80161666870117 -0.9806076288223267 1.3037762641906738
33.80363464355469 -1.1882407665252686 1.298738956451416
33.80238723754883 -1.3958550691604614 1.2938364744186401
33.73808670043945 -1.6005719900131226 1.2932178974151611
12.699151992797852 -0.6813449859619141 2.750737190246582
12.899761199951172 -0.7714763283729553 2.734781503677368
12.867796897888184 -0.848817765712738 2.7349696159362793
12.829401969909668 -0.9253669381141663 2.7355828285217285
12.509101867675781 -0.9794682860374451 2.7559516429901123
33.87122344970703 -2.8591506481170654 1.2514948844909668
12.80191421508789 -1.1605603694915771 2.7311010360717773
12.750754356384277 -1.2348380088806152 2.7325093746185303
12.760687828063965 -1.3148657083511353 2.7295711040496826
14.01560115814209 -1.531001329421997 2.638169050216675
12.309338569641113 -1.4212403297424316 2.757126808166504
12.404253005981445 -1.5093588829040527 2.7480876445770264
12.66674518585205 -1.6201937198638916 2.726982355117798
12.646568298339844 -1.6965347528457642 2.726026773452759
12.624942779541016 -1.77255117893219 2.7251458168029785
12.623588562011719 -1.8514046669006348 2.7227730751037598
12.645403861999512 -1.9339255094528198 2.718686580657959
12.534682273864746 -1.9957807064056396 2.7241687774658203
12.512250900268555 -2.0710020065307617 2.723234176635742
34.00405502319336 -5.840672492980957 1.152446985244751
29.257736206054688 -5.210606575012207 1.492598295211792
34.00374984741211 -6.271121501922607 1.1380174160003662
34.043678283691406 -6.494715690612793 1.1276915073394775
34.016571044921875 -6.706113815307617 1.1221890449523926
33.95199203491211 -6.910067081451416 1.1193639039993286
33.91449737548828 -7.119423866271973 1.1144465208053589
33.91275405883789 -7.336594581604004 1.106772541999817
33.94271469116211 -7.561385631561279 1.0966160297393799
33.99161148071289 -7.791500568389893 1.0849144458770752
34.05156707763672 -8.025474548339844 1.0722417831420898
34.07212829589844 -8.251324653625488 1.062398076057434
34.06989669799805 -8.472434997558594 1.0541527271270752
34.09811782836914 -8.701969146728516 1.0434775352478027
34.106475830078125 -8.92737102508545 1.0341827869415283
34.11719512939453 -9.1542387008667 1.0245826244354248
34.12160873413086 -9.380252838134766 1.0153387784957886
34.115882873535156 -9.604233741760254 1.006750464439392
34.12498092651367 -9.833194732666016 0.9968950748443604
34.12107467651367 -10.059245109558105 0.9879180192947388
34.12139892578125 -10.287344932556152 0.9784864187240601
34.164039611816406 -10.529339790344238 0.965620756149292
34.15743637084961 -10.757268905639648 0.9564608335494995
34.14931869506836 -10.985514640808105 0.9472928643226624
34.1605224609375 -11.220911979675293 0.9364702105522156
34.16350173950195 -11.454642295837402 0.926158607006073
34.16771697998047 -11.689801216125488 0.9156093001365662
34.160919189453125 -11.922158241271973 0.9058001637458801
34.14785385131836 -12.153202056884766 0.8963572978973389
34.1407356262207 -12.38725471496582 0.886303186416626
34.23489761352539 -12.659719467163086 0.8679275512695312
34.296207427978516 -12.922203063964844 0.8520134687423706
34.27643966674805 -13.155549049377441 0.8425133228302002
34.31732177734375 -13.413457870483398 0.827918291091919
34.32945251464844 -13.661672592163086 0.8155050873756409
34.338905334472656 -13.910167694091797 0.803152859210968
34.35488510131836 -14.162713050842285 0.790097177028656
34.36261749267578 -14.41327953338623 0.7775594592094421
34.3557243347168 -14.65899658203125 0.7660766243934631
34.36265182495117 -14.911918640136719 0.7532792687416077
29.513046264648438 -13.023421287536621 1.1491445302963257
34.42290115356445 -15.442922592163086 0.7232531309127808
34.416954040527344 -15.694726943969727 0.7110182046890259
34.42096710205078 -15.95248794555664 0.6977665424346924
34.4231071472168 -16.210891723632812 0.6844992637634277
34.441349029541016 -16.478525161743164 0.6696682572364807
34.4432487487793 -16.740020751953125 0.6560566425323486
34.47631072998047 -17.01848793029785 0.6395569443702698
34.46802520751953 -17.27833366394043 0.6264537572860718
34.39653778076172 -17.50751495361328 0.6187096834182739
34.3465576171875 -17.748369216918945 0.6089409589767456
34.41586685180664 -18.052715301513672 0.5884672403335571
34.39560317993164 -18.31219482421875 0.5757030844688416
34.41203689575195 -18.592958450317383 0.5594792366027832
30.827356338500977 -16.901582717895508 0.8663030862808228
30.79940414428711 -17.13299560546875 0.8552370071411133
34.575103759765625 -19.51205062866211 0.4991888105869293
34.5815315246582 -19.796558380126953 0.4829421043395996
34.58403778076172 -20.08087730407715 0.46683287620544434
34.57919692993164 -20.362937927246094 0.4511791467666626
34.61326599121094 -20.67022705078125 0.43170711398124695
34.609046936035156 -20.957012176513672 0.41553714871406555
34.591556549072266 -21.237743377685547 0.4003807008266449
34.621849060058594 -21.550127029418945 0.38051795959472656
34.55686950683594 -21.805166244506836 0.36938631534576416
34.56227111816406 -22.10641098022461 0.35139408707618713
34.64138412475586 -22.457881927490234 0.32611194252967834
34.565853118896484 -22.711538314819336 0.31534335017204285
34.4146614074707 -22.915943145751953 0.31170201301574707
30.313478469848633 -20.4549617767334 0.6913518309593201
34.657501220703125 -23.696998596191406 0.2509104013442993
34.625755310058594 -23.98859977722168 0.23494915664196014
34.74102783203125 -24.38549041748047 0.2042359858751297
29.86675453186035 -21.239240646362305 0.66846764087677
30.03960609436035 -21.641090393066406 0.6340452432632446
29.713468551635742 -21.684513092041016 0.6492879986763
29.685298919677734 -21.944562911987305 0.6345576047897339
29.611169815063477 -22.17222785949707 0.6242740750312805
29.567129135131836 -22.423898696899414 0.6107425689697266
29.5511417388916 -22.698936462402344 0.5941122770309448
32.349098205566406 30.825712203979492 0.9743883013725281
32.39841842651367 30.49601936340332 0.9817663431167603
32.33307647705078 30.06288719177246 0.9982693791389465
32.44597244262695 29.799175262451172 1.0000087022781372
32.48588180541992 29.470813751220703 1.0074776411056519
32.47392654418945 29.09912109375 1.0189074277877808
32.41230392456055 28.687667846679688 1.034076452255249
32.54301071166992 28.449554443359375 1.0336090326309204
32.568511962890625 28.121538162231445 1.0413661003112793
32.60944747924805 27.809825897216797 1.047690749168396
32.601985931396484 27.4600887298584 1.0576437711715698
32.611419677734375 27.12809181213379 1.0660449266433716
32.61185073852539 26.791942596435547 1.0749468803405762
32.6403923034668 26.481971740722656 1.0814416408538818
32.6461181640625 26.156431198120117 1.0895262956619263
32.675697326660156 25.85287857055664 1.0955597162246704
32.67919158935547 25.531513214111328 1.103429913520813
32.6894645690918 25.218395233154297 1.1105842590332031
32.7018928527832 24.909744262695312 1.1173865795135498
32.71417236328125 24.60369110107422 1.1240195035934448
32.745567321777344 24.314495086669922 1.1290099620819092
32.772239685058594 24.02406883239746 1.1341934204101562
32.5596809387207 23.56277084350586 1.157404899597168
32.61720657348633 23.301105499267578 1.1598657369613647
32.659706115722656 23.030418395996094 1.163314938545227
32.718955993652344 22.773202896118164 1.165347695350647
32.708824157714844 22.469785690307617 1.1724566221237183
32.760650634765625 22.211036682128906 1.1747466325759888
32.73255920410156 21.900325775146484 1.1828770637512207
32.750205993652344 21.622692108154297 1.1874210834503174
32.79160690307617 21.362560272216797 1.1900427341461182
32.837772369384766 21.1070499420166 1.1921699047088623
32.79775619506836 20.798322677612305 1.2005517482757568
32.821189880371094 20.53217124938965 1.2040724754333496
18.426393508911133 11.369579315185547 2.272552013397217
18.412927627563477 11.206002235412598 2.2763307094573975
18.404998779296875 11.047130584716797 2.279616594314575
18.376924514770508 10.877592086791992 2.284299373626709
32.864158630371094 19.18349266052246 1.225022554397583
32.92728805541992 18.950679779052734 1.2248042821884155
32.943660736083984 18.692201614379883 1.2278790473937988
32.83355712890625 18.364561080932617 1.2400418519973755
32.87450408935547 18.123788833618164 1.241050362586975
32.97072982788086 17.914175033569336 1.2379189729690552
33.004913330078125 17.671554565429688 1.2391787767410278
33.033836364746094 17.427326202392578 1.240697979927063
33.036216735839844 17.170520782470703 1.2440155744552612
33.05534744262695 16.923892974853516 1.2459949254989624
33.04597091674805 16.664194107055664 1.2499104738235474
33.0686149597168 16.422115325927734 1.2513923645019531
33.09581756591797 16.18345832824707 1.2524278163909912
33.08357620239258 15.926898002624512 1.2561804056167603
33.1073112487793 15.68904972076416 1.2572286128997803
33.12394714355469 15.448976516723633 1.2586699724197388
33.13163375854492 15.20595932006836 1.260636806488037
33.159420013427734 14.973286628723145 1.261050820350647
33.119022369384766 14.711268424987793 1.266226053237915
33.110504150390625 14.465092658996582 1.2690041065216064
33.12313461303711 14.229423522949219 1.2701587677001953
33.15158462524414 14.001519203186035 1.2700752019882202
33.18033981323242 13.774566650390625 1.2698615789413452
33.21217346191406 13.54967212677002 1.2693204879760742
33.17581558227539 13.29817008972168 1.2735244035720825
33.078208923339844 13.024223327636719 1.2819709777832031
33.119022369384766 12.806323051452637 1.280465841293335
33.52781295776367 12.728673934936523 1.25272536277771
33.68723678588867 12.553443908691406 1.2426083087921143
33.719261169433594 12.330465316772461 1.2414332628250122
33.732913970947266 12.1014986038208 1.2414567470550537
33.738441467285156 11.870509147644043 1.241951823234558
33.76410675048828 11.647391319274902 1.2409158945083618
33.75994873046875 11.414814949035645 1.2418897151947021
33.75041580200195 11.181472778320312 1.2431398630142212
33.77536392211914 10.960379600524902 1.2418463230133057
33.78745651245117 10.735772132873535 1.2413610219955444
33.79044723510742 10.509057998657227 1.2414182424545288
33.80815505981445 10.28764820098877 1.2403333187103271
33.787132263183594 10.055315017700195 1.2418901920318604
33.81529998779297 9.838399887084961 1.239864706993103
33.83152770996094 9.618515968322754 1.2385847568511963
33.845367431640625 9.39853286743164 1.2373747825622559
33.864524841308594 9.18056869506836 1.2356903553009033
33.862030029296875 8.95736312866211 1.2354401350021362
33.87643051147461 8.73926830291748 1.2338967323303223
33.87200927734375 8.516952514648438 1.2335883378982544
33.885520935058594 8.299765586853027 1.2319118976593018
33.887939453125 8.08041763305664 1.2309257984161377
33.90449142456055 7.864959239959717 1.228840947151184
33.908973693847656 7.647185325622559 1.227515697479248
33.92765426635742 7.4330668449401855 1.2250874042510986
33.92937088012695 7.21568489074707 1.2237666845321655
33.93653869628906 6.99997091293335 1.221963882446289
33.95309829711914 6.786590576171875 1.2193986177444458
33.95558547973633 6.570804119110107 1.2177379131317139
33.956703186035156 6.355241298675537 1.2160803079605103
33.96823501586914 6.142040252685547 1.2135870456695557
33.98727798461914 5.930479526519775 1.2104634046554565
34.00008010864258 5.718086242675781 1.207688331604004
34.01845169067383 5.5068745613098145 1.204421043395996
34.001014709472656 5.290280342102051 1.2036176919937134
34.01278305053711 5.078674793243408 1.2006330490112305
34.02225112915039 4.866981029510498 1.197718858718872
34.027435302734375 4.654953956604004 1.1950172185897827
34.05207061767578 4.4457573890686035 1.1908258199691772
34.063541412353516 4.234955310821533 1.1874830722808838
34.07965087890625 4.0248799324035645 1.1837124824523926
33.53043746948242 3.751622200012207 1.2205309867858887
33.503910064697266 3.5407397747039795 1.2196874618530273
33.55644989013672 3.3383255004882812 1.2130522727966309
33.61174011230469 3.1357686519622803 1.2061177492141724
33.64990234375 2.9312710762023926 1.2003183364868164
33.66196823120117 2.7244083881378174 1.19631028175354
33.66878128051758 2.5172083377838135 1.1925886869430542
33.67133712768555 2.3098204135894775 1.189082384109497
33.677589416503906 2.1028053760528564 1.1852134466171265
33.691532135009766 1.8963030576705933 1.1806902885437012
33.69125747680664 1.6890572309494019 1.1771082878112793
33.68672561645508 1.481752634048462 1.1737440824508667
33.688880920410156 1.2748674154281616 1.1697977781295776
19.275644302368164 0.6101821064949036 2.2217140197753906
33.720298767089844 0.8619791269302368 1.1596344709396362
33.729618072509766 0.6552236080169678 1.1548748016357422
13.01159954071045 0.17166300117969513 2.6758499145507812
33.74943923950195 0.24150484800338745 1.1449787616729736
33.74099349975586 0.03447544947266579 1.1412402391433716
33.76118850708008 -0.17259418964385986 1.1352885961532593
12.821944236755371 -0.145482137799263 2.683107614517212
12.772831916809082 -0.22329886257648468 2.684988498687744
11.773136138916016 -0.2782318592071533 2.7575843334198
12.819729804992676 -0.38147732615470886 2.677861452102661
33.81016540527344 -1.210336685180664 1.107886552810669
33.80575942993164 -1.4178682565689087 1.103167176246643
33.725379943847656 -1.621805191040039 1.1040502786636353
12.705461502075195 -0.69041907787323 2.6787173748016357
12.864109992980957 -0.7781886458396912 2.6647589206695557
12.866930961608887 -0.8576103448867798 2.6624739170074463
33.8670768737793 -2.4627139568328857 1.0718058347702026
12.548029899597168 -0.9911776781082153 2.6823906898498535
13.102957725524902 -1.1158440113067627 2.638092517852783
12.765067100524902 -1.166042685508728 2.6615569591522217
13.063220024108887 -1.2740843296051025 2.6365504264831543
13.115534782409668 -1.3604545593261719 2.6302075386047363
13.116727828979492 -1.4419660568237305 2.627725839614868
33.905113220214844 -3.9346792697906494 1.0271307229995728
33.92948532104492 -4.148622035980225 1.0188641548156738
33.9139404296875 -4.358060359954834 1.013565182685852
33.94355010986328 -4.5737199783325195 1.0046684741973877
33.934261322021484 -4.784621238708496 0.99867182970047
33.9394416809082 -4.99790620803833 0.9914435148239136
12.859529495239258 -1.9756642580032349 2.629915475845337
13.029183387756348 -2.083604335784912 2.6139676570892334
33.99118423461914 -5.646548748016357 0.9662437438964844
33.992897033691406 -5.861374855041504 0.958828330039978
13.46719741821289 -2.408578872680664 2.5710320472717285
33.99420166015625 -6.292086124420166 0.9438213109970093
34.01533126831055 -6.512101650238037 0.9345212578773499
12.598649024963379 -2.493511199951172 2.631087303161621
33.93413162231445 -6.9292893409729 0.9253937602043152
33.9033203125 -7.139975070953369 0.9198991656303406
33.89750289916992 -7.356253147125244 0.9122920632362366
33.94089889526367 -7.584031581878662 0.9006059765815735
33.98666000366211 -7.81351375579834 0.8885861039161682
34.04542541503906 -8.047282218933105 0.8753677010536194
34.052223205566406 -8.269837379455566 0.8662193417549133
34.045955657958984 -8.489885330200195 0.8580071926116943
34.079795837402344 -8.720794677734375 0.8463913798332214
34.08893585205078 -8.946367263793945 0.8366572856903076
34.10525131225586 -9.174712181091309 0.8261986374855042
34.10659408569336 -9.399887084960938 0.8168377876281738
34.101646423339844 -9.624073028564453 0.807864785194397
34.11055374145508 -9.852977752685547 0.7976087927818298
34.125579833984375 -10.084615707397461 0.7867029309272766
34.10374069213867 -10.30614185333252 0.7787396907806396
34.177608489990234 -10.557785034179688 0.762610673904419
34.1431999206543 -10.77712345123291 0.7554265856742859
34.14722442626953 -11.009284019470215 0.7448706030845642
34.15157699584961 -11.242523193359375 0.7341423630714417
34.1741943359375 -11.482897758483887 0.7217108607292175
34.15742111206055 -11.711045265197754 0.7124872207641602
34.179588317871094 -11.953566551208496 0.6997855305671692
34.14466857910156 -12.177051544189453 0.6918371319770813
34.118595123291016 -12.404306411743164 0.6829963326454163
34.24616241455078 -12.689176559448242 0.6606816649436951
34.27452850341797 -12.939473152160645 0.6467717289924622
34.27040481567383 -13.178791999816895 0.635528028011322
34.30546569824219 -13.434536933898926 0.6206856966018677
34.31645202636719 -13.682351112365723 0.6077808737754822
34.321983337402344 -13.92930793762207 0.5951873660087585
34.336830139160156 -14.181411743164062 0.5815964341163635
34.33516311645508 -14.428048133850098 0.5692999362945557
34.34000778198242 -14.678720474243164 0.556252121925354
34.33666229248047 -14.927217483520508 0.5437641143798828
29.4840030670166 -13.033681869506836 0.9693129658699036
34.41194152832031 -15.464947700500488 0.5108287930488586
34.3994255065918 -15.713822364807129 0.49862125515937805
34.399600982666016 -15.969839096069336 0.48507827520370483
34.39792251586914 -16.226449966430664 0.4715200364589691
34.41685485839844 -16.494407653808594 0.4558722972869873
34.427513122558594 -16.760156631469727 0.44078582525253296
34.42011642456055 -17.018707275390625 0.4271783232688904
34.42597579956055 -17.285398483276367 0.41214069724082947
34.364158630371094 -17.51931381225586 0.4032611548900604
34.317569732666016 -17.761823654174805 0.39279431104660034
34.433387756347656 -18.090618133544922 0.3667547404766083
34.34508514404297 -18.31414031982422 0.3598615825176239
34.38328170776367 -18.606494903564453 0.34072089195251465
30.8004093170166 -16.913131713867188 0.6697784662246704
30.795801162719727 -17.157501220703125 0.6559516191482544
34.573360443115234 -19.54093360900879 0.2744519114494324
34.51377868652344 -19.787813186645508 0.26379966735839844
34.52137756347656 -20.074766159057617 0.24638302624225616
34.509578704833984 -20.352434158325195 0.2306390106678009
34.5743408203125 -20.677762985229492 0.20708252489566803
34.391868591308594 -20.856374740600586 0.20784567296504974
34.472496032714844 -21.19582748413086 0.1822083443403244
34.43269729614258 -21.463788986206055 0.16835880279541016
34.51809310913086 -21.812427520751953 0.14163300395011902
34.60887908935547 -22.168289184570312 0.11401071399450302
30.368898391723633 -20.25110626220703 0.49526652693748474
30.271760940551758 -20.455961227416992 0.48823365569114685
29.81674575805664 -21.23345184326172 0.465782105922699
30.163846969604492 -21.760976791381836 0.4106205999851227
29.763925552368164 -21.751609802246094 0.43504613637924194
29.67275619506836 -21.965768814086914 0.426322877407074
29.61833953857422 -22.208311080932617 0.41344499588012695
29.593002319335938 -22.474510192871094 0.3971765637397766
29.558393478393555 -22.735767364501953 0.38167670369148254
