# .PCD v0.7 - Point Cloud Data file format
VERSION 0.7
FIELDS x y z
SIZE 4 4 4
TYPE F F F
COUNT 1 1 1
WIDTH 846
HEIGHT 1
VIEWPOINT 0 0 0 1 0 0 0
POINTS 846
DATA ascii
33.156158447265625 13.801547050476074 0.5906774997711182
33.17433166503906 13.571128845214844 0.592460036277771
33.21034240722656 13.348808288574219 0.5924684405326843
33.07620620727539 13.059951782226562 0.6079082489013672
33.11164855957031 12.83989143371582 0.6076831817626953
33.50226974487305 12.75568675994873 0.5748922228813171
33.66722869873047 12.582743644714355 0.5626148581504822
33.706905364990234 12.362619400024414 0.5616434216499329
33.71421432495117 12.131346702575684 0.563488245010376
33.7161979675293 11.899121284484863 0.5656801462173462
33.7147216796875 11.666675567626953 0.5680501461029053
33.74846649169922 11.447175979614258 0.5670839548110962
33.7514762878418 11.217957496643066 0.5687788128852844
33.75674057006836 10.990365028381348 0.5701363682746887
33.77946853637695 10.769181251525879 0.5697762966156006
33.795997619628906 10.546646118164062 0.5698492527008057
33.809165954589844 10.32373046875 0.5700963139533997
33.792236328125 10.09249210357666 0.5729408860206604
33.80052185058594 9.869669914245605 0.5733723640441895
33.81405258178711 9.649038314819336 0.5731991529464722
33.83287048339844 9.43048095703125 0.5724219679832458
33.84355163574219 9.210222244262695 0.5722541213035583
33.843177795410156 8.987629890441895 0.5729598999023438
33.8452033996582 8.766385078430176 0.5733219981193542
33.85835266113281 8.548623085021973 0.5725532174110413
33.87590408325195 8.332454681396484 0.5712621212005615
33.89305114746094 8.116622924804688 0.5698839426040649
33.89621353149414 7.897952556610107 0.5696454644203186
33.894081115722656 7.678667068481445 0.5697633028030396
33.91875076293945 7.46591329574585 0.5673344135284424
33.92942428588867 7.250437259674072 0.5660489797592163
33.93287658691406 7.033895492553711 0.565294086933136
33.93690872192383 6.81797456741333 0.5643651485443115
33.9454345703125 6.603408336639404 0.5629084706306458
33.94868850708008 6.3882551193237305 0.5618076324462891
33.95842361450195 6.174734115600586 0.5600000619888306
33.96583557128906 5.961158752441406 0.5582818984985352
33.967979431152344 5.747057914733887 0.5569202899932861
33.98646926879883 5.536036968231201 0.5539577603340149
33.99380874633789 5.323461055755615 0.551885724067688
33.991943359375 5.109816551208496 0.5505288243293762
34.01337814331055 4.899943828582764 0.5469382405281067
34.02167892456055 4.688366889953613 0.5444193482398987
34.03459167480469 4.477649211883545 0.5413622260093689
34.049163818359375 4.2673187255859375 0.5380343198776245
34.06144332885742 4.056858539581299 0.534794270992279
33.644901275634766 3.798126459121704 0.5704813003540039
33.46712875366211 3.570338249206543 0.5843488574028015
33.475128173828125 3.3636975288391113 0.5811850428581238
33.50069046020508 3.158867597579956 0.5762997269630432
33.5339241027832 2.9546356201171875 0.5705938935279846
33.56591033935547 2.750112295150757 0.5648799538612366
33.543025970458984 2.541240692138672 0.5640662908554077
33.620174407958984 2.3398070335388184 0.5539753437042236
33.583805084228516 2.130391836166382 0.554164469242096
15.747081756591797 0.9013203382492065 2.188385248184204
15.782959938049316 0.8062922954559326 2.183504343032837
15.787425994873047 0.7094686031341553 2.1814510822296143
15.782340049743652 0.6122711300849915 2.1802217960357666
15.798554420471191 0.5158783197402954 2.176974058151245
15.82114315032959 0.4194939136505127 2.173078775405884
15.832196235656738 0.322626531124115 2.170189142227173
15.811785697937012 0.22519631683826447 2.170153856277466
33.71033477783203 0.27474015951156616 0.5088684558868408
33.71895217895508 0.06798151880502701 0.5037336349487305
33.71434783935547 -0.1388261765241623 0.4997044801712036
33.71246337890625 -0.34561797976493835 0.49530497193336487
12.941150665283203 -0.2128414809703827 2.4273672103881836
11.952990531921387 -0.27003350853919983 2.5177977085113525
12.159971237182617 -0.34932741522789 2.496687889099121
12.86990737915039 -0.44867488741874695 2.4283552169799805
33.78445053100586 -1.3832985162734985 0.4638619124889374
33.72221374511719 -1.588016390800476 0.46439769864082336
13.161252975463867 -0.7014859914779663 2.394850492477417
12.826587677001953 -0.7626147866249084 2.424248695373535
12.803632736206055 -0.8401036262512207 2.4242591857910156
33.82935333251953 -2.4261322021484375 0.4318045377731323
12.735480308532715 -0.9927000999450684 2.4262709617614746
12.901616096496582 -1.0853012800216675 2.408200979232788
33.845157623291016 -3.0542619228363037 0.41209179162979126
12.50749397277832 -1.2069016695022583 2.441018581390381
33.89542007446289 -3.4785609245300293 0.394507497549057
33.90171813964844 -3.6895217895507812 0.3873094320297241
33.900779724121094 -3.9000113010406494 0.3806758522987366
33.90544891357422 -4.111469268798828 0.37337207794189453
33.90483856201172 -4.322629451751709 0.36644262075424194
33.924625396728516 -4.536841869354248 0.3574119210243225
33.93614959716797 -4.750495910644531 0.34903889894485474
33.95322036743164 -4.965473175048828 0.3399878740310669
33.96204376220703 -5.179790019989014 0.33159738779067993
33.965576171875 -5.393779754638672 0.32358187437057495
33.98347854614258 -5.6106038093566895 0.3140246570110321
33.98232650756836 -5.824826240539551 0.30618566274642944
29.25617790222168 -5.199889183044434 0.7620437741279602
13.28571605682373 -2.446239709854126 2.326589584350586
34.0333366394043 -6.480569839477539 0.27645906805992126
34.01008987426758 -6.69265604019165 0.2702305018901825
33.94747543334961 -6.896975994110107 0.267773300409317
33.90311813354492 -7.104864597320557 0.26338857412338257
33.95477294921875 -7.333479404449463 0.24931100010871887
33.970890045166016 -7.555434703826904 0.23861035704612732
34.02048110961914 -7.785858631134033 0.22439692914485931
34.02976608276367 -8.00805950164795 0.2140575498342514
34.028892517089844 -8.228564262390137 0.20458441972732544
34.00437927246094 -8.44384479522705 0.19734875857830048
34.102909088134766 -8.690835952758789 0.17750178277492523
34.110130310058594 -8.915953636169434 0.1667221635580063
34.09760284423828 -9.136595726013184 0.1577942669391632
34.113399505615234 -9.365586280822754 0.14581802487373352
34.06635284423828 -9.577880859375 0.1401168406009674
34.12126541137695 -9.819674491882324 0.12379343062639236
34.083797454833984 -10.035802841186523 0.11680416017770767
34.082122802734375 -10.26303482055664 0.10596805810928345
29.589889526367188 -12.829742431640625 0.35978156328201294
29.480167388916016 -12.997750282287598 0.35916024446487427
33.36714553833008 -19.088333129882812 -0.3526270389556885
33.34526443481445 -19.34853744506836 -0.36869168281555176
33.29657745361328 -19.59456443786621 -0.38177064061164856
33.182918548583984 -19.803009033203125 -0.3871954381465912
20.395219802856445 -13.573068618774414 1.0619573593139648
19.963275909423828 -13.463261604309082 1.1033039093017578
19.760101318359375 -13.503535270690918 1.1158740520477295
19.577632904052734 -13.555980682373047 1.1258679628372192
19.514949798583984 -13.690651893615723 1.1204843521118164
19.465131759643555 -13.834859848022461 1.1133198738098145
19.44817352294922 -14.003376007080078 1.1017426252365112
19.476810455322266 -14.576298713684082 1.055367112159729
19.388282775878906 -14.696685791015625 1.0525039434432983
19.301372528076172 -14.818351745605469 1.0493345260620117
19.211204528808594 -15.127814292907715 1.0313823223114014
19.43724822998047 -15.500151634216309 0.9852158427238464
28.894859313964844 -23.627853393554688 -0.3509023189544678
28.777957916259766 -23.8287296295166 -0.35889050364494324
28.742734909057617 -24.098691940307617 -0.3784628212451935
28.733318328857422 -24.392929077148438 -0.4019877314567566
28.70477294921875 -24.673694610595703 -0.42318788170814514
28.66860580444336 -24.950458526611328 -0.44365620613098145
28.513734817504883 -25.125164031982422 -0.447480171918869
20.91307258605957 -18.657609939575195 0.621214747428894
20.746923446655273 -18.73954200744629 0.6257264614105225
20.288528442382812 -18.553112030029297 0.6728878617286682
20.102449417114258 -18.611005783081055 0.6806041598320007
19.87580680847168 -18.629247665405273 0.6943627595901489
19.696582794189453 -18.689897537231445 0.7011852860450745
19.54461669921875 -18.775224685668945 0.7039551138877869
15.514164924621582 14.434033393859863 1.848734974861145
13.093267440795898 11.595855712890625 2.1540775299072266
13.111473083496094 11.469400405883789 2.1583664417266846
13.130132675170898 11.344461441040039 2.162489414215088
13.168976783752441 11.237837791442871 2.1642465591430664
13.212340354919434 11.135660171508789 2.1654088497161865
13.256478309631348 11.034646987915039 2.166398286819458
13.2706298828125 10.909464836120605 2.170609474182129
13.312368392944336 10.807765007019043 2.171680450439453
13.34869384765625 10.702220916748047 2.1732585430145264
13.391257286071777 10.602206230163574 2.1740684509277344
13.430743217468262 10.500229835510254 2.175130605697632
13.456865310668945 10.388423919677734 2.177555561065674
13.501139640808105 10.291192054748535 2.1779301166534424
13.535176277160645 10.186615943908691 2.1793272495269775
13.568438529968262 10.082009315490723 2.180722713470459
13.60253620147705 9.978556632995605 2.1819450855255127
13.640716552734375 9.878570556640625 2.182650566101074
13.685478210449219 9.783706665039062 2.182579517364502
13.705170631408691 9.671429634094238 2.1850852966308594
13.744439125061035 9.573516845703125 2.185438871383667
13.783843994140625 9.476049423217773 2.1857028007507324
13.826693534851074 9.381256103515625 2.1855311393737793
13.872210502624512 9.288511276245117 2.185009241104126
13.895501136779785 9.18127727508545 2.1867332458496094
13.9371919631958 9.08662223815918 2.1864638328552246
13.974056243896484 8.989107131958008 2.186624050140381
14.01445484161377 8.894149780273438 2.1863465309143066
14.055059432983398 8.79956340789795 2.1859776973724365
14.09503173828125 8.704811096191406 2.1856045722961426
14.139474868774414 8.613009452819824 2.184704065322876
14.191862106323242 8.526121139526367 2.18292498588562
14.250570297241211 8.442975997924805 2.180438756942749
14.324272155761719 8.368475914001465 2.176367998123169
14.416833877563477 8.187211036682129 2.173628091812134
14.503973960876465 8.119556427001953 2.168031692504883
14.654487609863281 8.086277961730957 2.1559970378875732
15.090392112731934 8.206629753112793 2.1152167320251465
15.801331520080566 8.468292236328125 2.046905040740967
27.804929733276367 14.684319496154785 0.8466972708702087
27.700618743896484 14.412797927856445 0.8625430464744568
27.724332809448242 14.209903717041016 0.8654126524925232
27.82663345336914 14.047666549682617 0.8603082299232483
28.641029357910156 13.804028511047363 0.7940036058425903
32.326927185058594 15.337346076965332 0.4337584376335144
32.75299835205078 15.294295310974121 0.3967427909374237
33.010498046875 15.168808937072754 0.37633076310157776
33.13245391845703 14.979589462280273 0.369188129901886
33.10318374633789 14.722652435302734 0.3767993450164795
33.07292175292969 14.467036247253418 0.38433822989463806
33.12769317626953 14.249734878540039 0.3833659589290619
33.12050247192383 14.006699562072754 0.3883216381072998
33.14836883544922 13.779580116271973 0.3896873891353607
33.17101287841797 13.55113697052002 0.39141610264778137
33.19763946533203 13.325160026550293 0.3926057815551758
33.07081604003906 13.039445877075195 0.40861809253692627
33.113548278808594 12.822327613830566 0.4079306721687317
33.49555969238281 12.734724044799805 0.37408292293548584
33.662200927734375 12.56246566772461 0.36110055446624756
33.697998046875 12.34102725982666 0.3607109487056732
33.7164192199707 12.113896369934082 0.36186546087265015
33.704200744628906 11.876738548278809 0.365847110748291
33.711063385009766 11.647342681884766 0.36783236265182495
33.72392654418945 11.42086124420166 0.36909306049346924
33.747562408447266 11.198737144470215 0.36916908621788025
33.75080871582031 10.97059440612793 0.37107789516448975
33.75727462768555 10.744340896606445 0.3725336194038391
33.7726936340332 10.521677017211914 0.372984379529953
33.77808380126953 10.296612739562988 0.3742656111717224
33.78007125854492 10.071308135986328 0.3757363557815552
33.82550811767578 9.85946273803711 0.37288030982017517
33.79970169067383 9.627520561218262 0.37675583362579346
33.81454086303711 9.40800952911377 0.37657806277275085
33.82795715332031 9.188676834106445 0.3764018714427948
33.831298828125 8.96723461151123 0.3770620822906494
33.82933807373047 8.745098114013672 0.37809816002845764
33.84427261352539 8.527944564819336 0.3773745000362396
33.86749267578125 8.313308715820312 0.37572160363197327
33.87772750854492 8.095929145812988 0.375185489654541
33.88269805908203 7.877832889556885 0.3750247657299042
33.897918701171875 7.662611961364746 0.37374618649482727
33.900108337402344 7.444935321807861 0.37359124422073364
33.9125862121582 7.230010032653809 0.37231528759002686
33.91493606567383 7.013394355773926 0.37188518047332764
33.925662994384766 6.798975944519043 0.37051841616630554
33.922332763671875 6.5822224617004395 0.3703755736351013
33.92251205444336 6.3666815757751465 0.3697666525840759
33.947776794433594 6.156181335449219 0.3666141629219055
33.95702362060547 5.943032741546631 0.36487582325935364
33.966896057128906 5.730331897735596 0.3629491329193115
33.9793701171875 5.518369674682617 0.360643595457077
33.983642578125 5.305391788482666 0.35900139808654785
33.979679107666016 5.091534614562988 0.3580246567726135
33.99408721923828 4.8807525634765625 0.35515138506889343
34.00324249267578 4.669442176818848 0.35265621542930603
34.01503372192383 4.4587178230285645 0.3497806489467621
34.02946472167969 4.248515605926514 0.3465220630168915
34.05149841308594 4.039357662200928 0.3424013555049896
32.58353805541992 3.662649393081665 0.48228004574775696
32.7584114074707 3.4790267944335938 0.46320605278015137
32.37660598754883 3.2377920150756836 0.49791067838668823
32.78889465332031 3.076077938079834 0.4555717408657074
32.80276870727539 2.8745553493499756 0.45170214772224426
32.604103088378906 2.6557505130767822 0.4683472812175751
33.00149154663086 2.484509229660034 0.42697831988334656
32.64532470703125 2.256418228149414 0.4587176740169525
32.91144943237305 2.07210373878479 0.42981407046318054
15.741162300109863 0.8930965065956116 2.1000287532806396
15.77795696258545 0.7981414794921875 2.094878911972046
15.786337852478027 0.7015265822410583 2.092437744140625
15.783186912536621 0.6044173240661621 2.091064214706421
15.80530071258545 0.5082069635391235 2.0871596336364746
15.817873001098633 0.41151267290115356 2.0841267108917236
15.826869010925293 0.3146224021911621 2.0813827514648438
15.81039047241211 0.21729087829589844 2.0810799598693848
32.74800491333008 0.25140172243118286 0.4132370948791504
32.74950408935547 0.05053293704986572 0.408867746591568
32.77864074707031 -0.15047800540924072 0.4016512930393219
12.526331901550293 -0.13562294840812683 2.3971126079559326
12.498242378234863 -0.2120017558336258 2.3981339931488037
12.548284530639648 -0.2898445129394531 2.391378164291382
12.830596923828125 -0.37507668137550354 2.361522912979126
12.852755546569824 -0.45464393496513367 2.3573763370513916
12.870443344116211 -0.5343335866928101 2.353618860244751
32.8622932434082 -1.5630899667739868 0.35940486192703247
13.084177017211914 -0.7040640115737915 2.3281357288360596
12.854965209960938 -0.7708795666694641 2.3488669395446777
12.8140869140625 -0.8473554253578186 2.3507635593414307
12.562356948852539 -0.9081840515136719 2.3737778663635254
12.782563209533691 -1.0029292106628418 2.3494009971618652
12.223755836486816 -1.0346637964248657 2.403329372406006
13.573604583740234 -1.2326024770736694 2.264885187149048
33.14869689941406 -3.2123501300811768 0.2839791178703308
33.1724739074707 -3.420201539993286 0.27511975169181824
33.20879364013672 -3.6299805641174316 0.264845073223114
33.19732666015625 -3.834972620010376 0.2592792212963104
33.24681091308594 -4.047534465789795 0.24737299978733063
33.065982818603516 -4.231564044952393 0.258820116519928
33.875152587890625 -4.546474456787109 0.16893945634365082
33.91218566894531 -4.763434886932373 0.15771862864494324
33.93700408935547 -4.979435443878174 0.14759501814842224
33.90438461303711 -5.187348365783691 0.1432306319475174
33.785011291503906 -5.381442070007324 0.14768920838832855
33.7607307434082 -5.5901899337768555 0.14222534000873566
33.85183334350586 -5.8188934326171875 0.12466662377119064
29.22368049621582 -5.208444118499756 0.597314178943634
33.75938034057617 -6.230465888977051 0.11758199334144592
33.69075393676758 -6.431821346282959 0.11619013547897339
33.757568359375 -6.659518718719482 0.10050864517688751
29.433021545410156 -12.993844985961914 0.18179582059383392
20.54353141784668 -13.325104713439941 0.9303534030914307
20.52750015258789 -13.494529724121094 0.9187823534011841
20.459701538085938 -13.630647659301758 0.9139117002487183
19.481395721435547 -13.503742218017578 1.0032497644424438
19.410053253173828 -13.631542205810547 0.9989490509033203
19.92360496520996 -14.360776901245117 0.8999707102775574
19.54144859313965 -14.453401565551758 0.9228339791297913
19.469568252563477 -14.586091041564941 0.9177328944206238
19.376996994018555 -14.703428268432617 0.9154148697853088
19.290027618408203 -14.825024604797363 0.9122188687324524
19.312467575073242 -15.611709594726562 0.844954788684845
19.300565719604492 -15.799099922180176 0.8300269246101379
27.64371681213379 -22.912609100341797 -0.4062742590904236
27.480043411254883 -23.063199996948242 -0.40680935978889465
27.158056259155273 -23.078813552856445 -0.38401806354522705
26.952926635742188 -23.19115447998047 -0.37842974066734314
26.755685806274414 -23.30903434753418 -0.3740411698818207
26.634033203125 -23.492414474487305 -0.3810798227787018
20.808504104614258 -18.58311653137207 0.47705647349357605
20.529335021972656 -18.561790466308594 0.4992985725402832
20.29667091369629 -18.579345703125 0.5146152973175049
20.047807693481445 -18.57921600341797 0.5325717329978943
19.854793548583984 -18.628402709960938 0.5420020818710327
19.66697883605957 -18.68071937561035 0.5506778359413147
19.46065330505371 -18.713531494140625 0.5623270869255066
15.497553825378418 14.44848918914795 1.718920111656189
12.965667724609375 11.794538497924805 2.0465962886810303
12.998311996459961 11.679513931274414 2.0497803688049316
13.031525611877441 11.565855979919434 2.052783489227295
13.078813552856445 11.46535873413086 2.05397629737854
13.108797073364258 11.350375175476074 2.0571579933166504
13.155271530151367 11.250341415405273 2.0582540035247803
13.192645072937012 11.143095970153809 2.060344696044922
13.220023155212402 11.02816104888916 2.063523769378662
13.267242431640625 10.930404663085938 2.0642476081848145
13.298310279846191 10.819913864135742 2.0667881965637207
13.333183288574219 10.71319580078125 2.0687813758850098
13.367249488830566 10.606456756591797 2.070772886276245
13.411483764648438 10.508301734924316 2.071484327316284
13.45029067993164 10.406344413757324 2.0727405548095703
13.480441093444824 10.298262596130371 2.074909210205078
13.51931381225586 10.197396278381348 2.0759780406951904
13.551865577697754 10.092278480529785 2.077685832977295
13.585244178771973 9.988324165344238 2.0792088508605957
13.621888160705566 9.887263298034668 2.080270290374756
13.658613204956055 9.786707878112793 2.0812370777130127
13.69543170928955 9.68664836883545 2.0821094512939453
13.733986854553223 9.588214874267578 2.082702159881592
13.765292167663574 9.485153198242188 2.0840303897857666
13.801614761352539 9.385987281799316 2.0847103595733643
13.839720726013184 9.288394927978516 2.0851094722747803
13.878808975219727 9.191787719726562 2.085320234298706
13.913066864013672 9.092327117919922 2.0859909057617188
13.952486038208008 8.996566772460938 2.0860092639923096
13.991254806518555 8.900666236877441 2.0860235691070557
14.027684211730957 8.803567886352539 2.0862202644348145
14.060065269470215 8.70426082611084 2.0867865085601807
14.09770393371582 8.608519554138184 2.086697578430176
14.142374992370605 8.517265319824219 2.085764169692993
14.18217658996582 8.423243522644043 2.0852928161621094
14.221357345581055 8.32905387878418 2.0848171710968018
14.259916305541992 8.234699249267578 2.084336996078491
14.302179336547852 8.142646789550781 2.083383560180664
14.338642120361328 8.047460556030273 2.0829885005950928
14.591394424438477 8.072127342224121 2.0591750144958496
14.84584903717041 8.094466209411621 2.0352089405059814
27.532390594482422 14.79296875 0.6751224398612976
27.533374786376953 14.576772689819336 0.6811739206314087
27.570703506469727 14.3809175491333 0.6831721067428589
27.59958267211914 14.181510925292969 0.6859275698661804
27.63949203491211 13.9885835647583 0.6873592138290405
27.686094284057617 13.799695014953613 0.6879369020462036
27.79486846923828 13.641901016235352 0.6817716360092163
27.921573638916016 13.49238395690918 0.6735924482345581
28.16254997253418 13.396554946899414 0.653210461139679
28.4349422454834 13.313045501708984 0.6294416785240173
32.689918518066406 15.061553001403809 0.18545813858509064
33.10401153564453 15.007073402404785 0.14731116592884064
33.09681701660156 14.75995922088623 0.15343277156352997
33.09968948364258 14.518693923950195 0.15832141041755676
33.10999298095703 14.281888961791992 0.1622600257396698
33.12139129638672 14.046669960021973 0.16591709852218628
33.160552978515625 13.824101448059082 0.16650651395320892
33.176124572753906 13.592522621154785 0.16940410435199738
33.21503829956055 13.371308326721191 0.1697062849998474
33.07477569580078 13.07984733581543 0.18851982057094574
33.10940933227539 12.859436988830566 0.1889389455318451
33.46995162963867 12.763925552368164 0.15533149242401123
33.620811462402344 12.585959434509277 0.14341621100902557
33.63340759277344 12.356165885925293 0.1457146257162094
33.65662384033203 12.131077766418457 0.14675678312778473
33.65676498413086 11.898537635803223 0.15003502368927002
33.66379165649414 11.669384956359863 0.15244576334953308
33.67398452758789 11.442192077636719 0.15437503159046173
33.68927001953125 11.217512130737305 0.155626118183136
33.70496368408203 10.993690490722656 0.15668554604053497
33.70874786376953 10.766763687133789 0.15882299840450287
33.720523834228516 10.543174743652344 0.1599869281053543
33.72987365722656 10.319551467895508 0.16125325858592987
33.73680114746094 10.09592342376709 0.16262154281139374
33.746070861816406 9.873714447021484 0.1636011004447937
33.76155090332031 9.65395736694336 0.16379784047603607
33.77080535888672 9.4330415725708 0.16448861360549927
33.78150939941406 9.21315860748291 0.16488710045814514
33.793670654296875 8.994264602661133 0.16499239206314087
33.77745056152344 8.768564224243164 0.16786794364452362
33.802181243896484 8.554142951965332 0.16639815270900726
33.81686019897461 8.33759880065918 0.1658184826374054
33.81273651123047 8.117015838623047 0.16702555119991302
33.82752990722656 7.901546001434326 0.16615359485149384
33.81767272949219 7.680909156799316 0.16766919195652008
33.838443756103516 7.467764377593994 0.1659041941165924
33.856903076171875 7.254443168640137 0.16423889994621277
33.868167877197266 7.039958477020264 0.1631718873977661
33.87223434448242 6.824426651000977 0.1627057045698166
33.88175964355469 6.6104416847229 0.16154101490974426
33.88505554199219 6.3956708908081055 0.16087929904460907
33.905582427978516 6.1844987869262695 0.15831269323825836
33.915977478027344 5.971759796142578 0.1566493958234787
33.91915512084961 5.758124351501465 0.15558932721614838
33.9268798828125 5.545635223388672 0.15392722189426422
33.93622589111328 5.333728313446045 0.15196414291858673
33.94719696044922 5.122358322143555 0.14969782531261444
33.945037841796875 4.9093427658081055 0.14864376187324524
33.95436096191406 4.698317527770996 0.14627711474895477
33.968284606933594 4.48814058303833 0.1433017998933792
33.982879638671875 4.2782158851623535 0.14012247323989868
33.944820404052734 4.062132835388184 0.1422244906425476
32.477046966552734 3.684641122817993 0.29135823249816895
32.41453552246094 3.476353406906128 0.29580849409103394
32.36256790161133 3.270169258117676 0.2990517318248749
32.363765716552734 3.0699167251586914 0.29669299721717834
32.348854064941406 2.868452310562134 0.2958686351776123
32.3445930480957 2.6682651042938232 0.29381948709487915
32.334136962890625 2.4678571224212646 0.29228562116622925
32.38494873046875 2.2720603942871094 0.2842879593372345
32.41075134277344 2.0742058753967285 0.2787439227104187
15.763323783874512 0.911973774433136 2.0008010864257812
15.783312797546387 0.8160400390625 1.9972060918807983
15.787813186645508 0.7192155718803406 1.9951531887054443
15.785757064819336 0.6221303343772888 1.9937186241149902
15.800002098083496 0.5256580710411072 1.9905261993408203
15.81464958190918 0.42906007170677185 1.9872262477874756
15.823736190795898 0.3321966230869293 1.9844404458999634
15.827254295349121 0.23516282439231873 1.9821709394454956
32.532588958740234 0.2834072709083557 0.2343934178352356
32.65660095214844 0.084175705909729 0.21724659204483032
32.593406677246094 -0.11590558290481567 0.2195511907339096
32.49816131591797 -0.3149121105670929 0.22510382533073425
32.422584533691406 -0.5130879282951355 0.2284872829914093
32.424354553222656 -0.7120771408081055 0.22362548112869263
32.42192077636719 -0.9110261797904968 0.219076007604599
32.414283752441406 -1.1098384857177734 0.21494382619857788
12.902780532836914 -0.5208144783973694 2.2711544036865234
32.52847671508789 -1.5134810209274292 0.19259469211101532
13.061908721923828 -0.687843382358551 2.2501001358032227
12.845820426940918 -0.7555051445960999 2.2708334922790527
12.863595008850098 -0.8357659578323364 2.2667253017425537
12.861027717590332 -0.9148624539375305 2.264724016189575
12.872846603393555 -0.995110034942627 2.2611355781555176
13.256752014160156 -1.1066516637802124 2.2177298069000244
11.997682571411133 -1.0756670236587524 2.34999418258667
12.815852165222168 -1.86668062210083 2.238100051879883
12.788254737854004 -1.9428631067276 2.238130807876587
29.247556686401367 -5.181260108947754 0.41265952587127686
19.61271858215332 -6.960580348968506 1.3042659759521484
19.48898696899414 -7.051663875579834 1.3112337589263916
19.416160583496094 -7.160407543182373 1.3120942115783691
19.34273338317871 -7.268524646759033 1.31296706199646
19.291915893554688 -7.384895324707031 1.3110588788986206
19.256135940551758 -7.507053375244141 1.3072547912597656
19.226972579956055 -7.631986141204834 1.3025572299957275
19.25043296813965 -7.778437614440918 1.2913565635681152
19.15334701538086 -7.8763322830200195 1.294735074043274
33.789886474609375 -17.424776077270508 -0.7262254357337952
20.649887084960938 -13.18424129486084 0.7806965112686157
20.330598831176758 -13.156841278076172 0.8109065294265747
20.061439514160156 -13.158169746398926 0.8343515992164612
19.82861328125 -13.180343627929688 0.852867841720581
19.593807220458984 -13.198497772216797 0.8717830181121826
19.457977294921875 -13.281466484069824 0.8767992854118347
19.3716983795166 -13.397733688354492 0.8747409582138062
19.36362075805664 -13.568732261657715 0.8613956570625305
19.33148956298828 -13.724037170410156 0.851304292678833
19.304630279541016 -13.884098052978516 0.840275228023529
19.30542755126953 -14.065401077270508 0.8250356316566467
19.294330596923828 -14.239568710327148 0.8113027811050415
19.303293228149414 -14.430185317993164 0.7944002747535706
19.289257049560547 -14.605259895324707 0.7806441187858582
19.2824649810791 -14.787353515625 0.7655888795852661
19.296117782592773 -14.986970901489258 0.7472357153892517
19.285400390625 -15.169503211975098 0.7322710156440735
19.295690536499023 -15.370412826538086 0.713886022567749
19.292638778686523 -15.562666893005371 0.6972487568855286
19.287946701049805 -15.75545883178711 0.680598258972168
19.296144485473633 -15.960806846618652 0.6616945266723633
19.305587768554688 -16.169395446777344 0.6423014402389526
19.3109130859375 -16.376773834228516 0.6232455968856812
19.413105010986328 -16.66956901550293 0.5886896848678589
20.845348358154297 -18.577791213989258 0.30203670263290405
20.547000885009766 -18.539655685424805 0.3287075459957123
20.293903350830078 -18.53875160217285 0.34831997752189636
20.039417266845703 -18.533424377441406 0.3683418035507202
19.842302322387695 -18.57861328125 0.3791409432888031
19.62881851196289 -18.60637664794922 0.3927140235900879
19.455148696899414 -18.670040130615234 0.39977777004241943
15.493850708007812 14.44542407989502 1.5814565420150757
12.905204772949219 11.884969711303711 1.9325189590454102
12.960718154907227 11.790188789367676 1.9331482648849487
14.34371566772461 12.88862133026123 1.7602423429489136
14.410361289978027 12.789831161499023 1.7600184679031372
14.478581428527832 12.692676544189453 1.7594956159591675
14.546902656555176 12.595816612243652 1.7588673830032349
13.126021385192871 11.225529670715332 1.9493176937103271
13.170853614807129 11.124900817871094 1.9507039785385132
13.220294952392578 11.028607368469238 1.9514051675796509
13.267515182495117 10.930859565734863 1.9522961378097534
13.302454948425293 10.823524475097656 1.9546449184417725
13.338907241821289 10.71804141998291 1.9566996097564697
13.358976364135742 10.600147247314453 1.9607056379318237
13.403953552246094 10.502664566040039 1.9614874124526978
13.437219619750977 10.396504402160645 1.9636354446411133
13.483133316040039 10.300599098205566 1.9641165733337402
13.508514404296875 10.18954086303711 1.967044711112976
13.548208236694336 10.089850425720215 1.9681082963943481
13.58077335357666 9.985340118408203 1.9699548482894897
13.613373756408691 9.881393432617188 1.971701741218567
13.653301239013672 9.783219337463379 1.9724621772766113
13.686848640441895 9.680904388427734 1.9739094972610474
13.734345436096191 9.588798522949219 1.9735788106918335
13.77385139465332 9.4913911819458 1.974131464958191
13.805274963378906 9.388822555541992 1.9755704402923584
13.843396186828613 9.291215896606445 1.9761171340942383
13.877521514892578 9.191296577453613 1.9770567417144775
13.91177749633789 9.091852188110352 1.977894902229309
13.947844505310059 8.993949890136719 1.9784324169158936
13.980716705322266 8.894343376159668 1.9792652130126953
14.024691581726074 8.802078247070312 1.9787029027938843
14.056217193603516 8.70227336883545 1.979529857635498
14.09044361114502 8.604486465454102 1.9799555540084839
14.135932922363281 8.513792991638184 1.978981375694275
14.173141479492188 8.418291091918945 1.9789005517959595
14.214860916137695 8.325669288635254 1.9782156944274902
14.250809669494629 8.229866981506348 1.978126883506775
14.291306495666504 8.13688850402832 1.9774329662322998
14.337271690368652 8.047131538391113 1.97603178024292
14.544600486755371 8.046704292297363 1.955938696861267
14.943750381469727 8.148344993591309 1.9137732982635498
15.873138427734375 8.529366493225098 1.81080162525177
27.474834442138672 14.547492980957031 0.4847889840602875
27.50581932067871 14.34879207611084 0.4878740906715393
27.49823570251465 14.131155967712402 0.4952034652233124
27.526308059692383 13.933022499084473 0.49829667806625366
27.475521087646484 13.69646167755127 0.5101996064186096
27.664005279541016 13.579410552978516 0.49476006627082825
27.771461486816406 13.421598434448242 0.4884129464626312
28.111589431762695 13.37409782409668 0.45563727617263794
28.432342529296875 13.313642501831055 0.4250212013721466
32.253849029541016 3.4613497257232666 0.10062283277511597
15.759421348571777 0.9124206304550171 1.898203730583191
15.774426460266113 0.8162556290626526 1.8950600624084473
19.282812118530273 0.760878324508667 1.5043396949768066
19.253068923950195 0.6414651870727539 1.5055639743804932
12.912999153137207 -0.6001749038696289 2.1836390495300293
13.035913467407227 -0.6860469579696655 2.1676580905914307
12.882471084594727 -0.7572490572929382 2.1827197074890137
12.8843412399292 -0.8367008566856384 2.1802499294281006
12.863913536071777 -0.9146554470062256 2.1802432537078857
12.825543403625488 -1.1495057344436646 2.177324056625366
12.81608772277832 -1.2279608249664307 2.1758668422698975
12.808128356933594 -1.3065459728240967 2.1741857528686523
12.811541557312012 -1.38636314868927 2.1711506843566895
12.798662185668945 -1.4644657373428345 2.1699204444885254
12.784317970275879 -1.542344570159912 2.168804883956909
12.74876594543457 -1.8564990758895874 2.1612954139709473
29.24740219116211 -5.179210662841797 0.2186223566532135
19.880617141723633 -6.509539604187012 1.166096568107605
19.47359848022461 -6.508898735046387 1.209084391593933
19.236549377441406 -6.56121826171875 1.2310371398925781
19.154361724853516 -6.664722919464111 1.233649492263794
19.13339614868164 -6.789385795593262 1.2285107374191284
19.11255645751953 -6.914381504058838 1.2232532501220703
19.099287033081055 -7.0424699783325195 1.2169333696365356
19.088878631591797 -7.172054290771484 1.2101380825042725
19.105419158935547 -7.31242561340332 1.1997932195663452
19.1866397857666 -7.478873252868652 1.1810376644134521
19.101322174072266 -7.581028938293457 1.1834512948989868
20.401065826416016 -8.242180824279785 1.0074678659439087
19.089813232421875 -7.849124431610107 1.167557954788208
19.10419273376465 -7.9925031661987305 1.1568111181259155
19.110214233398438 -8.133244514465332 1.1470037698745728
28.41712760925293 -16.2343807220459 -0.361115962266922
28.403230667114258 -16.458629608154297 -0.3771986663341522
28.414173126220703 -16.698911666870117 -0.3970569670200348
28.360132217407227 -16.90234375 -0.40794023871421814
28.161945343017578 -17.01949691772461 -0.3983878791332245
27.96254539489746 -17.13433837890625 -0.3886760175228119
27.836997985839844 -17.293472290039062 -0.38965147733688354
27.713912963867188 -17.453828811645508 -0.39109745621681213
20.52161979675293 -13.101058006286621 0.6391307711601257
20.220495223999023 -13.084332466125488 0.6686185002326965
19.94028091430664 -13.077476501464844 0.695240318775177
19.71796226501465 -13.105588912963867 0.713476836681366
19.532278060913086 -13.155865669250488 0.7263689637184143
19.408205032348633 -13.246322631835938 0.7300990223884583
19.317228317260742 -13.35890007019043 0.7288163900375366
19.2686767578125 -13.501044273376465 0.7210330963134766
19.236907958984375 -13.655733108520508 0.7105443477630615
19.233774185180664 -13.83198070526123 0.6954963803291321
19.2340087890625 -14.012207984924316 0.6796975135803223
19.234344482421875 -14.194137573242188 0.6636387705802917
19.233957290649414 -14.377192497253418 0.647443413734436
19.229671478271484 -14.558979988098145 0.6316052079200745
19.229381561279297 -14.745481491088867 0.6148888468742371
19.236141204833984 -14.93922233581543 0.5967976450920105
19.247480392456055 -15.138507843017578 0.5777002573013306
19.230695724487305 -15.317474365234375 0.5628005266189575
19.23560905456543 -15.515493392944336 0.5441684722900391
19.258785247802734 -15.730467796325684 0.5222925543785095
19.25174903869629 -15.922910690307617 0.504993736743927
19.23621940612793 -16.110126495361328 0.4888017475605011
19.237276077270508 -16.313148498535156 0.4696115553379059
19.269678115844727 -16.54523277282715 0.4449228346347809
20.87104606628418 -18.599328994750977 0.11489902436733246
20.555734634399414 -18.546205520629883 0.14603734016418457
20.32391929626465 -18.564865112304688 0.1632324457168579
20.079544067382812 -18.56926155090332 0.18272729218006134
19.854724884033203 -18.58899688720703 0.19901326298713684
19.637624740600586 -18.613502502441406 0.21409019827842712
19.454626083374023 -18.668336868286133 0.22330963611602783
12.857337951660156 11.983036041259766 1.825762391090393
12.942815780639648 11.915406227111816 1.8224345445632935
12.940375328063965 11.767532348632812 1.8312959671020508
12.914411544799805 11.600196838378906 1.843245506286621
14.383131980895996 12.761290550231934 1.6486258506774902
14.472112655639648 12.68266773223877 1.6453040838241577
13.104706764221191 11.34304428100586 1.8412047624588013
13.119382858276367 11.215914726257324 1.846997857093811
13.167192459106445 11.117910385131836 1.8481550216674805
13.215059280395508 11.020377159118652 1.8492050170898438
13.25378131866455 10.915719032287598 1.8513864278793335
13.283230781555176 10.804095268249512 1.8547027111053467
13.31413745880127 10.694389343261719 1.85770845413208
13.353550910949707 10.59212875366211 1.8594708442687988
13.390646934509277 10.488558769226074 1.8614379167556763
13.430122375488281 10.38736629486084 1.862987756729126
13.464910507202148 10.283064842224121 1.8650537729263306
13.498132705688477 10.178128242492676 1.8672220706939697
13.532967567443848 10.074952125549316 1.8690768480300903
13.576662063598633 9.978799819946289 1.8696794509887695
13.60359001159668 9.870805740356445 1.8723632097244263
13.645874977111816 9.774442672729492 1.8729597330093384
13.685054779052734 9.676206588745117 1.8738654851913452
13.722728729248047 9.577287673950195 1.8748725652694702
13.762980461120605 9.480527877807617 1.8754578828811646
13.794339179992676 9.37804126739502 1.8770869970321655
13.828263282775879 9.277742385864258 1.8782953023910522
13.865621566772461 9.18012523651123 1.8789763450622559
13.90646743774414 9.08511734008789 1.8791286945343018
13.929118156433105 8.978635787963867 1.881485939025879
13.978676795959473 8.88983154296875 1.8803688287734985
14.036093711853027 8.806039810180664 1.8781911134719849
14.035511016845703 8.68628978729248 1.883178949356079
14.092554092407227 8.602630615234375 1.880886197090149
14.126096725463867 8.504746437072754 1.8814388513565063
14.168375015258789 8.412360191345215 1.8808245658874512
14.207476615905762 8.318265914916992 1.8805232048034668
14.24595832824707 8.224006652832031 1.8802175521850586
14.280362129211426 8.127619743347168 1.880332350730896
14.330595970153809 8.040366172790527 1.878424882888794
14.482966423034668 8.009589195251465 1.863958716392517
15.010890007019043 8.181890487670898 1.8036748170852661
27.433612823486328 14.736817359924316 0.2961367070674896
27.468584060668945 14.539434432983398 0.29928523302078247
27.50657844543457 14.344474792480469 0.3019002377986908
27.483081817626953 14.118698120117188 0.3117857277393341
27.545682907104492 13.938193321228027 0.3110904097557068
27.517227172851562 13.71265697479248 0.3212100863456726
27.60664939880371 13.5466890335083 0.316973477602005
27.734458923339844 13.399168014526367 0.30799946188926697
27.94050407409668 13.288165092468262 0.28954261541366577
28.25246810913086 13.224873542785645 0.25834599137306213
28.711877822875977 13.226053237915039 0.20952214300632477
44.90385437011719 8.188719749450684 -1.5412358045578003
19.276891708374023 0.7580745220184326 1.3890712261199951
19.253095626831055 0.638900637626648 1.3898028135299683
12.898964881896973 -0.6808291077613831 2.105423927307129
12.862627983093262 -0.7580658793449402 2.10750150680542
12.857542037963867 -0.8369448781013489 2.1058175563812256
12.731914520263672 -1.3007571697235107 2.1059162616729736
12.723501205444336 -1.3788241147994995 2.104245185852051
12.666794776916504 -1.5301553010940552 2.1055448055267334
12.637276649475098 -1.6053178310394287 2.1062629222869873
12.631916999816895 -1.6834536790847778 2.104005813598633
12.63099193572998 -1.7622709274291992 2.10115122795105
12.640379905700684 -1.8427155017852783 2.096980333328247
12.542266845703125 -1.907085657119751 2.105844259262085
20.123653411865234 -6.455564498901367 1.0162650346755981
20.13426399230957 -6.595548629760742 1.006944179534912
19.10348892211914 -6.518720626831055 1.1260277032852173
19.064693450927734 -6.636420249938965 1.1232390403747559
19.03171730041504 -6.756213665008545 1.1195886135101318
20.121448516845703 -7.282386779785156 0.9670092463493347
19.234233856201172 -7.364718914031982 1.0592303276062012
19.119028091430664 -7.4555182456970215 1.0659794807434082
20.314777374267578 -8.50214958190918 0.8670325875282288
19.02276611328125 -8.237441062927246 1.0242668390274048
19.059619903564453 -8.392738342285156 1.009592056274414
19.07444953918457 -8.539475440979004 0.9977787137031555
28.310022354125977 -13.731765747070312 -0.354698121547699
28.28969955444336 -13.937143325805664 -0.36768707633018494
28.288326263427734 -14.152999877929688 -0.3835811913013458
28.228755950927734 -14.340611457824707 -0.3914164900779724
28.194395065307617 -14.541666984558105 -0.4030359089374542
28.10501480102539 -14.714777946472168 -0.40695181488990784
27.637025833129883 -14.686726570129395 -0.35634008049964905
27.510971069335938 -14.83712387084961 -0.35499319434165955
27.39890480041504 -14.994625091552734 -0.35578101873397827
27.285076141357422 -15.15083122253418 -0.3564256727695465
20.504446029663086 -13.094133377075195 0.4947192668914795
20.205190658569336 -13.078462600708008 0.5255085229873657
19.92847442626953 -13.073763847351074 0.553032636642456
19.70462417602539 -13.100760459899902 0.5725347995758057
19.51081085205078 -13.145454406738281 0.5874614119529724
19.334402084350586 -13.20001220703125 0.5997276902198792
19.261642456054688 -13.324551582336426 0.595689594745636
19.22381591796875 -13.473737716674805 0.5859923958778381
19.227733612060547 -13.653390884399414 0.5694614052772522
19.21647834777832 -13.823753356933594 0.5551100969314575
19.216672897338867 -14.003837585449219 0.5386834144592285
19.21217918395996 -14.182085990905762 0.522760272026062
19.200658798217773 -14.356653213500977 0.50773024559021
19.21063804626465 -14.548970222473145 0.48893651366233826
19.220542907714844 -14.743158340454102 0.4698677361011505
19.22330093383789 -14.933754920959473 0.4516901969909668
19.239240646362305 -15.136589050292969 0.43103229999542236
19.22626495361328 -15.318554878234863 0.4149012267589569
19.231836318969727 -15.517119407653809 0.39538031816482544
19.242597579956055 -15.721970558166504 0.37467315793037415
19.212596893310547 -15.895307540893555 0.3605872690677643
19.286836624145508 -16.157365798950195 0.3283855617046356
19.22095489501953 -16.304208755493164 0.31987854838371277
19.27208137512207 -16.552265167236328 0.2908877730369568
19.26476287841797 -16.752769470214844 0.27166202664375305
12.827343940734863 12.098400115966797 1.7188303470611572
12.890166282653809 12.009333610534668 1.7188702821731567
13.862285614013672 12.757501602172852 1.584322214126587
13.911336898803711 12.646158218383789 1.5868334770202637
14.083062171936035 12.645622253417969 1.571244239807129
14.305121421813965 12.687651634216309 1.5483540296554565
13.07547378540039 11.454509735107422 1.7363269329071045
13.128717422485352 11.359786987304688 1.7370985746383667
13.118573188781738 11.211231231689453 1.7468892335891724
13.161794662475586 11.109396934509277 1.7488545179367065
13.202735900878906 11.006182670593262 1.751034140586853
13.250579833984375 10.909201622009277 1.7521206140518188
13.272283554077148 10.791350364685059 1.7568035125732422
13.31396770477295 10.690447807312012 1.7585396766662598
13.338561058044434 10.576469421386719 1.7625681161880493
13.378691673278809 10.475460052490234 1.7642996311187744
13.415730476379395 10.372532844543457 1.7663568258285522
13.467018127441406 10.281005859375 1.7663295269012451
13.498641967773438 10.174877166748047 1.7689287662506104
13.52389144897461 10.064593315124512 1.772295594215393
13.569923400878906 9.970273971557617 1.7726961374282837
13.593585968017578 9.860007286071777 1.7760612964630127
13.643881797790527 9.769502639770508 1.775683879852295
13.674102783203125 9.664979934692383 1.7779453992843628
13.713336944580078 9.567279815673828 1.7788821458816528
13.75516128540039 9.471715927124023 1.7793740034103394
13.782357215881348 9.366497993469238 1.7817399501800537
13.816211700439453 9.266286849975586 1.7831101417541504
13.85598373413086 9.17039966583252 1.7835923433303833
13.886780738830566 9.068937301635742 1.785178780555725
13.90933895111084 8.962594985961914 1.7877616882324219
13.95962905883789 8.874448776245117 1.7865701913833618
14.0026273727417 8.7817964553833 1.7862613201141357
14.054308891296387 8.694701194763184 1.7847238779067993
14.072367668151855 8.587108612060547 1.7875211238861084
14.10070514678955 8.486284255981445 1.788871169090271
14.156536102294922 8.402175903320312 1.7865382432937622
14.199858665466309 8.31067180633545 1.7857601642608643
14.226239204406738 8.209510803222656 1.7871004343032837
14.266596794128418 8.116694450378418 1.786537528038025
14.318483352661133 8.030497550964355 1.7844021320343018
14.411590576171875 7.967049598693848 1.7768783569335938
15.906671524047852 8.540992736816406 1.5937535762786865
27.461904525756836 14.531044960021973 0.11919889599084854
27.486637115478516 14.329259872436523 0.12382934242486954
27.517887115478516 14.13180160522461 0.12744921445846558
27.55484390258789 13.93808650970459 0.13016846776008606
27.545106887817383 13.721850395202637 0.1386437565088272
27.597984313964844 13.537765502929688 0.13899637758731842
27.70869255065918 13.382068634033203 0.13187964260578156
19.264707565307617 0.7549577951431274 1.2778894901275635
19.244863510131836 0.6359944939613342 1.278296947479248
19.317556381225586 0.5198209881782532 1.2672796249389648
12.876930236816406 -0.6816964149475098 2.0326919555664062
12.863387107849121 -0.7601383924484253 2.0321173667907715
12.869171142578125 -0.8397302627563477 2.0290744304656982
12.695509910583496 -1.456681251525879 2.0301730632781982
12.632939338684082 -1.5280957221984863 2.0352392196655273
20.182613372802734 -6.341121673583984 0.892520010471344
20.18453025817871 -6.478119850158691 0.8841774463653564
20.160076141357422 -6.607045650482178 0.879305362701416
20.127277374267578 -6.733401298522949 0.8754644393920898
18.98063087463379 -6.479750156402588 1.0246671438217163
18.960792541503906 -6.60321569442749 1.019299864768982
18.947628021240234 -6.729337692260742 1.01289701461792
18.963459014892578 -6.866347789764404 1.0023503303527832
19.133678436279297 -7.061122894287109 0.9701595306396484
19.212522506713867 -7.359472751617432 0.9415728449821472
19.029027938842773 -7.423491477966309 0.9583667516708374
18.92902183532715 -8.338424682617188 0.9063118696212769
18.923309326171875 -8.475028038024902 0.8971033692359924
19.010469436645508 -8.654585838317871 0.8742631673812866
19.183406829833984 -8.875903129577637 0.8386722207069397
19.374065399169922 -9.108943939208984 0.8001391887664795
20.638547897338867 -13.00610065460205 0.3460846543312073
20.41345977783203 -13.040151596069336 0.3664245903491974
20.09640121459961 -13.012158393859863 0.4016667306423187
19.849241256713867 -13.025896072387695 0.42586633563041687
19.66787338256836 -13.08044719696045 0.439531147480011
19.457006454467773 -13.11333179473877 0.4580623209476471
19.301315307617188 -13.181567192077637 0.4676421582698822
19.22701644897461 -13.304771423339844 0.46381422877311707
19.181142807006836 -13.448037147521973 0.4551524519920349
19.440420150756836 -13.808696746826172 0.39547669887542725
19.297016143798828 -13.886001586914062 0.4025343954563141
19.204647064208984 -13.999420166015625 0.4009896516799927
19.206472396850586 -14.182268142700195 0.3834002912044525
19.225812911987305 -14.379904747009277 0.36255645751953125
19.22764778137207 -14.566346168518066 0.34439679980278015
19.216115951538086 -14.744303703308105 0.32825180888175964
19.21720314025879 -14.933612823486328 0.3096599876880646
19.232254028320312 -15.1357421875 0.28834471106529236
19.227718353271484 -15.324416160583496 0.27012941241264343
19.231605529785156 -15.52169132232666 0.25013720989227295
19.215373992919922 -15.704545021057129 0.23338830471038818
19.196855545043945 -15.887152671813965 0.2167649269104004
19.2269287109375 -16.112117767333984 0.19115681946277618
19.253446578979492 -16.336767196655273 0.1657971292734146
19.26439094543457 -16.55072593688965 0.1428670436143875
19.232311248779297 -16.729673385620117 0.1274147629737854
12.769194602966309 12.213662147521973 1.6105326414108276
12.852286338806152 12.143303871154785 1.6075928211212158
12.97929859161377 12.11373233795166 1.597687840461731
12.866109848022461 11.861515998840332 1.625288963317871
12.967023849487305 11.808467864990234 1.619248390197754
13.00049114227295 11.550872802734375 1.6329576969146729
13.068608283996582 11.468955039978027 1.631692886352539
