# .PCD v0.7 - Point Cloud Data file format
VERSION 0.7
FIELDS x y z
SIZE 4 4 4
TYPE F F F
COUNT 1 1 1
WIDTH 854
HEIGHT 1
VIEWPOINT 0 0 0 1 0 0 0
POINTS 854
DATA ascii
34.544715881347656 -20.947988510131836 1.4041597843170166
34.50883865356445 -21.217010498046875 1.3934205770492554
34.508235931396484 -21.509620666503906 1.3802366256713867
34.4622917175293 -21.775821685791016 1.3698607683181763
34.50518035888672 -22.100425720214844 1.353477954864502
34.55625534057617 -22.43343734741211 1.3363385200500488
34.59452438354492 -22.761320114135742 1.3198344707489014
34.50711441040039 -23.008541107177734 1.311570405960083
34.62727355957031 -23.396961212158203 1.2891395092010498
34.734066009521484 -23.78095054626465 1.2673286199569702
34.75786209106445 -24.111923217773438 1.2509211301803589
34.74295425415039 -24.4188232421875 1.2369623184204102
34.7930793762207 -24.774507522583008 1.2183009386062622
34.80208206176758 -25.10427474975586 1.2022602558135986
34.79785919189453 -25.427419662475586 1.1869319677352905
34.81825637817383 -25.77165412902832 1.1696494817733765
34.82854461669922 -26.1117000579834 1.1528499126434326
34.84628677368164 -26.4606876373291 1.1352823972702026
34.851558685302734 -26.803569793701172 1.118370771408081
34.87361526489258 -27.1628475189209 1.1000025272369385
34.871395111083984 -27.506702423095703 1.0831509828567505
34.89980697631836 -27.878345489501953 1.0638047456741333
34.765830993652344 -28.122655868530273 1.0562206506729126
34.77305221557617 -28.4834041595459 1.0379821062088013
34.920074462890625 -28.96384048461914 1.0089747905731201
34.905765533447266 -29.315526962280273 0.9917604923248291
34.91354751586914 -29.689464569091797 0.9726099371910095
34.92560958862305 -30.07111167907715 0.9528489112854004
34.9034309387207 -30.4271240234375 0.9354408383369446
34.88043975830078 -30.785972595214844 0.9178372621536255
34.95261001586914 -31.23348617553711 0.8925052881240845
34.98060607910156 -31.646869659423828 0.8702822923660278
34.97318649291992 -32.032772064208984 0.8505405187606812
34.95793533325195 -32.41569900512695 0.8311244249343872
34.99388122558594 -32.85087966918945 0.8072735071182251
34.99032974243164 -33.254024505615234 0.7862656712532043
32.36326217651367 30.828369140625 2.0522923469543457
32.39509582519531 30.482019424438477 2.0559241771698
32.3426513671875 30.06092071533203 2.063512086868286
32.47840118408203 29.818031311035156 2.0618369579315186
32.52429962158203 29.49471092224121 2.064397096633911
32.492279052734375 29.1046085357666 2.0705816745758057
32.42976379394531 28.69217300415039 2.0780861377716064
32.592926025390625 28.482181549072266 2.07464861869812
32.575443267822266 28.11650848388672 2.0797414779663086
32.58969497680664 27.781949996948242 2.083193778991699
32.61177444458008 27.457290649414062 2.086153030395508
32.61266326904297 27.118072509765625 2.0899972915649414
32.64383316040039 26.807153701782227 2.0922930240631104
32.65922927856445 26.486175537109375 2.095219850540161
32.6633415222168 26.159149169921875 2.0985636711120605
32.69759750366211 25.859106063842773 2.1003811359405518
32.69554138183594 25.533184051513672 2.1037912368774414
32.698631286621094 25.214365005493164 2.1068496704101562
32.7149543762207 24.908578872680664 2.1091835498809814
32.746337890625 24.61675453186035 2.110713243484497
32.72883224487305 24.290939331054688 2.1144120693206787
32.522377014160156 23.82982635498047 2.126756191253662
32.4459114074707 23.469398498535156 2.13295316696167
32.50775909423828 23.211854934692383 2.132652759552002
32.527652740478516 22.926227569580078 2.134197473526001
32.565773010253906 22.655500411987305 2.134808301925659
32.52190017700195 22.330297470092773 2.139096736907959
32.547237396240234 22.055265426635742 2.1401095390319824
32.66096496582031 21.841310501098633 2.136981964111328
32.432186126708984 21.401674270629883 2.1494481563568115
32.483123779296875 21.15052604675293 2.149014949798584
32.51118850708008 20.886056900024414 2.149542808532715
32.56930160522461 20.642364501953125 2.1486146450042725
32.52314376831055 20.334646224975586 2.1523547172546387
32.49484634399414 20.040861129760742 2.15519118309021
32.56662368774414 19.810518264770508 2.153392791748047
32.617088317871094 19.568218231201172 2.1524851322174072
32.57809066772461 19.274145126342773 2.1555559635162354
32.431427001953125 18.91985511779785 2.1634225845336914
32.65929412841797 18.78533363342285 2.154236316680908
32.665950775146484 18.523521423339844 2.1549954414367676
32.72644805908203 18.293540954589844 2.1532416343688965
32.81073760986328 18.077499389648438 2.1503376960754395
32.940147399902344 17.886384963989258 2.1453213691711426
33.01470184326172 17.66560173034668 2.1427111625671387
33.01884841918945 17.408226013183594 2.1432056427001953
33.05300521850586 17.168046951293945 2.1422696113586426
33.04098892211914 16.905345916748047 2.143343210220337
33.055545806884766 16.65782928466797 2.1431431770324707
33.08442687988281 16.41876792907715 2.1422252655029297
33.08558654785156 16.167253494262695 2.1424834728240967
33.10382080078125 15.925444602966309 2.141900062561035
33.1094970703125 15.678885459899902 2.1418111324310303
33.11430358886719 15.433279037475586 2.1416895389556885
33.1209831237793 15.189870834350586 2.141414165496826
33.14504623413086 14.95559310913086 2.1402857303619385
33.157440185546875 14.717131614685059 2.139613151550293
33.16449737548828 14.4774808883667 2.1391117572784424
33.175376892089844 14.240665435791016 2.1383702754974365
33.19380187988281 14.008145332336426 2.137220859527588
33.20417022705078 13.773253440856934 2.1363673210144043
33.21012878417969 13.537630081176758 2.1356441974639893
33.225582122802734 13.30691146850586 2.134427309036255
33.07674789428711 13.012495040893555 2.1405580043792725
33.1306037902832 12.799629211425781 2.137477159500122
33.56235122680664 12.730474472045898 2.1172597408294678
33.6817512512207 12.54004955291748 2.111074447631836
33.729698181152344 12.322918891906738 2.1080482006073
33.72358322143555 12.086790084838867 2.107401132583618
33.737518310546875 11.858821868896484 2.1057820320129395
33.741432189941406 11.62820816040039 2.1045517921447754
33.73810577392578 11.396072387695312 2.103585720062256
33.76165771484375 11.173832893371582 2.101336717605591
33.75619888305664 10.94279956817627 2.1003401279449463
33.791072845458984 10.725552558898926 2.097447633743286
33.81024169921875 10.5038423538208 2.0952041149139404
33.80502700805664 10.275324821472168 2.0940065383911133
33.80210876464844 10.048405647277832 2.092642068862915
33.81782913208008 9.827765464782715 2.0903658866882324
33.838844299316406 9.609219551086426 2.087784767150879
33.84112548828125 9.385977745056152 2.085995674133301
33.85447311401367 9.166462898254395 2.0836379528045654
33.86930465698242 8.94790267944336 2.0811502933502197
33.88466262817383 8.730005264282227 2.0785748958587646
33.88603210449219 8.509090423583984 2.076580047607422
33.88402557373047 8.288010597229004 2.074678659439087
33.91070556640625 8.074451446533203 2.0713953971862793
33.88933181762695 7.850052356719971 2.0702638626098633
33.91521072387695 7.6371941566467285 2.066892385482788
33.93487548828125 7.423244953155518 2.0637447834014893
33.94830322265625 7.208303451538086 2.0608224868774414
33.96428680419922 6.994281768798828 2.0577187538146973
33.9652099609375 6.777596950531006 2.0552525520324707
33.9608268737793 6.5604047775268555 2.0529725551605225
33.953102111816406 6.343153476715088 2.050788164138794
33.99018859863281 6.134584426879883 2.0464532375335693
33.979740142822266 5.917740345001221 2.044274091720581
33.990570068359375 5.7050580978393555 2.041038990020752
34.0059928894043 5.493420600891113 2.037527561187744
34.01713180541992 5.281348705291748 2.034153699874878
34.00521469116211 5.066104888916016 2.0318026542663574
34.024574279785156 4.855864524841309 2.0279181003570557
34.04460906982422 4.645847320556641 2.0239369869232178
34.05938720703125 4.435248374938965 2.0201401710510254
34.06294250488281 4.223413467407227 2.016812801361084
34.08205795288086 4.0136871337890625 2.012683868408203
33.54196548461914 3.741615056991577 2.0351333618164062
33.51044464111328 3.5301403999328613 2.0333476066589355
33.575992584228516 3.3289554119110107 2.0268619060516357
33.62541961669922 3.1257095336914062 2.021076202392578
33.64673614501953 2.9196481704711914 2.0165693759918213
33.660823822021484 2.7129600048065186 2.012345314025879
33.66566848754883 2.5056138038635254 2.0085039138793945
33.671226501464844 2.298445701599121 2.0045645236968994
12.018710136413574 0.7450599670410156 3.0505967140197754
33.67055130004883 1.883744478225708 1.9970694780349731
33.64535140991211 1.6753802299499512 1.9944401979446411
33.68572235107422 1.470317006111145 1.9885536432266235
12.21274471282959 0.4567185640335083 3.0355474948883057
12.815226554870605 0.4006493389606476 3.0045197010040283
12.710529327392578 0.31933051347732544 3.008105754852295
33.73178482055664 0.643836498260498 1.9699690341949463
33.75286102294922 0.43714460730552673 1.9646843671798706
33.76068878173828 0.23013460636138916 1.9599871635437012
33.75625991821289 0.023035598918795586 1.9558321237564087
33.769535064697266 -0.18410393595695496 1.9507319927215576
12.813078880310059 -0.14973320066928864 2.9931702613830566
12.74493408203125 -0.22714544832706451 2.9948489665985107
33.78374481201172 -0.8060431480407715 1.936302661895752
33.797908782958984 -1.0138579607009888 1.9308829307556152
11.753257751464844 -0.426089346408844 3.0396132469177246
12.263236045837402 -0.5198317766189575 3.012096405029297
12.95203971862793 -0.6285314559936523 2.9753239154815674
12.691572189331055 -0.6939959526062012 2.9866864681243896
12.854470252990723 -0.7819955348968506 2.9764678478240967
12.863301277160645 -0.861763596534729 2.9740700721740723
11.784957885742188 -0.8623441457748413 3.027524709701538
33.874977111816406 -2.683894634246826 1.8868098258972168
12.648993492126465 -1.0815882682800293 2.9791533946990967
12.277055740356445 -1.1257517337799072 2.9964277744293213
33.9126091003418 -3.315908670425415 1.8686304092407227
12.751863479614258 -1.3271673917770386 2.9676458835601807
13.111672401428223 -1.4459173679351807 2.9466872215270996
13.34748363494873 -1.5548211336135864 2.9320943355560303
13.363378524780273 -1.6398248672485352 2.928982734680176
33.94438171386719 -4.373677730560303 1.8384345769882202
12.3277006149292 -1.666670799255371 2.97928524017334
13.759814262390137 -1.9460779428482056 2.9008750915527344
33.97403335571289 -5.014751434326172 1.8188292980194092
33.9739875793457 -5.227914333343506 1.8126659393310547
33.98738479614258 -5.443633556365967 1.8057019710540771
33.99744415283203 -5.659387588500977 1.7988338470458984
34.0012092590332 -5.874621391296387 1.7922241687774658
33.99083709716797 -6.087827205657959 1.7863008975982666
34.00563430786133 -6.306042671203613 1.7789286375045776
34.041587829589844 -6.528994560241699 1.7703115940093994
34.00947570800781 -6.7394304275512695 1.7653363943099976
33.90170669555664 -6.934516429901123 1.764460802078247
33.880760192871094 -7.147078990936279 1.758742094039917
33.87897491455078 -7.364099979400635 1.751882791519165
33.94108200073242 -7.595975875854492 1.7413772344589233
33.93252944946289 -7.812988758087158 1.7347135543823242
33.92063903808594 -8.029723167419434 1.7281538248062134
33.988868713378906 -8.266424179077148 1.7169932126998901
34.02156066894531 -8.495798110961914 1.7077256441116333
34.04593276977539 -8.724150657653809 1.698825478553772
34.07843780517578 -8.955660820007324 1.6893590688705444
34.083351135253906 -9.180888175964355 1.6813665628433228
34.07426834106445 -9.403059959411621 1.6740825176239014
34.09640121459961 -9.634696960449219 1.6649060249328613
34.093955993652344 -9.860304832458496 1.6570483446121216
34.10055160522461 -10.089360237121582 1.6485689878463745
34.10274887084961 -10.318000793457031 1.640244483947754
34.11867904663086 -10.551769256591797 1.6310144662857056
34.124454498291016 -10.783413887023926 1.6222749948501587
34.11631393432617 -11.011540412902832 1.6142544746398926
34.108551025390625 -11.240599632263184 1.6061129570007324
34.134273529052734 -11.4817533493042 1.595872402191162
34.168704986572266 -11.727211952209473 1.5849902629852295
34.153343200683594 -11.956701278686523 1.5769829750061035
34.116695404052734 -12.179398536682129 1.570160984992981
34.109561920166016 -12.413360595703125 1.5614571571350098
34.2421875 -12.700111389160156 1.5441195964813232
34.28664779663086 -12.956489562988281 1.5319998264312744
34.28451919555664 -13.196681022644043 1.522609829902649
34.309539794921875 -13.448627471923828 1.511425495147705
34.328121185302734 -13.699525833129883 1.5005100965499878
34.32733154296875 -13.944021224975586 1.4906737804412842
34.33959197998047 -14.195125579833984 1.4798980951309204
34.3436164855957 -14.444194793701172 1.4695117473602295
34.35688400268555 -14.698558807373047 1.4584133625030518
29.60167694091797 -12.879971504211426 1.7504750490188599
34.385215759277344 -15.212625503540039 1.43569815158844
34.40841293334961 -15.476075172424316 1.4235529899597168
34.393348693847656 -15.723780632019043 1.4137319326400757
34.393741607666016 -15.979874610900879 1.4027838706970215
34.44734191894531 -16.26255989074707 1.3882319927215576
34.445655822753906 -16.521034240722656 1.3771287202835083
34.437599182128906 -16.77791404724121 1.3663057088851929
34.45005416870117 -17.046384811401367 1.3539893627166748
34.450687408447266 -17.31070899963379 1.3423058986663818
34.373783111572266 -17.53712272644043 1.3356586694717407
34.33528518676758 -17.783905029296875 1.3263354301452637
34.36662292480469 -18.068498611450195 1.312172770500183
34.378135681152344 -18.34474754333496 1.299180030822754
34.38490676879883 -18.620389938354492 1.2863470315933228
30.808837890625 -16.929445266723633 1.5191997289657593
30.784347534179688 -17.16282081604004 1.5095174312591553
34.55509948730469 -19.54377555847168 1.2364643812179565
34.52516555786133 -19.807519912719727 1.2254668474197388
34.505367279052734 -20.078655242919922 1.2136120796203613
34.53854751586914 -20.382761001586914 1.1978651285171509
34.54702377319336 -20.674701690673828 1.1836681365966797
34.57368469238281 -20.979936599731445 1.1679903268814087
34.53753662109375 -21.249141693115234 1.1566139459609985
34.531558990478516 -21.538766860961914 1.1429060697555542
34.50307083129883 -21.816314697265625 1.1306487321853638
34.508609771728516 -22.11747932434082 1.1157426834106445
34.596282958984375 -22.474445343017578 1.0946121215820312
34.580814361572266 -22.767459869384766 1.0808194875717163
34.50410461425781 -23.021799087524414 1.0713872909545898
34.63311004638672 -23.416358947753906 1.046453833580017
34.70503234863281 -23.77670669555664 1.0254850387573242
34.754146575927734 -24.125150680541992 1.0059621334075928
34.727622985839844 -24.423994064331055 0.9919296503067017
34.779205322265625 -24.78074836730957 0.9717236757278442
34.79290008544922 -25.11393928527832 0.9541603922843933
34.791725158691406 -25.439390182495117 0.9375066161155701
34.7918701171875 -25.76873779296875 0.9205160737037659
34.81241989135742 -26.116413116455078 0.9016859531402588
34.812522888183594 -26.4520206451416 0.8842060565948486
34.8430290222168 -26.814176559448242 0.8640612363815308
34.84834671020508 -27.16051483154297 0.8456466197967529
34.87108612060547 -27.524005889892578 0.8255655765533447
34.86259841918945 -27.866357803344727 0.8077276945114136
34.77363586425781 -28.146860122680664 0.7961953282356262
34.7674446105957 -28.496898651123047 0.7776866555213928
34.917232513427734 -28.979846954345703 0.7460094094276428
34.85837936401367 -29.294275283813477 0.7312467694282532
34.89958572387695 -29.696374893188477 0.7078716158866882
34.94472122192383 -30.106590270996094 0.6838197112083435
34.90489196777344 -30.447628021240234 0.6666312217712402
34.86892318725586 -30.795251846313477 0.6488492488861084
34.95348358154297 -31.253992080688477 0.6204026937484741
34.966392517089844 -31.653980255126953 0.5977494120597839
34.96759796142578 -32.04787826538086 0.5757709741592407
34.94186019897461 -32.421260833740234 0.5558241605758667
34.9834098815918 -32.86180114746094 0.5295935869216919
34.953590393066406 -33.2401123046875 0.5093331336975098
32.36331558227539 30.877830505371094 1.7702064514160156
32.39265060424805 30.528663635253906 1.7753535509109497
32.33775329589844 30.104734420776367 1.7851524353027344
32.46936798095703 29.8577938079834 1.7841370105743408
32.51264190673828 29.53177261352539 1.7880197763442993
32.483238220214844 29.143630981445312 1.7958661317825317
32.40843200683594 28.719860076904297 1.806100606918335
32.5589599609375 28.498811721801758 1.803485631942749
32.57799530029297 28.164608001708984 1.808135747909546
32.582767486572266 27.821516036987305 1.8134366273880005
32.612060546875 27.50261688232422 1.8172239065170288
32.609500885009766 27.160112380981445 1.82264244556427
32.62943649291992 26.83962059020996 1.8266698122024536
32.64434814453125 26.518020629882812 1.8308382034301758
32.665897369384766 26.204750061035156 1.8345063924789429
32.668399810791016 25.87919044494629 1.8390902280807495
32.68781280517578 25.569978713989258 1.842612385749817
32.71178436279297 25.267000198364258 1.8457578420639038
32.735660552978516 24.966510772705078 1.848785161972046
32.72515869140625 24.642641067504883 1.8535594940185547
32.748008728027344 24.346668243408203 1.8563951253890991
32.616241455078125 23.939620971679688 1.8674832582473755
32.54220962524414 23.579660415649414 1.8752986192703247
32.538944244384766 23.27440071105957 1.87916100025177
32.65476989746094 23.055931091308594 1.8764986991882324
32.6453742980957 22.75066375732422 1.8804677724838257
32.66474914550781 22.4678955078125 1.8827786445617676
32.48102951049805 22.049402236938477 1.8958438634872437
32.609649658203125 21.845855712890625 1.8920844793319702
32.658653259277344 21.589771270751953 1.892482876777649
32.704078674316406 21.332820892333984 1.8929731845855713
32.709774017333984 21.051794052124023 1.895474910736084
32.499046325683594 20.63549041748047 1.9093533754348755
32.502044677734375 20.35886001586914 1.9117732048034668
32.69154357910156 20.199539184570312 1.904226303100586
32.76087951660156 19.96587562561035 1.9029535055160522
32.604248046875 19.597286224365234 1.9135104417800903
32.51481246948242 19.27314567565918 1.9204078912734985
32.67878341674805 19.100555419921875 1.9138612747192383
32.80810546875 18.9072265625 1.9090611934661865
32.832054138183594 18.65380859375 1.9097126722335815
32.81055450439453 18.37640380859375 1.912656307220459
32.87959671020508 18.151140213012695 1.9107608795166016
32.992740631103516 17.950546264648438 1.906471610069275
33.01749801635742 17.7025146484375 1.906723141670227
33.02897262573242 17.448789596557617 1.9075814485549927
33.047447204589844 17.20020294189453 1.9079848527908325
33.05256271362305 16.946123123168945 1.9089988470077515
33.06650924682617 16.698030471801758 1.9094642400741577
33.085811614990234 16.453964233398438 1.90956449508667
33.09081268310547 16.204137802124023 1.910325288772583
33.10029602050781 15.957908630371094 1.9107677936553955
33.10980987548828 15.713027954101562 1.9111238718032837
33.122093200683594 15.470744132995605 1.911252737045288
33.1272087097168 15.226398468017578 1.9116724729537964
33.165164947509766 14.998212814331055 1.9103033542633057
33.113956451416016 14.731159210205078 1.9134854078292847
33.14308166503906 14.501333236694336 1.9124139547348022
33.15320587158203 14.264204025268555 1.912248969078064
33.16074752807617 14.027107238769531 1.9121384620666504
33.1749382019043 13.793905258178711 1.9116051197052002
33.19398498535156 13.563701629638672 1.9107409715652466
33.23741912841797 13.344202995300293 1.908534288406372
33.105648040771484 13.056157112121582 1.9153414964675903
33.12901306152344 12.831194877624512 1.91402268409729
33.542049407958984 12.755187034606934 1.8924015760421753
33.67464828491211 12.569806098937988 1.8852558135986328
33.721832275390625 12.352356910705566 1.8824678659439087
33.74598693847656 12.127033233642578 1.8807990550994873
33.74793243408203 11.894572257995605 1.8802070617675781
33.76150894165039 11.667112350463867 1.8789368867874146
33.7660026550293 11.43736743927002 1.8780632019042969
33.77937698364258 11.211466789245605 1.8766536712646484
33.79220199584961 10.986141204833984 1.8751986026763916
33.78069305419922 10.753808975219727 1.874935507774353
33.793357849121094 10.530052185058594 1.873341679573059
33.808372497558594 10.307708740234375 1.8715519905090332
33.79704666137695 10.078157424926758 1.8710627555847168
33.81869888305664 9.8591947555542 1.868781328201294
33.83317184448242 9.638702392578125 1.8668017387390137
33.85295104980469 9.420276641845703 1.864472508430481
33.85397720336914 9.197257041931152 1.8630503416061401
33.85450744628906 8.974835395812988 1.8615832328796387
33.870025634765625 8.756999969482422 1.8592604398727417
33.87929916381836 8.538093566894531 1.8571934700012207
33.89589309692383 8.32154369354248 1.8546708822250366
33.91694259643555 8.106502532958984 1.8518421649932861
33.91911315917969 7.887444972991943 1.8499342203140259
33.91987228393555 7.668664455413818 1.848029613494873
33.92995834350586 7.452526569366455 1.8455644845962524
33.94746398925781 7.23842716217041 1.842637062072754
33.9606819152832 7.02378511428833 1.839864730834961
33.97058868408203 6.808859825134277 1.8371959924697876
33.96933364868164 6.592174053192139 1.8350471258163452
33.95590591430664 6.373732089996338 1.83347487449646
33.98430633544922 6.163543224334717 1.8296147584915161
34.003543853759766 5.951866149902344 1.8261691331863403
34.00865936279297 5.738024711608887 1.823403000831604
34.02031326293945 5.525623321533203 1.8202180862426758
34.017818450927734 5.311291694641113 1.81771719455719
34.03175354003906 5.099861145019531 1.8142696619033813
34.032508850097656 4.886754989624023 1.8114562034606934
34.03886032104492 4.674781322479248 1.808273434638977
34.054786682128906 4.464339256286621 1.804505705833435
34.07238006591797 4.25424861907959 1.8005766868591309
34.086692810058594 4.043872833251953 1.7967514991760254
33.54301834106445 3.770904302597046 1.822970986366272
33.52656555175781 3.5609657764434814 1.8207178115844727
33.58232116699219 3.3587229251861572 1.8144867420196533
33.642826080322266 3.1564881801605225 1.8079191446304321
33.65634536743164 2.9496264457702637 1.8038243055343628
33.6676025390625 2.7426350116729736 1.7997809648513794
33.68455505371094 2.536139726638794 1.7953550815582275
13.057243347167969 0.9028295874595642 2.91955304145813
33.68077850341797 2.1207056045532227 1.7883477210998535
33.662010192871094 1.9123111963272095 1.78566575050354
33.670875549316406 1.7056901454925537 1.781397819519043
13.175858497619629 0.5866988301277161 2.907205820083618
13.134220123291016 0.5041443705558777 2.907970905303955
19.31032943725586 0.622427761554718 2.5645430088043213
12.771927833557129 0.3334009647369385 2.924926996231079
12.451207160949707 0.2486228197813034 2.941190004348755
33.74734878540039 0.4661216139793396 1.752964973449707
12.494084358215332 0.0961686447262764 2.9356582164764404
12.542279243469238 0.019600892439484596 2.9313457012176514
12.64591121673584 -0.057812321931123734 2.9238834381103516
12.71212100982666 -0.13610005378723145 2.918470859527588
12.743902206420898 -0.21463005244731903 2.9149539470672607
33.8090705871582 -0.7775277495384216 1.7226520776748657
33.8114013671875 -0.985131561756134 1.7177830934524536
33.82343673706055 -1.1931819915771484 1.7122875452041626
12.48306655883789 -0.5168042778968811 2.922609329223633
12.596251487731934 -0.5989176034927368 2.9143154621124268
13.155518531799316 -0.7064356803894043 2.8804259300231934
12.833932876586914 -0.7681412696838379 2.8968923091888428
11.860595703125 -0.7829029560089111 2.950932264328003
12.255779266357422 -0.8845449686050415 2.926281690597534
12.581466674804688 -0.9856816530227661 2.9054994583129883
12.39603328704834 -1.0476986169815063 2.9142396450042725
12.397235870361328 -1.1244381666183472 2.912151575088501
12.712956428527832 -1.2317616939544678 2.8916828632354736
33.90359115600586 -3.4956560134887695 1.649582862854004
13.304047584533691 -1.4540244340896606 2.852705478668213
33.9310302734375 -3.9197916984558105 1.6363645792007446
33.957618713378906 -4.134125709533691 1.6288666725158691
33.949188232421875 -4.344625473022461 1.6233490705490112
33.97308349609375 -4.559693813323975 1.6158311367034912
33.96596908569336 -4.771053791046143 1.6100682020187378
33.9881477355957 -4.986992359161377 1.6024726629257202
33.999088287353516 -5.201874732971191 1.595456838607788
34.00669479370117 -5.4167656898498535 1.5885511636734009
34.017860412597656 -5.632762432098389 1.5813398361206055
34.009952545166016 -5.846056938171387 1.575191855430603
29.28457260131836 -5.2189226150512695 1.8553882837295532
34.04606246948242 -6.283314228057861 1.5594743490219116
34.0644645690918 -6.503078460693359 1.551449179649353
34.029537200927734 -6.713066577911377 1.5465948581695557
33.9639778137207 -6.916896343231201 1.5435477495193481
33.91184616088867 -7.123253345489502 1.5396069288253784
33.900413513183594 -7.338314533233643 1.533072829246521
33.94021987915039 -7.565231800079346 1.523263692855835
33.99797821044922 -7.797377586364746 1.5122220516204834
34.02306365966797 -8.023186683654785 1.5031042098999023
34.054420471191406 -8.251477241516113 1.4934831857681274
34.03290939331055 -8.467681884765625 1.4870837926864624
34.07386016845703 -8.70023250579834 1.4766415357589722
34.087158203125 -8.926778793334961 1.4678354263305664
34.1519775390625 -9.168048858642578 1.4556360244750977
34.11502456665039 -9.382922172546387 1.449817180633545
34.108421325683594 -9.606618881225586 1.441961407661438
34.108985900878906 -9.833075523376465 1.4335414171218872
34.13389587402344 -10.067525863647461 1.4234386682510376
34.13140869140625 -10.29487133026123 1.4149956703186035
34.14363098144531 -10.52756404876709 1.405484914779663
34.13428497314453 -10.754496574401855 1.3972707986831665
34.15668487548828 -10.992414474487305 1.3868615627288818
34.15279769897461 -11.222911834716797 1.378063678741455
34.11424255371094 -11.442666053771973 1.3714516162872314
34.19325256347656 -11.703091621398926 1.356918215751648
34.17234802246094 -11.930705070495605 1.3489032983779907
34.165916442871094 -12.164194107055664 1.3398094177246094
34.139137268066406 -12.391243934631348 1.33197021484375
34.25313186645508 -12.671053886413574 1.3144947290420532
34.31266784667969 -12.93301773071289 1.3005326986312866
34.31623458862305 -13.175440788269043 1.2902315855026245
34.32647705078125 -13.421664237976074 1.2793437242507935
34.343326568603516 -13.671833992004395 1.267865538597107
34.34637451171875 -13.917840003967285 1.257201910018921
34.358760833740234 -14.168966293334961 1.2457544803619385
34.370269775390625 -14.421154022216797 1.2342267036437988
34.36070251464844 -14.665790557861328 1.2240334749221802
34.3576545715332 -14.914426803588867 1.2132480144500732
29.543560028076172 -13.040660858154297 1.54278564453125
34.43821716308594 -15.45450210571289 1.185101866722107
34.41145324707031 -15.696928024291992 1.1755621433258057
34.42374038696289 -15.95849323272705 1.1630913019180298
34.434104919433594 -16.220800399780273 1.1506025791168213
34.43534851074219 -16.480390548706055 1.1386172771453857
34.455326080322266 -16.750640869140625 1.1251144409179688
34.46433639526367 -17.017337799072266 1.1122441291809082
34.47671127319336 -17.287458419799805 1.0989621877670288
34.402591705322266 -17.515357971191406 1.0919017791748047
34.38015365600586 -17.77049446105957 1.0808959007263184
34.43008804321289 -18.064958572387695 1.0643419027328491
34.41428756713867 -18.326932907104492 1.052512288093567
34.42641067504883 -18.60552215576172 1.0384204387664795
34.39265823364258 -18.860960006713867 1.0276223421096802
30.8057918548584 -17.14065933227539 1.2872841358184814
34.5759391784668 -19.517377853393555 0.9863774180412292
34.563453674316406 -19.79106903076172 0.9733873009681702
34.54718017578125 -20.064342498779297 0.9605162143707275
34.57698440551758 -20.36651611328125 0.943885087966919
34.58382034301758 -20.65753173828125 0.9288364052772522
34.57984161376953 -20.944225311279297 0.9144366383552551
34.55493927001953 -21.220157623291016 0.9014976620674133
34.52116394042969 -21.492359161376953 0.8890836834907532
34.592498779296875 -21.832571029663086 0.868093729019165
34.56681442260742 -22.11424446105957 0.8546309471130371
34.605106353759766 -22.43930435180664 0.8358083963394165
34.62068176269531 -22.752517700195312 0.818580687046051
34.568111419677734 -23.023069381713867 0.8066933155059814
34.732662200927734 -23.441740036010742 0.776773989200592
34.73524856567383 -23.755157470703125 0.7598685622215271
34.759063720703125 -24.08596420288086 0.740961492061615
34.739288330078125 -24.389291763305664 0.7254437208175659
34.830101013183594 -24.77366065979004 0.7003926038742065
34.78879165649414 -25.06732177734375 0.6861961483955383
34.80239486694336 -25.403167724609375 0.6671122908592224
34.8083610534668 -25.73656463623047 0.6484131813049316
34.81074142456055 -26.070388793945312 0.6297574043273926
34.86993408203125 -26.450428009033203 0.605901300907135
34.83636474609375 -26.763490676879883 0.5898152589797974
34.86560821533203 -27.127981185913086 0.5679670572280884
34.861122131347656 -27.469755172729492 0.5487910509109497
34.90286636352539 -27.851694107055664 0.5252150893211365
34.8031120300293 -28.123567581176758 0.5139809846878052
34.760009765625 -28.44327735900879 0.4974546432495117
34.89094543457031 -28.9099063873291 0.4648696482181549
34.8768424987793 -29.261226654052734 0.44507601857185364
34.923583984375 -29.66771125793457 0.41938215494155884
34.9522705078125 -30.063505172729492 0.3949797451496124
34.89766311645508 -30.391319274902344 0.3779796361923218
34.89570999145508 -30.76841163635254 0.35576605796813965
34.92539978027344 -31.177845001220703 0.33021682500839233
34.72639846801758 -31.38546371459961 0.32605651021003723
35.0589599609375 -32.079341888427734 0.2708185613155365
34.90937423706055 -32.33852005004883 0.2613343298435211
35.018394470214844 -32.84135818481445 0.22651998698711395
34.94169616699219 -33.1750373840332 0.20936642587184906
32.35188674926758 30.86874008178711 1.4893816709518433
32.427703857421875 30.56352424621582 1.4928337335586548
32.33285140991211 30.102001190185547 1.5073434114456177
32.45046615600586 29.842256546020508 1.5076894760131836
32.503265380859375 29.525115966796875 1.5121276378631592
32.47236633300781 29.1357421875 1.5218417644500732
32.4042854309082 28.718053817749023 1.5337632894515991
32.55477523803711 28.49703598022461 1.531355857849121
32.57381820678711 28.162891387939453 1.5372933149337769
32.583919525146484 27.824399948120117 1.5436345338821411
32.59949493408203 27.493932723999023 1.549454927444458
32.62453079223633 27.174551010131836 1.5545079708099365
32.63299560546875 26.8444766998291 1.5604544878005981
32.632450103759766 26.51028823852539 1.5668100118637085
32.65319061279297 26.196495056152344 1.5716582536697388
32.6650505065918 25.87848663330078 1.5769133567810059
32.677391052246094 25.56378173828125 1.5819854736328125
32.69896697998047 25.25905990600586 1.586329698562622
32.71962356567383 24.956247329711914 1.5905861854553223
32.739402770996094 24.65534019470215 1.5947540998458862
32.728675842285156 24.334270477294922 1.6006771326065063
32.7136344909668 24.01308250427246 1.6067185401916504
32.530914306640625 23.573442459106445 1.6229761838912964
32.566619873046875 23.296171188354492 1.6255723237991333
32.6580810546875 23.060251235961914 1.6246129274368286
32.62004852294922 22.735002517700195 1.631489872932434
32.71421432495117 22.503915786743164 1.6301285028457642
32.72992706298828 22.220359802246094 1.6334543228149414
32.73012161254883 21.92856788635254 1.6376007795333862
32.69382095336914 21.615026473999023 1.6438401937484741
32.71931838989258 21.34477424621582 1.6461915969848633
32.770450592041016 21.09286117553711 1.6468708515167236
32.78009796142578 20.815963745117188 1.6499491930007935
32.789283752441406 20.540802001953125 1.6529371738433838
32.755550384521484 20.24110984802246 1.658395528793335
32.69209289550781 19.92597770690918 1.6655185222625732
32.623451232910156 19.6108455657959 1.672824501991272
32.81504821777344 19.453144073486328 1.6643877029418945
32.84040069580078 19.197057723999023 1.6658333539962769
32.8681755065918 18.94388771057129 1.6670273542404175
32.86369323730469 18.673831939697266 1.6700416803359985
32.8022575378418 18.37380027770996 1.6763460636138916
32.87563705444336 18.1510066986084 1.674498200416565
32.97734069824219 17.944232940673828 1.6708691120147705
33.009979248046875 17.7005558013916 1.671255111694336
33.017921447753906 17.44502067565918 1.6730077266693115
33.04345703125 17.2002010345459 1.673613429069519
33.05568313598633 16.949800491333008 1.674909234046936
33.0705451965332 16.702150344848633 1.6759495735168457
33.08003616333008 16.453174591064453 1.6772085428237915
33.09041213989258 16.206029891967773 1.6783169507980347
33.096309661865234 15.958073616027832 1.6795923709869385
33.10041427612305 15.71065902709961 1.6808773279190063
33.12444305419922 15.4739351272583 1.6808921098709106
33.12958526611328 15.229583740234375 1.681925654411316
33.16390609741211 14.99974250793457 1.681147575378418
33.11272430419922 14.732707977294922 1.685308575630188
33.13179016113281 14.498492240905762 1.6852428913116455
33.13731002807617 14.259466171264648 1.6858822107315063
33.16597366333008 14.031420707702637 1.6850717067718506
33.17926025390625 13.797809600830078 1.6850743293762207
33.1890869140625 13.563807487487793 1.6851911544799805
33.22972106933594 13.343226432800293 1.6834114789962769
33.08870315551758 13.051575660705566 1.6922028064727783
33.12879180908203 12.83321475982666 1.6902787685394287
33.53235626220703 12.753645896911621 1.6669524908065796
33.672386169433594 12.571117401123047 1.658998966217041
33.71580123901367 12.352311134338379 1.6566258668899536
33.730552673339844 12.123651504516602 1.6558470726013184
33.74188995361328 11.894608497619629 1.65518319606781
33.757347106933594 11.667840957641602 1.6541904211044312
33.759002685546875 11.437165260314941 1.6539236307144165
33.770469665527344 11.210683822631836 1.6529964208602905
33.77568435668945 10.98294448852539 1.6523513793945312
33.78128433227539 10.756169319152832 1.6516013145446777
33.795860290527344 10.533007621765137 1.6502403020858765
33.811832427978516 10.310941696166992 1.6487141847610474
33.796695709228516 10.080231666564941 1.6489323377609253
33.80971908569336 9.858757019042969 1.647415041923523
33.83185958862305 9.640510559082031 1.6452791690826416
33.85067367553711 9.421828269958496 1.6432580947875977
33.87193298339844 9.204323768615723 1.6410093307495117
33.838722229003906 8.9728364944458 1.641886591911316
33.87160873413086 8.759601593017578 1.6387921571731567
33.88960266113281 8.542881965637207 1.63649320602417
33.900390625 8.324841499328613 1.634537935256958
33.899105072021484 8.104435920715332 1.6332149505615234
33.91486740112305 7.888655662536621 1.6308070421218872
33.919517517089844 7.670783996582031 1.6289737224578857
33.932525634765625 7.455291748046875 1.6265678405761719
33.94905471801758 7.240970134735107 1.6238740682601929
33.9583625793457 7.025510787963867 1.621526837348938
33.97119903564453 6.811190128326416 1.6188912391662598
33.968963623046875 6.594310760498047 1.6170703172683716
33.95847702026367 6.376424789428711 1.615662693977356
33.97803497314453 6.16461706161499 1.6123906373977661
33.996273040771484 5.952808380126953 1.6091177463531494
34.00531005859375 5.739676475524902 1.606311321258545
34.01991653442383 5.527777671813965 1.6030949354171753
34.01642990112305 5.313294887542725 1.6008790731430054
34.02640914916992 5.101282119750977 1.5977805852890015
34.03901290893555 4.889912128448486 1.594446063041687
34.0404167175293 4.677220344543457 1.591703176498413
34.05138397216797 4.466121196746826 1.588308572769165
34.06500244140625 4.255557537078857 1.5846738815307617
34.082275390625 4.045581340789795 1.5807396173477173
33.5477180480957 3.773618459701538 1.6100091934204102
33.52133560180664 3.562596082687378 1.6085988283157349
33.572105407714844 3.359891653060913 1.6024504899978638
33.637535095214844 3.1581902503967285 1.5953257083892822
33.65899658203125 2.9520599842071533 1.5907799005508423
33.66825485229492 2.7448911666870117 1.5868946313858032
33.67523956298828 2.5376436710357666 1.5830683708190918
33.67796325683594 2.330205202102661 1.5794228315353394
33.679405212402344 2.1228280067443848 1.5757777690887451
33.65565490722656 1.914157748222351 1.5735949277877808
33.66450881958008 1.7075772285461426 1.5693416595458984
13.041441917419434 0.5810707807540894 2.8324086666107178
13.033690452575684 0.5006418228149414 2.8313868045806885
13.02344799041748 0.4202648401260376 2.8304898738861084
33.721153259277344 0.8818390965461731 1.550205945968628
33.73563766479492 0.6751773357391357 1.5451946258544922
33.74885940551758 0.4683695435523987 1.5401800870895386
12.761962890625 0.09855431318283081 2.8403255939483643
33.748531341552734 0.05430922284722328 1.5315651893615723
12.660213470458984 -0.057553865015506744 2.843350410461426
12.677488327026367 -0.13540171086788177 2.8405745029449463
33.794898986816406 -0.5675728917121887 1.515100121498108
12.782435417175293 -0.2933848798274994 2.8304941654205322
33.80779266357422 -0.9827815294265747 1.5048274993896484
33.81282424926758 -1.1905603408813477 1.4996535778045654
33.82056427001953 -1.3986045122146606 1.4942238330841064
12.584573745727539 -0.5980402231216431 2.835632085800171
13.003108978271484 -0.6978866457939148 2.807131290435791
12.86000919342041 -0.7693548202514648 2.814251184463501
12.884819030761719 -0.8501936793327332 2.810659646987915
33.86988067626953 -2.4429409503936768 1.4650965929031372
12.530963897705078 -0.9814038276672363 2.829251766204834
33.8845329284668 -2.862292528152466 1.4531501531600952
33.89985275268555 -3.0731475353240967 1.4465277194976807
12.74787712097168 -1.2348051071166992 2.8089699745178223
33.894771575927734 -3.492469072341919 1.4353187084197998
13.33768367767334 -1.4573055505752563 2.7662100791931152
13.810169219970703 -1.5947092771530151 2.733044147491455
33.939815521240234 -4.129669189453125 1.4143980741500854
33.94424057006836 -4.341700553894043 1.4079270362854004
33.96712112426758 -4.5565972328186035 1.4001485109329224
33.96393966674805 -4.768470764160156 1.3939883708953857
33.9732551574707 -4.982505798339844 1.3869091272354126
33.977272033691406 -5.196232318878174 1.3800832033157349
33.99374008178711 -5.412393569946289 1.3723336458206177
33.99996566772461 -5.6274871826171875 1.3651642799377441
33.99500274658203 -5.84117317199707 1.358644962310791
34.00048065185547 -6.0571112632751465 1.3513308763504028
34.02715301513672 -6.277501583099365 1.3424873352050781
34.05631637573242 -6.499195575714111 1.333366870880127
34.03019332885742 -6.7108683586120605 1.327878713607788
33.96462631225586 -6.914703845977783 1.3249834775924683
33.93103790283203 -7.124960899353027 1.3198333978652954
33.9176025390625 -7.339709758758545 1.3132174015045166
33.947601318359375 -7.56454610824585 1.3035221099853516
34.0130729675293 -7.798499584197998 1.291266918182373
34.03421401977539 -8.023468971252441 1.281938910484314
34.06550598144531 -8.251811981201172 1.27178955078125
34.06332015991211 -8.472893714904785 1.2638477087020874
34.09740447998047 -8.703883171081543 1.2532652616500854
34.095184326171875 -8.926515579223633 1.2450995445251465
34.122344970703125 -9.157723426818848 1.2347571849822998
34.111392974853516 -9.37955093383789 1.226976990699768
34.10187911987305 -9.602400779724121 1.2189875841140747
34.148433685302734 -9.842066764831543 1.2069032192230225
34.132080078125 -10.064605712890625 1.1991655826568604
34.11809539794922 -10.288468360900879 1.1911489963531494
34.158897399902344 -10.529879570007324 1.179082989692688
34.16280746459961 -10.761087417602539 1.1695367097854614
34.15471649169922 -10.989380836486816 1.1607338190078735
34.145103454589844 -11.21798038482666 1.1519241333007812
34.140586853027344 -11.449097633361816 1.142621397972107
34.176998138427734 -11.69511604309082 1.13019859790802
34.1852912902832 -11.932806968688965 1.1196939945220947
34.175968170166016 -12.165353775024414 1.1103556156158447
34.13319396972656 -12.386666297912598 1.103371024131775
34.26114273071289 -12.671582221984863 1.0835732221603394
34.30472183227539 -12.927580833435059 1.0698676109313965
34.30174255371094 -13.16742992401123 1.0594927072525024
34.32869338989258 -13.42007827758789 1.0467263460159302
34.33529281616211 -13.66617488861084 1.0353420972824097
34.3392333984375 -13.912483215332031 1.0240134000778198
34.35158157348633 -14.163537979125977 1.0118966102600098
34.36397933959961 -14.41603946685791 0.9996220469474792
34.352535247802734 -14.659831047058105 0.9890248775482178
34.368682861328125 -14.916732788085938 0.9761545658111572
29.52535629272461 -13.030616760253906 1.3405201435089111
34.42721176147461 -15.447065353393555 0.9478712677955627
34.4122314453125 -15.694782257080078 0.9369323253631592
34.42807388305664 -15.957998275756836 0.9234187006950378
34.42573547363281 -16.214351654052734 0.9111706018447876
34.445838928222656 -16.482898712158203 0.8969764709472656
34.46034240722656 -16.750558853149414 0.8830493092536926
34.447811126708984 -17.006654739379883 0.8711099028587341
34.4842529296875 -17.288705825805664 0.8550629019737244
34.41007614135742 -17.516643524169922 0.8477702736854553
34.343257904052734 -17.748899459838867 0.8397591710090637
34.42768478393555 -18.061155319213867 0.8192591071128845
34.418880462646484 -18.32683563232422 0.8061687350273132
34.406349182128906 -18.592134475708008 0.793208658695221
34.3813591003418 -18.852218627929688 0.7811042070388794
30.810705184936523 -17.141202926635742 1.064477562904358
34.57581329345703 -19.514726638793945 0.7359016537666321
34.590965270996094 -19.80423927307129 0.7197948098182678
34.56935501098633 -20.074636459350586 0.7065873742103577
34.5732307434082 -20.361711502075195 0.691025972366333
34.59627914428711 -20.662370681762695 0.6736138463020325
34.59559631347656 -20.951162338256836 0.6580109000205994
34.573974609375 -21.229244232177734 0.6440041661262512
34.60102844238281 -21.539470672607422 0.6255685091018677
34.588462829589844 -21.827407836914062 0.6103484034538269
34.54761505126953 -22.099342346191406 0.5974005460739136
34.5842170715332 -22.423133850097656 0.5774183869361877
34.59980010986328 -22.73615837097168 0.5590347051620483
34.57963562011719 -23.028108596801758 0.5435922145843506
34.69853210449219 -23.41604995727539 0.5154320597648621
34.75139236450195 -23.76353645324707 0.4928719997406006
34.7439079284668 -24.07279396057129 0.47549116611480713
34.735557556152344 -24.383996963500977 0.4579402804374695
29.8236026763916 -21.210432052612305 0.8910591006278992
34.78167724609375 -25.059505462646484 0.41626760363578796
34.80730438232422 -25.404056549072266 0.3947502374649048
34.79953384399414 -25.727336883544922 0.3760543465614319
34.820228576660156 -26.07478904724121 0.3544054627418518
34.8435173034668 -26.427675247192383 0.3321998119354248
34.84796142578125 -26.769676208496094 0.3114703297615051
34.862884521484375 -27.12313461303711 0.2894320785999298
34.80271530151367 -27.421005249023438 0.27431991696357727
34.84230041503906 -27.800626754760742 0.24928084015846252
34.754425048828125 -28.081499099731445 0.2363356202840805
34.74390411376953 -28.4273681640625 0.21556854248046875
34.86479949951172 -28.885488510131836 0.18147270381450653
34.90726852416992 -29.28399658203125 0.1547023057937622
34.92030715942383 -29.662158966064453 0.13048578798770905
34.8967399597168 -30.012971878051758 0.10959620028734207
32.30596923828125 30.82642364501953 1.226791262626648
32.37935256958008 30.51946258544922 1.2313289642333984
32.31718063354492 30.088926315307617 1.245696783065796
32.451602935791016 29.84484100341797 1.2453337907791138
32.496299743652344 29.520339965820312 1.2514045238494873
32.47581481933594 29.140396118164062 1.2620428800582886
32.3966064453125 28.712810516357422 1.2767291069030762
32.55455780029297 28.498424530029297 1.2739741802215576
32.563804626464844 28.15582847595215 1.2818355560302734
32.56781005859375 27.81224822998047 1.2898770570755005
32.57722854614258 27.476762771606445 1.2973347902297974
32.62135314941406 27.173526763916016 1.3021215200424194
32.62520980834961 26.83970069885254 1.3096075057983398
32.62466049194336 26.50559425354004 1.3172204494476318
32.61968994140625 26.1712589263916 1.3249611854553223
32.665061950683594 25.880149841308594 1.3289659023284912
32.671932220458984 25.561168670654297 1.3355220556259155
32.67295837402344 25.240636825561523 1.342314600944519
32.692726135253906 24.937408447265625 1.3476250171661377
32.711612701416016 24.63608741760254 1.3528361320495605
32.731231689453125 24.337860107421875 1.3578362464904785
32.72831344604492 24.025550842285156 1.364243507385254
32.53282165527344 23.576505661010742 1.3838058710098267
32.6002197265625 23.3218994140625 1.3850057125091553
32.67224884033203 23.071964263916016 1.3857557773590088
32.68920135498047 22.784908294677734 1.3901571035385132
32.706336975097656 22.500211715698242 1.3944003582000732
32.724517822265625 22.21841049194336 1.398429274559021
32.698177337646484 21.90888786315918 1.4053502082824707
32.735904693603516 21.644580841064453 1.4077634811401367
32.72396469116211 21.349536895751953 1.413414716720581
32.75749206542969 21.086261749267578 1.415844440460205
32.786495208740234 20.821773529052734 1.4184497594833374
32.82365036010742 20.564083099365234 1.4203777313232422
18.4146785736084 11.379668235778809 2.3943698406219482
18.434541702270508 11.236358642578125 2.3953750133514404
18.3866024017334 11.05311107635498 2.400857448577881
18.367172241210938 10.88869571685791 2.4043476581573486
32.84189987182617 19.19970703125 1.439361333847046
32.92072677612305 18.9759578704834 1.437761902809143
32.8808708190918 18.68537139892578 1.4439568519592285
32.84305191040039 18.39842987060547 1.4498863220214844
32.87636184692383 18.153194427490234 1.450963020324707
32.973670959472656 17.94403076171875 1.447684407234192
32.99663162231445 17.69519805908203 1.4492261409759521
33.0116081237793 17.44348907470703 1.4511831998825073
33.0327033996582 17.196414947509766 1.4526218175888062
33.04314041137695 16.945180892944336 1.4546523094177246
33.05797576904297 16.697614669799805 1.45628023147583
33.067447662353516 16.44873046875 1.45815110206604
33.07152557373047 16.198598861694336 1.4602652788162231
33.09266662597656 15.958141326904297 1.4611505270004272
33.10038375854492 15.712469100952148 1.4628100395202637
33.10362243652344 15.466036796569824 1.4646556377410889
33.113250732421875 15.223907470703125 1.4659759998321533
33.14935302734375 14.994997024536133 1.4654595851898193
33.12005615234375 14.737805366516113 1.4691158533096313
33.103485107421875 14.487942695617676 1.4718343019485474
33.11994552612305 14.25383186340332 1.4722930192947388
33.140296936035156 14.02239990234375 1.472396731376648
33.16735076904297 13.794703483581543 1.4719648361206055
33.17900466918945 13.561535835266113 1.4724366664886475
33.22239303588867 13.342137336730957 1.4707437753677368
33.083282470703125 13.051280975341797 1.480830430984497
33.1270751953125 12.834400177001953 1.4789139032363892
33.53236770629883 12.755534172058105 1.4533990621566772
33.663002014160156 12.569510459899902 1.4456572532653809
33.70358657836914 12.349737167358398 1.4436753988265991
33.7230110168457 12.122844696044922 1.4429718255996704
33.739986419677734 11.895846366882324 1.4423326253890991
33.741294860839844 11.664200782775879 1.4426156282424927
33.75615692138672 11.43811321258545 1.441922903060913
33.761940002441406 11.209765434265137 1.441726565361023
33.774742126464844 10.984553337097168 1.440981149673462
33.784149169921875 10.758999824523926 1.4403622150421143
33.786346435546875 10.531960487365723 1.440119981765747
33.7946662902832 10.307629585266113 1.439387321472168
33.78429412841797 10.078453063964844 1.4397763013839722
33.804962158203125 9.859293937683105 1.438058853149414
